ply
format ascii 1.0
comment PCL generated
element vertex 439
property float x
property float y
property float z
element camera 1
property float view_px
property float view_py
property float view_pz
property float x_axisx
property float x_axisy
property float x_axisz
property float y_axisx
property float y_axisy
property float y_axisz
property float z_axisx
property float z_axisy
property float z_axisz
property float focal
property float scalex
property float scaley
property float centerx
property float centery
property int viewportx
property int viewporty
property float k1
property float k2
end_header
0.8896966 1.0721616 2.6833847
0.88985109 1.1518496 2.6839073
0.87439013 1.2326343 2.6863019
0.87945271 1.3114331 2.6862326
0.85418129 1.3761847 2.6896899
0.82027578 1.3914771 2.6938419
0.76810026 1.4184657 2.7002552
0.72509241 1.4299195 2.7054682
0.69536591 1.4346281 2.7090497
0.60380316 1.4698828 2.720222
0.60174942 1.470058 2.7204683
0.46424484 1.4686134 2.736877
0.44137478 1.4686823 2.7396083
0.33544636 1.4814142 2.7523427
0.33216047 1.4816945 2.752737
0.29085588 1.4664658 2.7575655
0.1674943 1.4532067 2.7722051
0.015679836 1.4645318 2.7904091
0.00083684921 1.4643863 2.7921805
-0.043729782 1.4630126 2.7974925
-0.072965145 1.4636244 2.8009875
-0.083271027 1.4635625 2.8022177
-0.10802794 1.4628513 2.8051689
-0.13688231 1.4627248 2.8086133
-0.14925146 1.4626037 2.8100893
-0.19170618 1.4624611 2.8151577
-0.20201254 1.4623994 2.8163879
-0.22014046 1.4625342 2.8185532
-0.28963614 1.4539943 2.8267932
-0.36941624 1.4536214 2.8363166
-0.40055895 1.4535179 2.8400345
-0.49302149 1.473176 2.8512082
-0.72900295 1.4119668 2.8789694
-0.85216951 1.3715175 2.8934011
-1.0537539 1.4106427 2.9177368
-1.0935402 1.4104532 2.9224861
-1.1327 1.4102451 2.9271605
-1.1331172 1.4102573 2.9272103
-1.1731119 1.4100742 2.9319844
-1.4342444 1.3932331 2.9630501
-1.5301406 1.4083375 2.9746029
-1.566381 1.4080426 2.9789281
-1.645535 1.4076512 2.9883766
-1.6490808 1.4077564 2.9888008
-1.7336621 1.4069262 2.9988945
-1.7542558 1.4067664 3.0013523
-1.8518114 1.41942 3.0130866
-1.9260659 1.4463787 3.022136
-1.9383755 1.4461445 3.0236042
-2.047981 1.4058923 3.036418
-2.2392514 1.4048885 3.0592494
-2.2448242 1.4048827 3.0599148
-2.255703 1.4046915 3.0612125
-2.2714078 1.4047295 3.0630879
-2.2837756 1.4046683 3.0645642
-2.4453447 1.3839854 3.0837154
-2.5279129 1.4036924 3.0937083
-2.5285385 1.403711 3.0937831
-2.6465981 1.40246 3.1078713
-2.8290427 1.3833557 3.1295259
-2.9021075 1.4005123 3.1383667
-2.9115183 1.400439 3.1394897
-2.9380178 1.4004023 3.1426537
-3.0266478 1.3671167 3.1530104
-3.0887063 1.3596882 3.1603699
-3.112309 1.3592811 3.1631854
-3.113966 1.3593211 3.1633835
-3.1508987 1.3590105 3.1677911
-3.2674353 1.3232225 3.181463
-3.2932751 1.3179455 3.1845124
-3.3031211 1.3103839 3.1856368
-3.3301358 1.277715 3.1886406
-3.3263054 1.2378546 3.1879125
-3.3259401 1.1976272 3.1875956
-3.380775 1.0324007 3.1930211
-3.3965335 0.9574182 3.1943936
-3.4685869 0.7971555 3.2019086
-3.4681458 0.75715166 3.2015843
-3.4022672 0.59761739 3.1926348
-3.4065957 0.4775919 3.1923366
-3.4846463 0.27710521 3.2002945
-3.5197823 0.15677139 3.2036726
-3.7460303 -0.063244402 3.2291932
-4.3185668 0.013224542 3.2980752
-4.3359947 0.03811273 3.3003252
-4.3392897 0.55176365 3.3042066
-4.3416247 0.59181321 3.3047574
-4.2209716 1.0724266 3.2936149
-4.2189698 1.097374 3.2935452
-4.5078192 1.2706753 3.3292115
-4.5759468 1.3201323 3.337682
-4.6454935 1.3896952 3.3464584
-4.6556139 1.3896389 3.3476665
-4.7827439 1.3891007 3.3628423
-4.9626913 1.3078223 3.3837767
-5.0182676 1.2875893 3.3902752
-5.1119118 1.2674484 3.40132
-5.3252826 1.2671394 3.426795
-5.4019547 1.2816426 3.4360483
-5.4453073 1.2815739 3.4412241
-5.524374 1.2810616 3.4506614
-5.5639195 1.2833055 3.4553986
-5.6429987 1.2852933 3.4648545
-5.6825066 1.2800375 3.4695361
-5.875526 1.3035218 3.4927425
-6.1141243 1.3895276 3.521816
-6.1536579 1.3892715 3.5265346
-6.2327366 1.3912594 3.5359905
-6.2722702 1.3910033 3.540709
-6.3474536 1.3778046 3.5495965
-6.5489016 1.3692122 3.5735917
-6.6279802 1.3712 3.5830474
-6.8716631 1.3774794 3.6121864
-6.9481797 1.3918377 3.6214201
-7.0272841 1.3988253 3.630913
-7.1497922 1.4157435 3.6456556
-7.2326784 1.4154189 3.6555502
-7.2609797 1.4150233 3.658927
-7.2679143 1.4149519 3.6597545
-7.3079252 1.4147193 3.6645303
-7.3413944 1.4147147 3.6685266
-7.3524718 1.4147091 3.6698492
-7.3748636 1.4147098 3.6725228
-7.3944039 1.4141593 3.6748524
-7.429389 1.4140918 3.6790292
-7.4574866 1.4135721 3.6823804
-7.476562 1.4142103 3.6846626
-7.4954987 1.4136881 3.6869199
-7.515379 1.4139192 3.6892955
-7.5345469 1.4133881 3.6915805
-7.5537181 1.4136046 3.693871
-7.6901822 1.4396662 3.7103422
-7.7256937 1.4517614 3.7146645
-7.7331576 1.4519767 3.7155571
-7.7459917 1.4519013 3.7170892
-7.7676315 1.4515448 3.7196705
-7.8139029 1.4514533 3.7251949
-7.8534327 1.4511672 3.729913
-7.9123726 1.4105586 3.7366748
-8.0790453 1.3694921 3.7562971
-8.1246052 1.3690233 3.761734
-8.2075319 1.3710623 3.7716494
-8.2828293 1.3853784 3.7807374
-8.3618431 1.3773066 3.790117
-8.5242376 1.3662881 3.8094325
-8.6462116 1.3680272 3.8240085
-8.765027 1.4046673 3.838444
-8.7784691 1.4044307 3.8400474
-9.0267248 1.3230525 3.8691373
-9.0489759 1.3253914 3.87181
-9.1675797 1.3270332 3.885983
-9.2032719 1.3291358 3.890259
-9.3614511 1.3379912 3.9092062
-9.4405861 1.3499185 3.918736
-9.6380539 1.3984717 3.9426441
-9.7590513 1.3576921 3.9568145
-9.8074913 1.2776815 3.962055
-9.833046 1.2373579 3.9648325
-9.8626928 1.1158065 3.9675469
-9.8622293 1.0758011 3.9672198
-9.8357115 0.9571414 3.9632478
-9.8349915 0.83714759 3.962347
-9.861948 0.6358906 3.9641991
-9.8619843 0.55590963 3.9636602
-9.8632069 0.5159564 3.9635348
-9.8634663 0.47597343 3.9632943
-9.8611774 0.41091701 3.9625793
-9.86063 0.35591236 3.9621406
-9.8584976 0.27586421 3.9613423
-9.8577938 0.23585135 3.9609864
-9.8587751 0.19589067 3.9608321
-9.8587933 0.15590015 3.9605629
-9.8366909 0.037377536 3.957119
-9.8365841 0.022670686 3.9570062
-9.8293495 -0.017133117 3.9558721
-9.8156672 -0.05684191 3.9539688
-9.7997017 -0.096889615 3.9517906
-9.593462 -0.16327062 3.9267139
-9.4297295 -0.17483553 3.9070854
-9.0422115 -0.43901142 3.8590207
-9.0418959 -0.49150833 3.8586266
-9.0476856 -0.53174007 3.8590446
-9.0392475 -0.57159436 3.8577664
-8.7997065 -0.68240917 3.8284121
-8.7598305 -0.73961425 3.8232622
-8.6825161 -0.76894867 3.8138316
-8.479331 -1.047636 3.787678
-8.4771566 -1.0889643 3.787138
-8.429719 -1.1227432 3.7812443
-8.3545723 -1.1119994 3.7723446
-8.2282019 -1.1239468 3.7571745
-8.1491423 -1.1233636 3.7477384
-8.0343904 -1.1248275 3.7340267
-7.8680849 -1.1639916 3.7139034
-7.6295033 -1.1214619 3.6857049
-7.5850315 -1.1211339 3.680397
-7.4694915 -1.1087303 3.6666856
-7.4337988 -1.1107774 3.6624098
-7.4299469 -1.1109387 3.6619487
-7.2611609 -1.0813484 3.6419961
-7.2254982 -1.0754904 3.6377778
-7.1069169 -1.0721687 3.6236415
-7.0201197 -1.0827889 3.6132054
-6.9015379 -1.0794673 3.5990691
-6.86203 -1.0741942 3.5943875
-6.7830029 -1.0661473 3.585006
-6.7039638 -1.0606 3.5756061
-6.5814805 -1.0703614 3.560915
-6.5024309 -1.0673139 3.551497
-6.4251423 -1.046513 3.5424099
-6.2613773 -1.0712539 3.5226877
-6.186275 -1.0451249 3.5138977
-5.9847188 -1.0568378 3.4897518
-5.9452219 -1.049065 3.4850886
-5.8674622 -1.0041431 3.476109
-5.6708169 -0.8415767 3.453733
-5.557281 -0.80041242 3.4404559
-5.4796839 -0.79464591 3.4312298
-5.3160453 -0.79912257 3.4116604
-5.2661743 -0.71878672 3.4062512
-5.2685485 -0.68003118 3.4067979
-4.9994831 -0.23086354 3.3777208
-4.642941 -0.58870995 3.3327186
-4.6452036 -0.62872386 3.3327172
-4.6523581 -0.67876887 3.3332314
-4.6467576 -0.70892191 3.3323581
-4.6110091 -0.70856166 3.3280921
-4.1700883 -0.72594714 3.2753267
-4.1269264 -0.78578544 3.2697668
-3.634047 -1.004357 3.2094314
-3.5715728 -1.023501 3.2018418
-3.5320964 -1.0344943 3.1970534
-3.4204164 -1.0210416 3.18381
-3.2700257 -1.0603179 3.165586
-3.2513609 -1.0703299 3.1632895
-3.187423 -1.0718945 3.1556444
-3.0968854 -1.0917102 3.1446996
-3.0535231 -1.0990644 3.139472
-3.043961 -1.0984766 3.1383343
-3.0154638 -1.098426 3.1349318
-3.0054188 -1.0986251 3.1337311
-3.2445068 -0.74015903 3.1647131
-2.9050748 -0.49746522 3.1258321
-3.1040032 -0.25874075 3.151206
-3.110096 -0.0065464973 3.153646
-2.5986958 0.10735486 3.0933568
-2.5598371 0.083211273 3.088553
-2.4387679 -0.32434842 3.0713294
-7.8875856 -0.48338607 3.7208538
-7.892252 -1.0280218 3.7177124
-8.3250637 -0.88635814 3.7703533
-8.3645926 -0.76668692 3.7758858
-0.66225672 -1.229906 2.8530593
-0.86347961 -1.2307777 2.87708
-1.0286126 -1.1913772 2.8970649
-1.0681896 -1.191568 2.9017892
-1.1044297 -1.1918421 2.9061146
-1.1077666 -1.191759 2.9065137
-1.1473436 -1.1919501 2.911238
-1.1869211 -1.1921409 2.9159622
-1.2660751 -1.1925229 2.925411
-1.3056526 -1.1927139 2.9301353
-1.3848073 -1.1930958 2.939584
-1.4260685 -1.1877402 2.9445472
-1.4417746 -1.1733711 2.9465201
-1.662179 -1.04899 2.9736814
-1.9014533 -1.0675838 3.0021253
-2.221436 -1.0615101 3.0403733
-2.2676499 -1.0714384 3.0458241
-2.4159193 -1.0801167 3.0634689
-2.4688075 -1.089779 3.0697184
-2.626081 -1.1185671 3.0883017
-2.6975405 -1.1267873 3.0967784
-2.737077 -1.12704 3.1014974
-2.7842131 -1.1220784 3.1071594
-2.8709118 -1.1123698 3.1175773
-2.9424493 -1.1055907 3.1261652
0.67512798 -0.94061983 2.6953363
0.75755262 -0.81453228 2.6863508
0.7955718 -0.77666998 2.6820683
0.8064189 -0.73657966 2.6810455
0.8128767 -0.69626081 2.6805482
0.82031107 -0.65580952 2.6799352
0.82728958 -0.61572683 2.6793742
0.81801653 -0.53595376 2.6810231
0.81564093 -0.4558579 2.6818507
0.81123161 -0.41578713 2.6826491
0.77025127 -0.37638578 2.6878099
0.68899632 0.022843599 2.7002232
0.80988216 0.3520146 2.6880243
0.85699892 0.4312253 2.6829364
0.86822748 0.47164714 2.6818702
0.87531996 0.51171607 2.6812954
0.88289547 0.59147674 2.6809325
0.88422871 0.63180172 2.681047
0.88061523 0.67207819 2.6817522
0.88405466 0.75148594 2.6818807
0.88834476 0.83152688 2.6819119
0.88687611 0.91182375 2.6826327
0.89035416 0.99216926 2.6827629
0.89164925 1.0315564 2.6828756
0.62000275 -1.0580571 2.7011209
0.57744694 -1.0611603 2.706181
0.49154282 -1.0797844 2.7163119
0.41581917 -1.0706704 2.7254155
0.340137 -1.0714338 2.734447
0.25951624 -1.0932286 2.7439253
0.20275879 -1.0937742 2.7506986
0.085665703 -1.0900134 2.7647054
-0.056688309 -1.1461413 2.7813218
-0.10315132 -1.1469266 2.7868643
-0.12541866 -1.1473607 2.78952
-0.2361331 -1.1365224 2.8028131
-0.26872826 -1.1369742 2.8067021
-0.28661108 -1.1371566 2.808836
-0.30491734 -1.1373271 2.8110209
-0.38788557 -1.1285157 2.8209872
-0.5850544 -1.2094781 2.8439798
-0.62601614 -1.229632 2.8487341
0.0096921921 -0.42033634 2.7783244
-0.033733368 -1.0046456 2.7795417
0.13527822 -1.0621213 2.7589707
0.17486525 -1.0643617 2.7542288
0.22135782 -1.0653216 2.7486711
0.29021358 -1.0659895 2.7404449
0.32580137 -1.0621004 2.736222
0.39529037 -1.0448385 2.7280421
0.55262375 -0.53154314 2.7127416
0.51772547 -0.48177257 2.7172465
0.51944542 1.3932002 2.7297738
0.44703341 1.3925489 2.7384155
0.40410376 1.3875545 2.7435076
0.3115077 1.3778958 2.7544982
0.15226841 1.4122951 2.7737455
0.12185144 1.4119484 2.777375
0.1094842 1.4118984 2.7788513
0.091275215 1.4120038 2.7810261
-0.0018467903 1.4214475 2.7922094
-0.07086134 1.4106314 2.8003764
-0.14657164 1.3851466 2.8092434
-0.20631027 1.3684793 2.8162632
-0.28211212 1.3754933 2.8253617
-0.37036085 1.3736616 2.8358865
-0.37304258 1.3736554 2.8362067
-0.48256922 1.3578829 2.8491774
-0.59458828 1.3470978 2.8624794
-0.67364645 1.3217072 2.8717468
-0.75792313 1.351463 2.8820119
-0.95010042 1.3303176 2.9048147
-1.0298414 1.3199458 2.9142656
-1.1140213 1.3247023 2.9243493
-1.2327433 1.3216152 2.938504
-1.3118982 1.3212239 2.9479527
-1.3531332 1.3185782 2.9528582
-1.389364 1.3157835 2.9571652
-1.4289696 1.3230876 2.9619439
-1.5098031 1.3252451 2.9716103
-1.5527461 1.3326483 2.976788
-1.5940006 1.3350025 2.98173
-1.6714873 1.334561 2.9909792
-1.755656 1.3368187 3.0010445
-1.7902091 1.3314738 3.0051339
-1.8052151 1.3294208 3.0069118
-1.9485562 1.3406906 3.0241036
-2.0756392 1.3428518 3.0392923
-2.1085422 1.3424577 3.0432184
-2.186029 1.3420162 3.0524676
-2.2256253 1.3468202 3.0572281
-2.3064857 1.3564785 3.0669487
-2.437614 1.36333 3.0826523
-2.6234295 1.3144158 3.104507
-2.9148433 1.2800889 3.1390696
-3.3217006 1.0777706 3.1862755
-3.3300643 1.0376036 3.1870015
-3.339973 0.87764442 3.1870983
-3.278255 0.71862364 3.1786492
-3.2802329 0.67864048 3.1786137
-3.2511263 0.51856619 3.1740513
-3.2743618 0.45603651 3.1764011
-3.2938361 0.39841518 3.1783352
-3.1090839 0.021091163 3.1537127
-2.6017654 0.14746967 3.0939958
-2.540493 0.18778922 3.0869534
-2.4737029 0.19863516 3.0790522
-2.429765 0.20370054 3.0738401
-2.1625149 0.36533737 3.0430274
-2.0909889 0.60540479 3.0361173
-2.0968361 0.64514387 3.0370853
-2.0697515 0.67777729 3.0340729
-2.0460293 0.68710697 3.0313039
-1.9755943 0.60609114 3.0223436
-1.9833384 0.52547598 3.0227208
-1.9000275 0.087145895 3.0097966
-1.9071722 0.029715329 3.0102596
-1.9112229 -0.010004818 3.0104737
-1.9388463 -0.12998879 3.0129571
-1.9384396 -0.20793357 3.0123792
-1.9376504 -0.24968138 3.0120015
-1.901979 -0.37019452 3.0069239
-1.5847476 -0.64657032 2.9671688
-1.5369275 -0.64829755 2.9614472
-1.3897169 -0.97322261 2.9416633
-1.1426625 -1.1041455 2.9112754
-1.0668459 -1.1036226 2.902226
-0.98434448 -1.1058658 2.89236
-0.95812511 -1.1026387 2.8892512
-0.90852785 -1.105343 2.8833108
-0.87062263 -1.1056162 2.878783
-0.83104563 -1.1054252 2.8740587
-0.75692987 -1.0942979 2.8652844
-0.71234226 -1.0973525 2.8599401
-0.63320637 -1.0919707 2.8505273
-0.59865856 -1.0835186 2.8464599
-0.47659016 -1.0830669 2.8318875
-0.43703175 -1.0778723 2.8271995
-0.39578056 -1.0808252 2.8222537
-0.35453129 -1.0801156 2.8173332
-0.24383307 -0.4964352 2.8080792
-0.26178598 -0.45653895 2.8104939
-0.064734936 -0.30625448 2.787986
0.13881397 0.056127816 2.7661424
0.12551594 0.14097507 2.7683065
0.1127677 0.17582719 2.7700653
0.10733223 0.26425493 2.7713149
0.1437912 0.31986517 2.7673392
0.18006563 0.32303289 2.7630293
0.21964598 0.32342061 2.758306
0.2592268 0.32380834 2.7535825
0.34158993 0.3343026 2.7438195
0.48987103 0.35919213 2.7262833
0.78112364 0.694278 2.6937823
0.78325987 0.81428349 2.6943421
0.78225136 0.85445726 2.6947355
0.7818017 1.0144513 2.6958756
-2.9386754 -1.1031981 3.1257308
-2.636883 -0.81581962 3.0916474
-3.7458224 -0.10324252 3.2288969
-3.7371049 -0.26320097 3.2267697
-4.1719408 -0.50593734 3.2770422
0 0 0 1 0 0 0 1 0 0 0 1 0 0 0 0 0 439 1 0 0
