ply
format ascii 1.0
comment PCL generated
element vertex 260
property float x
property float y
property float z
element camera 1
property float view_px
property float view_py
property float view_pz
property float x_axisx
property float x_axisy
property float x_axisz
property float y_axisx
property float y_axisy
property float y_axisz
property float z_axisx
property float z_axisy
property float z_axisz
property float focal
property float scalex
property float scaley
property float centerx
property float centery
property int viewportx
property int viewporty
property float k1
property float k2
end_header
-0.18345207 1.2977331 -5.9688282
-0.18555018 1.2183968 -5.9935999
-0.18565613 1.1384612 -6.0017557
-0.18261471 0.97838539 -5.99086
-0.17954549 0.89777595 -5.972506
-0.17936957 0.77808851 -5.9819174
-0.17799675 0.69805992 -5.9777069
-0.17761996 0.61833096 -5.9818034
-0.17624715 0.53830242 -5.9775925
-0.1734876 0.41797832 -5.9654417
-0.17181897 0.3379311 -5.9587569
-0.17096803 0.22625884 -5.9617906
-0.16986713 0.18586804 -5.9562511
-0.16737545 0.025849432 -5.9499507
-0.16488084 -0.094556898 -5.9400244
-0.16467291 -0.21413505 -5.9491577
-0.16029575 -0.33498645 -5.9235177
-0.15969548 -0.41478562 -5.9257507
-0.15919331 -0.45487672 -5.9251938
-0.15877023 -0.49569654 -5.9253654
-0.15836909 -0.53569192 -5.9256458
-0.15811619 -0.57474309 -5.9270802
-0.15703899 -0.69460934 -5.9289656
-0.15639555 -0.77418154 -5.9308176
-0.15608954 -0.83416218 -5.9337106
-0.15449527 -0.93417531 -5.9294634
-0.12358978 -1.2453074 -5.6991291
-0.11847952 -1.2433896 -5.6561904
-0.1039567 -1.2368701 -5.5340662
-0.094443858 -1.2422674 -5.4549503
-0.085006267 -1.2401655 -5.3757825
-0.080628783 -1.2449806 -5.3395882
-0.066131055 -1.2359614 -5.2174463
-0.061424762 -1.2336605 -5.1778536
-0.047255844 -1.2317574 -5.0591106
-0.042574644 -1.2269568 -5.0194998
-0.033137023 -1.2248549 -4.9403319
-0.02374956 -1.2177536 -4.8611288
-0.013604194 -1.2064188 -4.7751985
-0.0044452548 -1.2164323 -4.6994638
0.0097487569 -1.2170289 -4.5807381
0.019515187 -1.2078109 -4.4981718
0.023842484 -1.2076268 -4.4619427
0.041329414 -1.1572015 -4.3110209
0.05619359 -1.1212258 -4.1833611
0.07274361 -1.1226521 -4.0449953
0.089709714 -1.1635947 -3.9067407
0.12282902 -1.1261561 -3.626183
0.12499484 -1.1262276 -3.6080656
0.1293412 -1.086571 -3.5680876
0.17623644 -0.89059252 -3.1578321
0.17850763 -0.89083904 -3.1388485
0.18067344 -0.89091033 -3.1207309
0.18463334 -0.81125778 -3.0803499
0.18670741 -0.69099969 -3.0520582
0.19831461 -0.47267669 -2.9350724
0.19949499 -0.45260966 -2.9233699
0.20407602 -0.29340053 -2.8705568
0.19818389 -0.17307416 -2.9089224
0.19526196 -0.11541072 -2.9281306
0.19061671 -0.01249218 -2.9576447
0.18610381 0.067599773 -2.9881272
0.18059811 0.14793034 -3.0268958
0.18788421 0.56742603 -2.9277771
0.18776491 0.57742935 -2.9278657
0.18621016 0.69499654 -2.9301858
0.22411466 1.1538057 -2.5712676
0.23416367 1.1304197 -2.4893007
0.26424336 0.80806911 -2.2668967
0.26546434 0.64811265 -2.2712247
0.26651865 0.56809598 -2.2696781
0.26888093 0.48798218 -2.2571948
0.26963937 0.40799114 -2.2581217
0.27626592 0.22137964 -2.2196381
0.27665234 0.18138385 -2.2200413
0.27674678 0.1675894 -2.2205055
0.27731663 0.079054147 -2.2237875
0.28868738 -0.059391528 -2.1412227
0.29581019 -0.24251795 -2.0982692
0.30650765 -0.22221813 -2.0069036
0.32814774 -0.22304267 -1.8258874
0.34884641 -0.16614726 -1.6475006
0.38223261 -0.26410633 -1.377022
0.4428013 -0.306243 -0.87399554
0.45042205 -0.38642788 -0.81751394
0.46248722 -0.58703107 -0.73479044
0.46582597 -0.70674258 -0.7177366
0.42327839 -1.0254247 -1.1027671
0.41941541 -1.0254848 -1.1350992
0.41362765 -1.0253985 -1.1835252
0.34774619 -1.0615258 -1.7381275
0.41428822 -1.0524156 -1.1804543
0.4240573 -1.0826795 -1.1014552
0.42870912 -1.0653787 -1.0609543
0.47569761 -0.74700588 -0.63878882
0.49939442 -0.94799823 -0.45876336
0.51297301 -1.0281973 -0.35242629
0.5215838 -0.79127401 -0.25882423
0.554456 -0.7100994 0.023642302
0.56135106 -0.71017075 0.081336021
0.59988284 -0.51328427 0.42168617
0.60103798 -0.51344496 0.43133759
0.60421741 -0.49368334 0.45974159
0.60639238 -0.47388178 0.479743
0.62047064 -0.21528301 0.62106967
0.62911588 -0.17358151 0.69720769
0.63025463 -0.076263547 0.71558619
0.6294902 0.0037279725 0.71646357
0.62863946 0.12369077 0.72025251
0.62512255 0.23032415 0.70051885
0.61952627 0.3102721 0.66095757
0.61653852 0.36774504 0.64118123
0.61096936 0.44519317 0.60161924
0.60790032 0.51016563 0.58184481
0.60886639 0.8301906 0.61903024
0.6173203 0.95028085 0.70069575
0.67967212 0.7906341 1.2079582
0.70139664 0.59072995 1.3715777
0.70504713 0.51079249 1.3948572
0.70597363 0.47086841 1.3989801
0.71327299 0.2746819 1.4422235
0.71644914 0.15650138 1.4580562
0.72147143 0.076199993 1.4927816
0.7230866 -0.12375435 1.4881155
0.73063159 -0.28428781 1.5366566
0.72378361 -0.50596857 1.4591925
0.72377014 -0.52347064 1.4574883
0.73363793 -0.7640546 1.5181875
0.72695863 -0.92469233 1.447686
0.72596735 -0.96328205 1.4358814
0.7328732 -1.0488217 1.4858932
0.73768163 -1.0842161 1.5229132
0.75667715 -1.0657825 1.6835504
0.79274148 -1.12872 1.9796247
0.79770809 -1.1290452 2.0211573
0.82373762 -1.0912619 2.2424164
0.82780361 -1.0516648 2.2800426
0.85335547 -0.65404081 2.5300264
0.85253942 -0.57405043 2.5304708
0.84781796 -0.45376927 2.5018978
0.84581894 -0.37368071 2.4924521
0.84375316 -0.17370525 2.4933496
0.84455687 -0.093865424 2.5073352
0.84184217 0.026273578 2.495543
0.84072143 0.14626145 2.4970746
0.88852161 0.39948392 2.9201083
0.89317298 0.40691656 2.9597087
0.89403301 0.49438405 2.9748592
0.89366686 0.61436129 2.9827051
0.89305657 0.81432337 2.9957809
0.89281249 0.89430821 3.0010118
0.89244562 0.93426818 3.0015755
0.89166099 1.0142248 3.0022807
0.89087653 1.0941813 3.0029864
0.88999039 1.174211 3.0028486
0.88954735 1.214226 3.00278
0.88363636 1.3343353 2.9642367
0.82948965 1.4120781 2.518189
0.82047886 1.4069192 2.4423146
0.81059933 1.4093893 2.3598642
0.80077398 1.4068596 2.2774124
0.7870338 1.4016538 2.1619573
0.77163279 1.4312956 2.0357718
0.75848979 1.4712694 1.9294219
0.75612569 1.4713485 1.9096458
0.75100267 1.4713659 1.8667762
0.74587953 1.4713833 1.8239059
0.74134648 1.4712009 1.7859552
0.74095273 1.4712656 1.7826662
0.73841584 1.4712703 1.7614367
0.72981983 1.4712915 1.6895049
0.71469569 1.4211383 1.5583806
0.69618464 1.3834517 1.4000473
0.67217124 1.3807805 1.1988528
0.65784776 1.3931382 1.0801127
0.65294689 1.3903148 1.0388439
0.64974499 1.3903255 1.0120502
0.6339314 1.3901935 0.87970495
0.63373393 1.3901229 0.87804627
0.63040924 1.3902054 0.85023165
0.62801969 1.3901346 0.83022857
0.60264027 1.3501534 0.61421037
0.60121155 1.3501308 0.60225224
0.60057122 1.3501327 0.59689355
0.58692515 1.3500051 0.48268723
0.56763613 1.3523729 0.32148576
0.5630815 1.3498015 0.28313756
0.54489315 1.3378494 0.1298449
0.5349369 1.354975 0.048085213
0.52065766 1.3542044 -0.071478367
0.51120555 1.3536501 -0.15062702
0.5016523 1.3531566 -0.23061633
0.49714214 1.3428197 -0.26929891
0.48296398 1.3419886 -0.38802171
0.46823791 1.353898 -0.51017118
0.4588145 1.3508441 -0.58930719
0.42833632 1.3888142 -0.84090543
0.42064476 1.4282863 -0.90168142
0.41596773 1.4106021 -0.94242847
0.40481529 1.3871694 -1.0378865
0.36176714 1.3851769 -1.3983083
0.35674572 1.3848825 -1.440356
0.35191047 1.384865 -1.4808203
0.34904981 1.3848302 -1.5047624
0.34688908 1.3845706 -1.5228679
0.3424584 1.3843107 -1.5599687
0.33743697 1.3840163 -1.6020164
0.32092139 1.3457923 -1.7436998
0.30613798 1.3627014 -1.8658746
0.29752213 1.3417861 -1.9398767
0.27535272 1.3408849 -2.1254792
0.27014175 1.3296065 -2.1701121
0.24096568 1.372138 -2.4103992
0.23623073 1.3700535 -2.4502122
0.23156843 1.3654604 -2.4896455
0.21746075 1.356694 -2.6085002
0.21801612 1.3316388 -2.6061311
0.21839534 1.2916431 -2.6065946
0.21879904 1.2516432 -2.6068537
0.21922722 1.2116387 -2.6069083
0.21936153 1.1716878 -2.6094172
-0.17834044 1.3578424 -5.9205861
-0.16423044 1.3767033 -5.8007946
-0.14024857 1.3751798 -5.6002445
-0.13559052 1.3798981 -5.5608358
-0.12577391 1.3741064 -5.4792137
-0.12094063 1.3737433 -5.4388003
-0.11107174 1.3728852 -5.3562927
-0.097548366 1.3997519 -5.2406816
-0.083083272 1.3713617 -5.1222143
-0.073492497 1.3706844 -5.0420179
-0.06312573 1.3471487 -4.9574051
-0.044808686 1.3687098 -4.8021622
-0.040240914 1.3685188 -4.7639546
-0.021038473 1.3547311 -4.604516
-0.011275589 1.3691978 -4.5215015
-0.0017835796 1.3658764 -4.4423714
0.012881935 1.3570735 -4.3204465
0.018870711 1.349061 -4.271059
0.027784348 1.3232737 -4.1988115
0.042449802 1.3144705 -4.0768871
0.051455215 1.3212197 -4.0009131
0.062841728 1.3450022 -3.9034648
0.067575902 1.3445916 -3.8638849
0.093849391 1.3400202 -3.6444359
0.1080282 1.3412876 -3.5256677
0.10810167 1.341274 -3.525054
0.11189537 1.1010242 -3.5151539
0.1238357 0.94004625 -3.4298718
0.12578164 0.86000836 -3.4208655
0.18539599 0.69506013 -2.9369931
-0.18217698 1.3378611 -5.9545088
0.30730978 -1.0671811 -2.0770266
0.31256455 -1.080215 -2.0342383
0.31937408 -1.0594923 -1.9753695
0.33822012 -1.052526 -1.8170263
0.3165178 -1.0216801 -1.9958333
0.30210871 -0.97704786 -2.1123548
0.30214447 -0.98204118 -2.1125095
0.34295085 -1.0526593 -1.7774502
0 0 0 1 0 0 0 1 0 0 0 1 0 0 0 0 0 260 1 0 0
