ply
format ascii 1.0
comment PCL generated
element vertex 798
property float x
property float y
property float z
element camera 1
property float view_px
property float view_py
property float view_pz
property float x_axisx
property float x_axisy
property float x_axisz
property float y_axisx
property float y_axisy
property float y_axisz
property float z_axisx
property float z_axisy
property float z_axisz
property float focal
property float scalex
property float scaley
property float centerx
property float centery
property int viewportx
property int viewporty
property float k1
property float k2
end_header
0.26292562 1.4036851 2.3178706
0.32802868 1.4038472 2.347512
0.34431219 1.406927 2.3549118
0.44193077 1.4277172 2.3992627
0.45619202 1.4282699 2.4057536
0.53963566 1.4220705 2.4437754
0.60266113 1.4297496 2.4724362
0.63730478 1.4283925 2.4882162
0.70237827 1.4306947 2.5178344
0.65348577 1.437533 2.4955413
0.57390261 1.4685966 2.4591622
0.5723753 1.4685646 2.458467
0.50881433 1.4687941 2.4295256
0.48233223 1.4678965 2.4174721
0.21375751 1.4665983 2.2951922
0.16505384 1.4437984 2.2731223
0.089802742 1.4242016 2.23895
-0.048297882 1.3841299 2.1762564
-0.064549446 1.3846738 2.1688542
-0.10426235 1.3835747 2.1507773
-0.11646366 1.3836793 2.1452217
-0.24149895 1.3625937 2.0883889
-0.29031849 1.3597924 2.0661736
-0.34733725 1.357832 2.0402212
-0.42873907 1.3551562 2.0031703
-0.54286623 1.3438435 1.9512589
-0.62806273 1.3379431 1.9124949
-0.65685606 1.3334199 1.899406
-0.75434494 1.3194546 1.8550823
-0.78720808 1.3174281 1.8401287
-0.85197258 1.3095999 1.8106768
-0.88456059 1.3068519 1.7958517
-0.93337393 1.2994245 1.7736604
-0.94959927 1.3022449 1.7662599
-1.0147767 1.3067483 1.7365627
-1.0311394 1.3086792 1.7291036
-1.128767 1.3113238 1.6846402
-1.1775808 1.3088963 1.6624258
-1.2754831 1.3147621 1.6178222
-1.3080716 1.3170137 1.6029737
-1.3244343 1.3164451 1.5955262
-1.3077974 1.3162923 1.603102
-11.633383 -0.92995429 -3.0878863
-11.553275 -1.0495952 -3.050858
-11.502581 -1.0670177 -3.0276954
-11.486746 -1.0747846 -3.0204494
-11.453964 -1.0719612 -3.0055366
-11.27327 -1.0481287 -2.9233739
-11.095539 -1.0976164 -2.842222
-11.046888 -1.1175588 -2.819978
-10.932555 -1.1843511 -2.7676113
-10.902069 -1.1857444 -2.7537239
-10.853462 -1.1856881 -2.7315929
-10.818375 -1.1836475 -2.7156262
-10.803713 -1.1822736 -2.7089567
-10.705349 -1.1813028 -2.664175
-10.688379 -1.1807116 -2.6564515
-10.541546 -1.1196884 -2.5898786
-10.460153 -1.1193086 -2.5528204
-10.428514 -1.1198435 -2.538413
-10.31434 -1.1166401 -2.4864421
-10.234119 -1.1071194 -2.4499605
-10.107885 -1.1191064 -2.3924289
-10.092058 -1.1193184 -2.3852215
-10.043438 -1.1216475 -2.3630731
-9.9959469 -1.1247833 -2.3414352
-9.9462376 -1.1163063 -2.3188412
-9.8309011 -1.1220627 -2.2663004
-9.8003559 -1.1282932 -2.2523642
-9.7834206 -1.1226988 -2.2446787
-9.6523075 -1.116168 -2.1850111
-9.6206427 -1.1190919 -2.1705804
-9.58673 -1.1179023 -2.1551449
-9.4736824 -1.1177728 -2.1036732
-9.3525314 -1.1652461 -2.0482917
-9.332283 -1.1647334 -2.0390749
-9.1967182 -1.1157295 -1.9775772
-9.1311522 -1.1149639 -1.9477274
-9.0748539 -1.1146567 -1.9220954
-9.0667152 -1.1150051 -1.9183881
-8.8527498 -1.1896083 -1.820621
-8.7883778 -1.2394507 -1.791081
-8.764555 -1.2623178 -1.7801281
-8.7480993 -1.2796249 -1.7725552
-8.8202667 -1.1142308 -1.8061799
-8.8214149 -1.1100379 -1.8067225
-8.8295622 -1.1072208 -1.810445
-8.8372517 -1.107326 -1.8139458
-8.8530798 -1.1071141 -1.8211533
-8.8869915 -1.1083038 -1.8365884
-8.8962574 -1.1088622 -1.8408048
-8.926774 -1.109995 -1.8546939
-8.9595661 -1.1078783 -1.8696344
-9.027401 -1.1078951 -1.9005206
-9.0486498 -1.108604 -1.9101921
-9.0590448 -1.1099031 -1.9149193
-9.09725 -1.1112745 -1.9323083
-9.1234827 -1.1097944 -1.9442594
-9.1562662 -1.1101776 -1.9591843
-9.3766584 -0.64375377 -2.0616918
-9.3141499 -0.44461581 -2.034153
-9.3040657 -0.40449896 -2.029747
-9.2639122 -0.0020550638 -2.0133281
-9.3212824 -0.0027249306 -2.0394468
-9.4633846 0.035218135 -2.1043239
-9.4662819 0.035308331 -2.105643
-9.5596962 0.036593542 -2.1481819
-9.5872421 0.034565628 -2.1607146
-9.6071472 0.029730186 -2.1697555
-9.6871605 -0.032512158 -2.2058988
-9.6834183 -0.085364103 -2.2039497
-9.8507366 -0.36688969 -2.2788289
-9.8993568 -0.40037832 -2.3008113
-10.303732 -0.36406723 -2.4850972
-10.316044 -0.35668907 -2.4907372
-10.41498 -0.32265392 -2.5359416
-10.446773 -0.32549414 -2.5504043
-10.492924 -0.32636002 -2.5714138
-10.495046 -0.32643393 -2.5723794
-10.511853 -0.36696878 -2.5798445
-10.448778 -0.56549048 -2.5502059
-10.455627 -0.76639676 -2.5523944
-10.771075 -1.1144545 -2.6944108
-10.786894 -1.114187 -2.7016146
-10.966478 -1.0493096 -2.7836821
-11.100756 -0.96979129 -2.8451889
-11.131861 -0.54969251 -2.8612967
-11.070518 -0.48908958 -2.8336475
-11.063562 -0.44986972 -2.8306615
-10.962751 0.030681387 -2.7869866
-11.069998 0.3001231 -2.8370645
-11.052919 0.42027009 -2.8298452
-11.068038 0.54011762 -2.8372838
-11.142443 0.57941622 -2.8713436
-11.307823 0.81791329 -2.9477477
-11.323822 0.89774573 -2.9554021
-11.193192 1.2115544 -2.8973777
-11.00027 1.2533491 -2.8097308
-10.967442 1.2486839 -2.7947619
-10.935797 1.2414485 -2.7803199
-10.853317 1.2598197 -2.7428513
-10.818313 1.2627354 -2.7269266
-10.804739 1.2627864 -2.7207463
-10.775116 1.263034 -2.7072599
-10.76228 1.2631414 -2.701416
-10.758794 1.2631971 -2.6998289
-10.756144 1.2632532 -2.6986225
-10.747257 1.2633275 -2.6945767
-10.741796 1.2633996 -2.69209
-10.732147 1.263469 -2.6876972
-10.71841 1.2636292 -2.6814439
-10.706949 1.2637552 -2.6762259
-10.69965 1.2637861 -2.6729026
-10.657739 1.2617574 -2.6538103
-10.607912 1.2572949 -2.631103
-10.593298 1.2548566 -2.6244373
-10.575085 1.2526299 -2.6161342
-10.542303 1.2554646 -2.6012218
-10.413469 1.2491626 -2.5425324
-10.34786 1.2473322 -2.5126512
-10.300465 1.2477285 -2.4910731
-10.23612 1.255827 -2.4618137
-10.217922 1.2561001 -2.4535294
-10.170511 1.2539964 -2.4319324
-10.069707 1.2526417 -2.3860285
-10.038126 1.2554058 -2.3716624
-10.00653 1.25567 -2.3572769
-9.8874254 1.2790958 -2.3031554
-9.7766457 1.2798741 -2.2527196
-9.7257576 1.2767618 -2.2295353
-9.7099314 1.2765158 -2.2223282
-9.6624594 1.278278 -2.2007215
-9.6127291 1.28179 -2.1780949
-9.5482731 1.2766818 -2.1487236
-9.5324459 1.2764359 -2.1415162
-9.4182606 1.2748396 -2.0895183
-9.3198919 1.2709897 -2.0447118
-9.2713184 1.2811261 -2.0226424
-9.1899157 1.2791469 -1.9855694
-9.0926952 1.2794214 -1.9413048
-9.0248604 1.2794381 -1.9104186
-8.9943275 1.2755713 -1.8964987
-8.928751 1.273838 -1.8666327
-8.895977 1.2767209 -1.8517236
-8.8620644 1.2779793 -1.8362886
-8.8304014 1.2749876 -1.821858
-8.7809954 1.2780099 -1.7993768
-8.7320414 1.2736373 -1.7770672
-8.6664753 1.2744037 -1.7472174
-8.6009083 1.2751701 -1.7173676
-8.5696135 1.2888418 -1.7031817
-8.6351414 1.2781068 -1.732968
-8.6996002 1.2784103 -1.7623186
-8.7154427 1.278746 -1.7695332
-8.7493191 1.2798383 -1.7849627
-8.7979488 1.2848055 -1.8071277
-8.8148851 1.2841021 -1.8148354
-8.8634958 1.2815698 -1.836957
-8.9121199 1.2840374 -1.8591077
-8.9449024 1.2861693 -1.8740441
-8.9957209 1.2890577 -1.8971957
-9.0273972 1.2872294 -1.9116099
-9.0771151 1.2886574 -1.9342539
-9.0929565 1.2889931 -1.9414682
-9.108798 1.2893289 -1.9486824
-9.1707373 1.2915252 -1.9768946
-9.2071276 1.2882249 -1.9934485
-9.2532511 1.28763 -2.0144463
-9.2690773 1.287876 -2.0216537
-9.2860346 1.2872468 -2.0293713
-9.3745308 1.2975049 -2.0697126
-9.4341421 1.2900845 -2.0968199
-9.5065117 1.2953157 -2.1297951
-9.517252 1.2963753 -2.1346903
-9.5412731 1.2949634 -2.1456208
-9.6294508 1.2954408 -2.1857717
-9.6382818 1.2948529 -2.1897898
-9.6695805 1.2940562 -2.2040372
-9.6813107 1.2943499 -2.209379
-9.6986217 1.2950094 -2.2172639
-9.7416496 1.2945064 -2.2368531
-9.7615747 1.2947044 -2.2459264
-9.7917442 1.2947828 -2.2596631
-9.8130112 1.2947227 -2.269346
-9.8428268 1.2942935 -2.2829196
-9.8491154 1.2941122 -2.2857819
-9.8667078 1.2937719 -2.2937906
-9.9395161 1.3013314 -2.3269758
-10.020882 1.2933116 -2.3639858
-10.052517 1.2888037 -2.3783693
-10.14859 1.2844046 -2.4220924
-10.180225 1.2798969 -2.4364755
-10.313976 1.2652364 -2.4973066
-10.40942 1.2667571 -2.5407703
-10.419131 1.2666343 -2.5451913
-10.436504 1.2664096 -2.5531003
-10.46336 1.2636247 -2.5653152
-10.511971 1.2656577 -2.5874579
-10.521069 1.265521 -2.5916002
-10.528793 1.265515 -2.5951171
-10.563777 1.2651017 -2.6110437
-10.593962 1.2648209 -2.6247859
-10.612123 1.2646992 -2.633054
-10.639574 1.2670302 -2.6455641
-10.705231 1.2763604 -2.6755016
-10.847242 1.3024917 -2.7402825
-10.925928 1.341713 -2.7762907
-11.04706 1.3455187 -2.8314617
-11.167612 1.2593291 -2.885952
-11.396763 1.1770349 -2.9899061
-11.46039 1.096355 -3.0185034
-11.430073 0.97660446 -3.0041451
-11.424947 0.81665421 -3.0010703
-11.563484 0.60541213 -3.0631702
-11.547045 0.50554919 -3.0552223
-11.63718 0.069952667 -3.0942452
-11.593248 -0.090718806 -3.0734985
-11.68374 -0.37003818 -3.1134071
-11.732008 -0.59345531 -3.1343501
-11.734007 -0.73016369 -3.1346266
-11.707272 -0.77239799 -3.1222582
-4.8441143 1.2400144 -0.0066815019
-4.8765154 1.2373353 -0.02142188
-5.0560966 1.2808461 -0.10338908
-5.0819654 1.2812206 -0.11516938
-5.1135516 1.2793529 -0.12954229
-5.1305518 1.2786192 -0.13727936
-5.1451464 1.2799853 -0.14393085
-5.1949534 1.2813336 -0.16661495
-5.2119536 1.2805998 -0.17435202
-5.28369 1.2717571 -0.20697361
-5.355288 1.2698964 -0.23956475
-5.3722878 1.2691625 -0.24730146
-5.4479504 1.2841464 -0.28182116
-5.4719472 1.2843581 -0.29274827
-5.5351005 1.2756238 -0.32146245
-5.6505022 1.2761369 -0.37400889
-5.6991062 1.278535 -0.39615017
-5.7792697 1.2715665 -0.43261743
-5.8460851 1.2746809 -0.46305388
-5.8764591 1.2713635 -0.47686836
-5.9547548 1.2807968 -0.51256108
-5.8801122 1.2807126 -0.47857499
-5.7987204 1.2812318 -0.44151837
-5.7003179 1.2799848 -0.39670861
-5.606636 1.2831603 -0.35406855
-5.5969982 1.2836388 -0.34968251
-5.5703492 1.2856051 -0.337558
-5.5193491 1.2878063 -0.31434697
-5.4695425 1.2864581 -0.29166305
-5.4379468 1.2858256 -0.27727431
-5.4188972 1.2865856 -0.26860413
-5.3747659 1.287061 -0.24851283
-5.2751622 1.286864 -0.20316085
-5.2513561 1.2894357 -0.19233356
-5.2253652 1.2880154 -0.18049279
-5.2023563 1.2873721 -0.17001358
-5.1767697 1.2881168 -0.15836713
-5.1214991 1.2852365 -0.13318822
-5.0986261 1.2856264 -0.12277567
-5.0654202 1.2857119 -0.10765687
-5.0075121 1.2886146 -0.081303895
-4.9747181 1.2864615 -0.066362321
-4.9727731 1.286436 -0.065476716
-4.9581423 1.2867184 -0.058816254
-4.8933396 1.2920766 -0.029335558
-4.8609495 1.2972558 -0.014611989
-4.8283076 1.287519 0.00029554963
-4.70363 1.2486218 0.057243288
-4.7526183 1.2481855 0.034940094
0.24667215 1.4013246 2.3104808
0.18159771 1.3904438 2.2809019
0.15522003 1.3863901 2.2689106
0.10029888 1.3722031 2.2439699
0.035195827 1.3663218 2.2143548
0.0026445389 1.3691003 2.1995208
-0.11925983 1.3442478 2.1441309
-0.17265415 1.336055 2.1198578
-0.17567921 1.3362263 2.1184797
-0.19288492 1.3367891 2.1106431
-0.20610189 1.3368272 2.1046247
-0.2244935 1.3362986 2.0962536
-0.23666239 1.3365389 2.0907116
-0.26220274 1.3358171 2.0790861
-0.29879618 1.3334825 2.0624354
-0.41278696 1.3355583 2.010524
-0.4616003 1.3256313 1.9883447
-0.55895281 1.3200547 1.9440444
-0.65658092 1.3226992 1.8995807
-0.70539427 1.3177716 1.877378
-0.73812008 1.3166342 1.862483
-0.77070761 1.3138863 1.8476579
-0.80329561 1.3111383 1.8328328
0.71626329 -0.015525743 2.5308535
0.71816492 0.024393752 2.5315344
0.71704197 0.064422235 2.530838
0.6323204 0.34963095 2.4909422
0.61088037 0.35909367 2.4811366
0.57843065 0.33865446 2.4664562
0.50635529 0.30783615 2.4337819
0.50455379 0.2678566 2.433147
0.50141621 0.10790354 2.4324591
0.56037903 -0.098332405 2.4602606
0.37310934 -0.57650995 2.3772082
0.63857603 -0.25603366 2.4965949
0.71637774 -0.055517912 2.5310907
-5.0040841 -1.2538278 -0.067970008
-5.1367683 -1.2502162 -0.12839973
-5.1976538 -1.2529838 -0.15610898
-5.330019 -1.2346526 -0.21646169
-5.381012 -1.2342974 -0.23968108
-5.4102087 -1.2366631 -0.25296396
-5.4859924 -1.2526186 -0.28739545
-5.5249376 -1.2531101 -0.30512547
-5.6212749 -1.2543254 -0.34898365
-5.627872 -1.254784 -0.35198519
-5.7382417 -1.2208028 -0.40239549
-5.8233976 -1.2152199 -0.44119421
-5.8363104 -1.2150389 -0.44707435
-5.8470993 -1.2147683 -0.45198786
-5.8500619 -1.2147119 -0.4533371
-6.0167851 -1.1238213 -0.52966952
-6.1433358 -1.0839163 -0.58747458
-6.1603394 -1.0821314 -0.59522498
-6.2417417 -1.0801581 -0.63229769
-6.3413696 -1.0699165 -0.6777072
-6.3887444 -1.0765127 -0.699247
-6.4227428 -1.0754427 -0.71473205
-6.485929 -1.0792381 -0.74348414
-6.5527329 -1.0760819 -0.77391553
-6.6353188 -1.0776242 -0.81151092
-6.3506069 -0.65876853 -0.68381703
-6.3698287 -0.3378053 -0.69405508
-6.372179 -0.25783837 -0.69549567
-6.381053 -0.17826656 -0.69990444
-6.3875761 -0.13853824 -0.70305854
-6.3663731 -0.099273235 -0.69358623
-6.3596554 -0.091188431 -0.69056505
-6.2796063 -0.05168137 -0.65430057
-6.181087 -0.085436791 -0.6092869
-6.0920773 -0.21649531 -0.56815273
-5.8728108 -0.32253978 -0.46782646
-5.758594 -0.32909867 -0.41579154
-5.7257891 -0.33118472 -0.40084511
-5.6272793 -0.36244038 -0.35584763
-5.6659536 -0.37524012 -0.37339729
-5.8577089 -0.49468318 -0.46015322
-6.0148978 -0.67081451 -0.53090793
-5.7691398 -1.0891968 -0.4170734
-5.7047324 -1.0918849 -0.38773531
-5.6585131 -1.0963035 -0.36667037
-5.4986897 -1.0951939 -0.29390571
-5.4192724 -1.0946298 -0.25774837
-5.231462 -1.0519179 -0.1724335
-5.2305493 -1.0520002 -0.17201748
-5.1025019 -1.0544975 -0.11370406
-5.0455375 -1.0565791 -0.087757707
-4.9150581 -1.075527 -0.028260738
-4.8340383 -1.072579 0.0086150765
-4.817821 -1.0749893 0.016010284
-4.7522449 -1.0767962 0.045876324
-4.6098366 -1.0506886 0.11059603
-4.5246744 -1.0627074 0.14942732
-4.4756632 -1.067271 0.17176405
-4.4428468 -1.0744243 0.18673882
-4.5242367 -1.0775396 0.14969531
-4.7518158 -1.1717931 0.04651162
-4.762002 -1.1718752 0.041874051
-4.9471512 -1.2283685 -0.042165488
-4.975585 -1.2536083 -0.054994822
-4.9847002 -1.2536587 -0.059145033
-7.035388 1.2687614 -1.0045335
-6.9868116 1.2738625 -0.98243952
-6.9199963 1.2707481 -0.95200312
-6.8884001 1.2701159 -0.93761408
-6.8373914 1.2698174 -0.91438758
-6.7742195 1.2735523 -0.88564181
-6.6928272 1.2740715 -0.84858513
-6.612627 1.2710409 -0.81205487
-6.514235 1.2722937 -0.76726121
-6.4814377 1.2727114 -0.75233018
-6.4632359 1.2744951 -0.74405074
-6.4498606 1.2770786 -0.73797297
-6.3320355 1.2736659 -0.6843096
-6.3028545 1.2734334 -0.67102194
-6.2506523 1.2766848 -0.64726865
-6.2032599 1.2757365 -0.62568581
-6.1558666 1.274788 -0.60410255
-6.1072998 1.2823887 -0.58202457
-6.0742784 1.2813764 -0.56698453
-6.0299973 1.2803559 -0.5468182
-6.0101004 1.2800919 -0.53775764
-6.0404749 1.2767746 -0.55157214
-6.0720696 1.2774069 -0.56596071
-6.1048675 1.2769893 -0.58089209
-7.0487628 1.2661779 -1.0106113
-6.9855719 1.2649132 -0.9818337
-6.902977 1.2664824 -0.94423437
-7.9036617 1.2706705 -1.3998801
-7.7715111 1.29318 -1.3398142
-7.6764202 1.2736672 -1.2964276
-7.6537595 1.2725252 -1.2861044
-7.6379619 1.2722092 -1.2789102
-7.6221642 1.271893 -1.2717159
-7.5893574 1.2698109 -1.2567688
-7.55656 1.2702285 -1.2418375
-7.5247498 1.270666 -1.2273558
-7.5079646 1.27033 -1.2197118
-7.4327221 1.2707709 -1.1854547
-7.4265723 1.2708492 -1.1826552
-7.3767653 1.2695009 -1.1599711
-7.3415542 1.2695185 -1.1439389
-7.3123727 1.2692862 -1.1306511
-7.1957593 1.2673231 -1.0775462
-7.1495876 1.2703243 -1.0565375
-7.0973577 1.2660763 -1.0327369
-7.9025555 1.2667103 -1.3993582
-7.8233433 1.262532 -1.3632721
-7.7169313 1.2687904 -1.3148502
-7.6841335 1.269208 -1.2999189
-7.6425257 1.2650756 -1.280955
-7.6244893 1.2643189 -1.2727394
-7.6039248 1.2636777 -1.263373
-7.538321 1.2620132 -1.233495
-7.488533 1.2656642 -1.2108426
-7.4593606 1.2679317 -1.1975704
-7.3913512 1.2683671 -1.1666069
-7.9375143 1.2617638 -1.4152523
-7.969203 1.2649349 -1.4296952
-8.0019798 1.264567 -1.4446173
-8.0189142 1.2638633 -1.4523246
-7.9782295 1.2690631 -1.4338244
-0.40355396 -1.1650075 2.0263071
-0.38834286 -1.165323 2.0332346
-0.3640008 -1.1458292 2.0442276
-0.20609093 -1.0800236 2.1158216
-0.18958902 -1.0789288 2.1233301
-0.075191021 -1.0737936 2.1753931
0.0058188438 -1.0675249 2.2122493
0.071442127 -1.0598228 2.2420928
0.11742306 -1.0607748 2.2630329
0.13559532 -1.061324 2.2713096
0.14806414 -1.0600837 2.2769811
0.2665019 -1.0575935 2.3308961
0.34796047 -1.0771434 2.3680758
0.39674091 -1.0822101 2.3903098
0.49460888 -1.0681716 2.4348054
0.52687979 -1.0718334 2.4495161
0.57530594 -1.0835749 2.4716194
0.64051723 -1.0625517 2.5012138
0.57459593 -1.0568676 2.4711723
-3.6584184 -0.0036490262 0.5389421
-3.4857955 0.037578925 0.61734891
-3.3178222 -0.080902606 0.69437826
-3.2830405 -0.11312225 0.7103641
-3.0566983 -0.31912628 0.81437492
-2.9566617 -0.32323745 0.85994208
-2.9240642 -0.32297447 0.87478304
-2.8711162 -0.31754753 0.89886594
-2.8062911 -0.31718907 0.92838001
-2.7930541 -0.31708488 0.93440652
-2.761296 -0.31424394 0.94885325
-2.6961014 -0.31371829 0.97853494
-2.6798952 -0.3136287 0.9859134
-2.5694292 -0.32725003 1.0362734
-2.5450573 -0.33252546 1.0473945
-2.5257964 -0.36792287 1.0563283
-2.5809748 -0.6855787 1.0326756
-2.5757749 -0.71554971 1.035182
-2.3498096 -1.0544364 1.1396365
-2.3011339 -1.0604458 1.1618272
-2.3500857 -1.066269 1.1395657
-2.3664482 -1.0643491 1.1321068
-2.3988984 -1.0586764 1.1173054
-2.4638 -1.0548302 1.087737
-2.5453415 -1.0658964 1.0506612
-2.6105185 -1.0688832 1.020999
-2.626744 -1.0685467 1.0136096
-2.6758316 -1.0677868 0.99125588
-2.9039917 -1.1377747 0.88769543
-3.0507722 -1.1389995 0.82086968
-3.0831847 -1.1391788 0.80611265
-3.1903722 -1.1601844 0.75740588
-3.1973703 -1.1601818 0.75421953
-3.2624385 -1.1681654 0.72463
-3.3327315 -1.1612195 0.69259238
-3.4905596 -1.1424229 0.62064397
-3.3927674 -1.1416343 0.6651665
-3.3435941 -1.1411145 0.68755341
-3.3109965 -1.1408516 0.70239437
-3.2947905 -1.1407619 0.70977283
-3.2459867 -1.1404095 0.73199224
-3.2295957 -1.1402363 0.73945451
-3.1483796 -1.1397045 0.77643096
-3.115782 -1.1394416 0.79127181
-3.0261836 -1.1186985 0.83197129
-2.8397806 -1.0425029 0.91649044
-2.6133761 -0.68825781 1.0179354
-2.6224661 -0.64774024 1.0136088
-2.8429427 -0.34252581 0.91180933
-2.9082165 -0.32555214 0.8820107
-2.9570312 -0.3234047 0.85977459
-3.0218339 -0.32876298 0.83029377
-3.0644782 -0.31902471 0.81083226
-3.0869114 -0.31420568 0.80059564
-3.1685877 -0.29490528 0.76331794
-3.2014148 -0.28525215 0.74832642
-3.2177002 -0.26784232 0.7408309
-3.512574 -0.041223004 0.6055212
-3.6071196 -0.043153316 0.56248224
-3.6417768 -0.038432792 0.54668045
-3.7416306 -0.044258296 0.50124252
-3.7315006 -0.031676576 0.50579655
-3.6676269 -0.0037412494 0.53474975
-2.1222408 -1.0588984 1.2432728
-2.1874168 -1.0568856 1.2135878
-2.2524571 -1.0614556 1.1839951
-1.8450243 1.3253084 1.3584529
-1.8128479 1.3328886 1.3730683
-1.797225 1.3352557 1.3801707
-1.6985831 1.3300914 1.4251077
-1.6336808 1.3313092 1.4546529
-1.523747 1.3343133 1.5046935
-1.4876089 1.3344914 1.5211468
-1.454514 1.3297298 1.5362375
-1.4219251 1.3249782 1.5510978
-2.7730343 1.3031267 0.93601918
-2.7897398 1.3028353 0.92841434
-2.8545048 1.3025067 0.89892733
-2.9196808 1.2970105 0.86927724
-2.9684951 1.2995826 0.84703946
-2.9848578 1.2990141 0.83959186
-3.0012205 1.2984452 0.83214438
-3.0339456 1.294808 0.81726098
-3.1314361 1.2958418 0.77286732
-3.1803875 1.3000246 0.75055969
-3.2129757 1.2997763 0.7357229
-3.2292013 1.3000969 0.72833371
-3.2128386 1.3006656 0.73578131
-3.1641619 1.302204 0.75793731
-3.1150737 1.3014103 0.78029168
-2.9544368 1.3309112 0.85329533
-2.9361835 1.3405499 0.86156166
-2.8872328 1.3438666 0.88383424
-2.8547809 1.3332262 0.89865935
-2.7732406 1.3117927 0.93588519
-2.7405837 1.3074853 0.95077431
-2.7079265 1.3056787 0.96565199
-2.6917007 1.3053583 0.97304118
-2.65925 1.307217 0.98780799
-2.6102304 1.3084782 1.0101215
-2.529103 1.3118755 1.0470442
-2.4965146 1.3121235 1.0618809
-2.4478378 1.311162 1.0840486
-2.4151127 1.3122994 1.0989437
-2.3826613 1.3116586 1.1137222
-2.3661613 1.3131164 1.1212281
-2.3174849 1.3121549 1.1433958
-2.2197201 1.3153993 1.1878943
-2.138181 1.3189642 1.2250038
-2.0896413 1.3196135 1.2471017
-2.040828 1.322041 1.2693158
-2.0244651 1.3226098 1.2767634
-1.9430633 1.3277853 1.313803
-1.8941128 1.331102 1.3360754
-4.1605568 1.3001986 0.30427346
-4.2255783 1.3022563 0.27465877
-4.355855 1.2762055 0.21546265
-4.4047871 1.2632699 0.193243
-4.4209824 1.2606803 0.18588105
-4.3883958 1.2634431 0.20070538
-4.3069839 1.2615585 0.23778209
-4.2905922 1.2617319 0.24524453
-4.2581797 1.2619112 0.26000169
-0.62443256 -1.1459436 1.9256496
-0.60820675 -1.1462802 1.9330392
-0.49407959 -1.1449697 1.9849968
-0.64079475 -1.1465236 1.9182024
-0.78708363 -1.0678325 1.8512306
-0.85225916 -1.0608199 1.8215227
-0.8684845 -1.0604832 1.8141334
-0.91743374 -1.0513073 1.7918038
-0.98233604 -1.0499611 1.7622466
-1.0802355 -1.0391088 1.7176213
-1.1289115 -1.0355991 1.6954422
-1.1125488 -1.0350193 1.7028897
-1.0799603 -1.0347757 1.7177265
-0.99856043 -1.0446248 1.7548347
-0.92130041 -1.0449631 1.790014
-0.81980705 -1.0564933 1.8362787
-0.75449467 -1.0650892 1.866056
-0.73840666 -1.0663424 1.8733871
-0.68945599 -1.0680187 1.8956828
-0.6242795 -1.065032 1.9253449
-0.5263772 -1.063385 1.9699135
-0.51015186 -1.0637215 1.9773026
-0.44524956 -1.0650679 2.0068598
-0.41252327 -1.0614079 2.0217438
-0.37993479 -1.0586647 2.0365689
-0.31475973 -1.0656773 2.0662766
-0.28258181 -1.063184 2.0809162
0.0074043274 -0.65682578 2.2110693
0.021462917 -0.63733816 2.2173803
0.035683155 -0.6171174 2.2237611
0.07107687 -0.57740152 2.2396927
0.11878061 -0.56248796 2.2613437
0.13490582 -0.56056964 2.268677
0.18369389 -0.56813574 2.290926
-7.7895956 -1.08446 -1.3370383
-7.7386894 -1.0925719 -1.3138224
-7.7068095 -1.0896361 -1.2993206
-7.641469 -1.0922974 -1.2695578
-7.6098146 -1.0927892 -1.2551429
-7.5759025 -1.091531 -1.2397079
-7.5284309 -1.0897689 -1.2181016
-7.4967861 -1.087761 -1.2037026
-7.4152379 -1.0864596 -1.1665784
-7.3812389 -1.0875299 -1.1510934
-7.4468212 -1.0908571 -1.1809385
-2.0893798 -1.0643214 1.2582599
-2.0081148 -1.0650877 1.2952646
-1.9916146 -1.063591 1.3027704
-1.9104838 -1.0502747 1.3396487
-1.8454447 -1.0507046 1.3692641
-1.7812819 -1.0476967 1.3984644
-1.6988654 -1.0475674 1.4359893
-1.5361977 -1.0456836 1.5100455
-1.6987276 -1.0441509 1.4360361
-1.7311788 -1.0434779 1.4212576
-1.7639046 -1.0446379 1.4063624
-1.8290813 -1.0476246 1.3767003
-1.8613954 -1.0460349 1.36198
-1.9142828 -1.0459721 1.3378992
-1.9427974 -1.0461853 1.324917
-1.9591603 -1.0467652 1.3174695
-1.9753857 -1.0464287 1.3100802
-2.0080428 -1.0471305 1.2952142
-2.0284102 -1.0472827 1.2859414
-2.056788 -1.046579 1.2730173
-2.0731504 -1.0471591 1.2655699
-2.1056018 -1.0464859 1.2507912
-2.1381907 -1.0517291 1.2359772
-2.2195938 -1.0543792 1.1989255
-2.2523196 -1.0580392 1.184042
-3.6939342 -1.1313778 0.52799332
-3.759084 -1.1419033 0.49837849
-3.6207643 -1.1433908 0.56136441
-3.6045578 -1.1433011 0.56874299
-3.5229721 -1.1426021 0.60588694
-3.5067658 -1.1425126 0.6132654
-3.5983512 -1.1231689 0.57147563
-1.8287995 1.3424869 1.3657608
-1.8613877 1.3422389 1.350924
-1.9427896 1.3370632 1.3138846
-2.0241909 1.324388 1.2768801
-2.0893674 1.3238916 1.2472066
-2.1544068 1.3217846 1.217603
-2.2033577 1.3184679 1.1953303
-2.2520344 1.3194294 1.1731626
-2.3172107 1.3139334 1.1435124
-2.366436 1.3138379 1.1210997
-2.3823869 1.3134369 1.1138389
-6.9924541 -1.0891275 -0.97406638
-6.9450598 -1.0875307 -0.95249462
-6.8782659 -1.0881871 -0.92207932
-6.8466825 -1.0837897 -0.90771931
-6.9256973 -1.0797848 -0.9437145
-6.9415083 -1.0769839 -0.9509263
-7.0240755 -1.0835259 -0.9884901
-7.0714693 -1.0851225 -1.010062
-7.1370702 -1.0834504 -1.0399387
-7.1880636 -1.083095 -1.0631583
-7.1382542 -1.0869659 -1.0404614
-7.1066332 -1.0925676 -1.0260381
-7.0896482 -1.0893531 -1.0183194
-1.6826324 1.337992 1.4323337
-1.7311721 1.3423425 1.4102126
-1.7637601 1.3395944 1.3953876
-7.8212585 -1.0814683 -1.3514688
-7.7557192 -1.0732025 -1.321666
-7.6594253 -1.0855396 -1.2777649
-7.612021 -1.0864426 -1.2561768
-7.578023 -1.0875129 -1.2406921
-7.5442667 -1.0870233 -1.2253245
-1.4384327 -1.0424534 1.5545444
-1.3243046 -1.0386431 1.6064909
-1.4382954 -1.0415368 1.5546027
-1.4869719 -1.0405271 1.5324347
-1.4707465 -1.0433635 1.5398356
-2.5943475 1.3059353 1.0173649
-2.6430929 1.3039516 0.99517965
-2.6594555 1.3033831 0.98773217
-2.6757493 1.3032594 0.98031378
-2.6919751 1.3035798 0.97292459
-2.7082694 1.3034554 0.96550608
-2.7244949 1.3037759 0.95811689
-2.7407889 1.3036522 0.95069861
-2.4800146 1.3135815 1.069387
-2.463789 1.3132609 1.0767761
-2.4313383 1.3126199 1.0915544
-4.6001525 1.2542765 0.10433188
-4.6649547 1.2489182 0.074851245
-4.5835533 1.2495335 0.11191157
-4.567359 1.252123 0.11927316
-4.5187626 1.2573918 0.14137545
-4.5021868 1.2576488 0.14892152
-4.4695892 1.2579116 0.16376236
-4.51897 1.262308 0.14125821
-4.5513606 1.257129 0.12653431
-7.3180437 -1.0862342 -1.1223255
-7.3338451 -1.0859331 -1.1295216
-7.3168507 -1.0852182 -1.121787
-7.3192463 -1.0847502 -1.12288
-7.3484526 -1.0846163 -1.1361786
-6.561646 1.2782419 -0.7888757
-6.5739455 1.2780851 -0.7944752
-0.94973755 1.3088553 1.7661664
-1.0150514 1.3149693 1.7363997
-1.0476398 1.3172209 1.7215512
-1.0640025 1.3166522 1.7141037
-1.112679 1.3151138 1.6919477
-1.1616302 1.314297 1.6696632
-1.2103071 1.3152585 1.6474955
-1.4869642 1.3228713 1.5214943
-1.4543762 1.3206196 1.5363425
-1.4055619 1.3180474 1.5585802
-6.6657 -1.0835056 -0.82531667
-6.7300982 -1.0833174 -0.85463893
-6.7143059 -1.0811187 -0.84745872
-6.682713 -1.079221 -0.83308285
-2.5292397 1.3084863 1.0469975
-7.0997806 1.268976 -1.0338534
-7.1799808 1.2720065 -1.0703837
-7.3439775 1.2724181 -1.1450558
-6.8045845 1.2677352 -0.89944065
-6.789999 1.2688689 -0.89280474
-6.740202 1.2700205 -0.87013674
-6.6916156 1.2726216 -0.84802675
-6.536447 1.2790799 -0.77740622
-6.5276461 1.2797093 -0.77340198
-0.86819792 1.3074205 1.8032992
-3.5220838 1.295531 0.59500122
-3.5384467 1.2949623 0.58755362
-3.5872607 1.2975345 0.56531596
-3.5548096 1.2993934 0.58008277
-3.538584 1.299073 0.58747196
-6.3514686 1.2783316 -0.69317925
-6.3174591 1.2772994 -0.67768943
-6.2911749 1.2780647 -0.66572553
-6.2372785 1.2792683 -0.64119124
-6.2214808 1.2789522 -0.63399696
-3.3757799 1.2994248 0.66159749
-3.3429174 1.2989514 0.67656243
-3.3265543 1.29952 0.68401015
-3.3431916 1.2996728 0.67643428
-1.2268138 -1.0372461 1.6508734
-1.1777253 -1.0355061 1.6732161
-1.1613631 -1.0374259 1.6806748
0 0 0 1 0 0 0 1 0 0 0 1 0 0 0 0 0 798 1 0 0
