ply
format ascii 1.0
comment PCL generated
element vertex 689
property float x
property float y
property float z
element camera 1
property float view_px
property float view_py
property float view_pz
property float x_axisx
property float x_axisy
property float x_axisz
property float y_axisx
property float y_axisy
property float y_axisz
property float z_axisx
property float z_axisy
property float z_axisz
property float focal
property float scalex
property float scaley
property float centerx
property float centery
property int viewportx
property int viewporty
property float k1
property float k2
end_header
0.63616228 1.4682013 1.7448348
0.5093646 1.3824487 1.6906492
0.36337328 1.4057735 1.6244212
0.26450014 1.3727765 1.5811032
0.13348818 1.364293 1.522596
0.05632925 1.3437415 1.4886278
0.040019512 1.3436688 1.4813133
0.0029201508 1.341234 1.4647466
-0.026805878 1.3401711 1.4514445
-0.15224218 1.3133668 1.396015
-0.23387289 1.3107115 1.3594776
-0.28211069 1.3118118 1.3378025
-0.38041401 1.3097762 1.2937664
-0.41260529 1.3071796 1.2794064
-0.47816563 1.3033252 1.2501162
-0.54372597 1.2994705 1.220826
-0.60863543 1.3011906 1.1916524
-0.64202929 1.2974349 1.1767896
-0.72358656 1.3022721 1.1400496
-0.77242517 1.3027928 1.1181234
-0.82066298 1.3038931 1.0964483
-0.87010241 1.3038342 1.0742711
-0.93566275 1.2999796 1.0449806
-0.96782923 1.2998809 1.0305535
-1.0500121 1.3016407 0.99362934
-1.0827308 1.3059572 0.97881567
-1.0988016 1.3071566 0.97156823
-1.0493121 1.3122103 0.99361098
-0.96712923 1.3104502 1.0305349
-0.90161848 1.3093098 1.05996
-0.85280418 1.3062917 1.0819536
-0.80331469 1.3113456 1.1039966
0.4774127 1.4519184 1.6741294
0.40763855 1.4660944 1.6423815
0.39152288 1.4671122 1.6351198
0.27777195 1.4299136 1.5852596
0.21990776 1.4309951 1.5592667
0.16649914 1.4284877 1.5353857
0.12367964 1.4282516 1.5161835
0.091938496 1.427316 1.5019733
0.064227581 1.4261258 1.4895791
0.063123226 1.4256443 1.4890989
-0.012967587 1.3971981 1.4558583
-0.11729145 1.3858566 1.4094137
-0.16293955 1.3869017 1.3889023
-0.23769331 1.3846397 1.3554376
-0.24675798 1.3852123 1.351353
-0.27749157 1.3842129 1.337597
-0.31124687 1.3834044 1.3224794
-0.50963211 1.3137959 1.2356704
-0.62463188 1.3098823 1.1842026
-0.67289448 1.3084852 1.1625952
-8.0824986 -1.1581991 -2.0838692
-8.0743599 -1.1581856 -2.0802183
-7.7799826 -0.76599967 -1.960495
-7.8023019 -0.70910805 -1.9722977
-7.6239858 -0.3900488 -1.9023402
-7.7404895 -0.70101291 -1.9448223
-7.7699466 -0.75270778 -1.9564108
-7.7109737 -1.1942579 -1.9160628
-7.6882033 -1.2130148 -1.9052573
-7.6914253 -1.2428263 -1.9057649
-7.8135371 -1.3151652 -1.9582704
-7.8292494 -1.3319805 -1.9647901
-7.8352342 -1.3386333 -1.9672657
-7.9015303 -1.4026759 -1.9949924
-7.9661484 -1.453734 -2.0223746
-8.0617514 -1.4426593 -2.0656123
-8.0985565 -1.4306998 -2.0825
0.46426582 -1.173846 1.7508425
0.39050579 -1.1949707 1.718417
0.17880058 -1.1528516 1.6221174
0.097211838 -1.1507763 1.5854501
0.016471863 -1.1473349 1.5491205
-0.033203125 -1.1531746 1.5270191
-0.08199358 -1.152655 1.5051147
-0.27673435 -1.0906572 1.4158002
-0.28996849 -1.0881466 1.4097842
-0.33022594 -1.078392 1.3914171
-0.38872004 -1.0757903 1.3650938
-0.43750811 -1.0702538 1.3430325
-0.46967459 -1.0703205 1.3286041
-0.51911402 -1.0703862 1.3064269
-0.53458405 -1.0685637 1.2994295
-0.56732607 -1.06674 1.2846833
-0.60001802 -1.0599215 1.2698029
-0.55000305 -1.0617464 1.2922977
-0.48569489 -1.0641103 1.3212219
-0.4535532 -1.0665411 1.3357176
-0.38744259 -1.0670838 1.365393
-0.32255793 -1.0713382 1.3946351
-0.25634575 -1.0618912 1.4240419
-0.22425508 -1.0693167 1.4386719
-0.14392662 -1.077891 1.4749781
-0.098325253 -1.0826553 1.4955856
-0.079838276 -1.0850103 1.5039533
-0.032745838 -1.0882628 1.5251821
-0.0031094551 -1.0905833 1.5385505
0.0070371628 -1.090772 1.5431083
0.032019138 -1.0902433 1.554299
0.14819288 -1.0786582 1.606052
0.24575663 -1.0821943 1.649932
0.31218529 -1.0864356 1.6798664
0.36099339 -1.0844586 1.7017003
0.3912797 -1.08512 1.7153081
0.5179348 -1.1230136 1.7733198
0.60541677 -1.1327386 1.8128716
-11.295193 1.2213703 -3.6000018
-11.419703 1.1753675 -3.6544118
-11.34881 0.97646332 -3.6163507
-11.511063 0.55311227 -3.6758204
-11.70739 0.50588459 -3.7624102
-11.740356 0.50762916 -3.7772541
-11.819748 0.07456746 -3.7992458
-11.833599 0.012445018 -3.8035049
-11.625484 -0.46681511 -3.6950626
-11.682713 -0.88460296 -3.707592
-11.693534 -0.95226759 -3.7103181
-11.690331 -0.96618539 -3.7084432
-11.662634 -1.0095158 -3.6946549
-11.640259 -1.0464675 -3.6834545
-11.602241 -1.0870683 -3.6651216
-11.566051 -1.0977455 -3.6485505
-11.517443 -1.1006516 -3.6266522
-11.500158 -1.1012547 -3.6188793
-11.451511 -1.0991658 -3.5971212
-11.437433 -1.095871 -3.590909
-11.358279 -1.0875883 -3.5556598
-11.290689 -1.0905787 -3.5252433
-11.238131 -1.1058496 -3.5011849
-11.173898 -1.1149023 -3.472084
-10.994501 -1.2067719 -3.3887138
-10.97884 -1.2079234 -3.3816509
-10.620892 -1.2243465 -3.2205529
-10.603588 -1.222452 -3.2128501
-10.507973 -1.2263154 -3.1698337
-10.49231 -1.2274669 -3.1627712
-10.459345 -1.2267239 -3.1480055
-10.426378 -1.225981 -3.1332397
-10.410715 -1.2271326 -3.1261768
-10.328774 -1.1818432 -3.0908418
-10.118547 -1.1230965 -2.998379
-10.102877 -1.1241927 -2.9913139
-10.054243 -1.1244866 -2.9694872
-10.003975 -1.1192884 -2.9470997
-9.9412899 -1.1236728 -2.9188397
-9.8159389 -1.1643744 -2.8613253
-9.7875023 -1.1644208 -2.8485665
-9.6289282 -1.1125535 -2.7790592
-9.5646381 -1.116441 -2.7500954
-9.434454 -1.1237191 -2.6914635
-9.3855076 -1.1265332 -2.6694169
-9.3169718 -1.1251113 -2.6387153
-9.2209635 -1.1125089 -2.596041
-9.1723604 -1.1177977 -2.5740705
-9.1080256 -1.1141927 -2.5453222
-9.0264301 -1.1136843 -2.5087328
-8.9605207 -1.1145773 -2.4791369
-8.6990814 -1.2185473 -2.3585801
-8.6216183 -1.1626401 -2.3255877
-8.6827707 -1.1122497 -2.3546071
-8.7643661 -1.112758 -2.3911958
-8.7940893 -1.1075715 -2.4046936
-8.8286419 -1.1063732 -2.4202318
-8.8756256 -1.0980898 -2.4415703
-8.9901981 -1.101898 -2.4928498
-9.2450876 -0.72104514 -2.6191795
-9.0884991 -0.46842945 -2.556879
-9.0479069 -0.44256598 -2.5394821
-9.1815357 -0.16114935 -2.6082842
-9.1820631 -0.11519358 -2.6099665
-9.1976299 -0.096614785 -2.6175349
-9.2618904 -0.087732263 -2.6466422
-9.3368568 -0.16640717 -2.6777983
-9.4777727 -0.23180819 -2.7389581
-9.5109882 -0.27506837 -2.7524981
-9.7572441 -0.44597864 -2.8575952
-9.8118916 -0.48504704 -2.8808818
-9.8528976 -0.52026659 -2.8981698
-9.857048 -0.52536196 -2.8998713
-9.863203 -0.80962676 -2.8936896
-9.8781013 -0.8898986 -2.8978474
-10.165533 -1.1148132 -3.0197177
-10.227774 -1.1166283 -3.0475826
-10.340711 -1.1171569 -3.0982318
-10.412424 -1.1242793 -3.1301794
-10.44125 -1.1224319 -3.1431694
-10.511433 -1.1229373 -3.1746387
-10.522043 -1.1237407 -3.1793733
-10.57607 -1.1276853 -3.2034864
-10.600225 -1.129076 -3.2142792
-10.682788 -1.1223377 -3.2515302
-10.700111 -1.1267297 -3.2591634
-10.781763 -1.1345567 -3.2955475
-10.799047 -1.1339536 -3.3033204
-10.850901 -1.1321446 -3.3266397
-10.897907 -1.1311874 -3.3477578
-10.939075 -1.1271211 -3.3663545
-10.9638 -1.1276784 -3.377429
-11.009204 -1.1286701 -3.3977666
-11.095529 -1.1131678 -3.4369812
-11.248457 -0.69009632 -3.5188975
-11.265142 -0.61207086 -3.5288382
-11.235147 -0.30025396 -3.5251918
-11.246303 -0.24905953 -3.5318069
-11.274118 -0.011472538 -3.5517602
-11.139753 0.17192867 -3.497252
-11.041414 0.53275996 -3.4644876
-11.176813 0.81164855 -3.5340042
-10.936298 1.1331955 -3.4362216
-10.75069 1.2610121 -3.3569765
-10.59711 1.2403758 -3.2874284
-10.531277 1.2094076 -3.2569203
-10.425056 1.1807503 -3.2083669
-10.411923 1.1807034 -3.2024732
-10.375037 1.1812688 -3.1859431
-10.31995 1.1831521 -3.1612892
-10.182331 1.1829664 -3.0995457
-10.176916 1.183437 -3.0971313
-9.8424034 1.1541756 -2.9461424
-9.6629286 1.2513976 -2.8686862
-9.6377869 1.2552629 -2.8575284
-9.6291409 1.256229 -2.8536804
-9.6126432 1.259128 -2.8463705
-9.5499134 1.2621005 -2.8183222
-9.4635506 1.2567788 -2.7794108
-9.3850546 1.2736063 -2.7447257
-9.334816 1.2738441 -2.7221956
-9.3034582 1.2740816 -2.7081356
-9.2235146 1.2664995 -2.6720328
-9.137042 1.2786602 -2.6336224
-9.0084019 1.2807406 -2.5759778
-8.9285059 1.2656659 -2.5396607
-8.8782835 1.2634064 -2.5170591
-8.8107224 1.2705717 -2.4869757
-8.748023 1.2685494 -2.4587841
-8.7009792 1.2701545 -2.4377298
-8.6334648 1.2698275 -2.4074316
-8.7150135 1.2768445 -2.4442363
-8.7982292 1.2733065 -2.4814572
-8.8436375 1.2772615 -2.5019524
-8.9377937 1.3051765 -2.5450704
-8.9489727 1.3051876 -2.5500858
-9.0223904 1.2949229 -2.5826993
-9.0569725 1.2910578 -2.5980921
-9.1574335 1.2930795 -2.643224
-9.2044621 1.293972 -2.6643498
-9.2358665 1.286242 -2.678195
-9.3018227 1.2796416 -2.7075763
-9.3488197 1.2855291 -2.7288456
-9.4147596 1.2814263 -2.7582984
-9.4838781 1.2811882 -2.7892985
-9.5309381 1.2770857 -2.8102813
-9.579587 1.2749155 -2.8320374
-9.6314926 1.2641225 -2.8549838
-9.6958752 1.2530924 -2.8835199
-9.7460976 1.255352 -2.9061215
-9.7617998 1.2514871 -2.913044
-10.116079 1.2904378 -3.0732055
-10.159295 1.2968767 -3.0927951
-10.174122 1.2957599 -3.0994112
-10.312009 1.2652082 -3.1603088
-10.342712 1.2647842 -3.1740694
-10.38187 1.2638894 -3.191608
-10.527597 1.301358 -3.258163
-10.539955 1.3035735 -3.2637763
-10.596473 1.3024901 -3.2890968
-10.741373 1.3353984 -3.3551369
-10.790972 1.3354446 -3.377389
-10.820034 1.3345028 -3.3903975
-10.859855 1.3340786 -3.4082479
-10.873303 1.333702 -3.4142694
-11.001588 1.2785923 -3.4700861
-11.017242 1.2768469 -3.4770546
-11.075852 1.2569124 -3.5027204
-11.126619 1.2513117 -3.5253196
-11.141813 1.2513114 -3.5321355
-11.230916 1.2231168 -3.5712214
-5.7832603 -1.0739555 -1.0550435
-5.9308195 -1.0785975 -1.1210951
-6.0453892 -1.0799099 -1.1724516
-6.0627046 -1.0794303 -1.1802346
-6.109622 -1.0733769 -1.201473
-6.210156 -1.0665913 -1.2467878
-6.4444027 -0.85229272 -1.3586167
-6.5636821 -0.39685506 -1.4264563
-6.5200315 -0.33582643 -1.408794
-6.5302753 -0.32609731 -1.4136956
-6.5615482 -0.32122925 -1.4278784
-6.6941195 -0.33720922 -1.4868492
-6.8407998 -0.34254226 -1.5524846
-6.8913598 -0.33954394 -1.575261
-6.9418812 -0.37735701 -1.5967362
-6.9336843 -0.38464087 -1.5928296
-6.8917456 -0.40197721 -1.5734699
-6.6173463 -0.89582002 -1.4348328
-6.6485515 -0.92676872 -1.4478582
-6.895885 -1.0712615 -1.55427
-6.9948411 -1.0787538 -1.5984277
-7.0278006 -1.0770891 -1.6132662
-7.0937967 -1.0862461 -1.6425852
-6.9635983 -1.0886165 -1.5841013
-6.7987232 -1.0844539 -1.5102668
-6.6997995 -1.0819564 -1.4659663
-6.6651382 -1.0779204 -1.4505438
-6.632163 -1.077088 -1.4357767
-6.6198444 -1.0771879 -1.4302472
-6.5209346 -1.0771875 -1.3858747
-6.3738852 -1.1549572 -1.3174592
-6.3426113 -1.1598253 -1.3032761
-6.3269677 -1.1610106 -1.2962207
-6.2610168 -1.1593455 -1.2666866
-6.2123823 -1.1572011 -1.2449358
-6.1777368 -1.1556625 -1.2294415
-6.1464329 -1.1555361 -1.215402
-6.0821686 -1.1570741 -1.1865238
-6.0648537 -1.1575537 -1.1787409
-6.0318785 -1.156721 -1.1639738
-5.9989042 -1.1558886 -1.1492071
-5.9189954 -1.1586121 -1.1132731
-5.6537881 -1.1937003 -0.99319279
-5.6085401 -1.2075397 -0.9724583
-5.5879927 -1.2170086 -0.96294248
-5.55511 -1.23116 -0.94774568
-5.348453 -1.2551472 -0.85428119
-5.2986517 -1.254757 -0.83195192
-5.2569289 -1.2512561 -0.81334436
-5.1472268 -1.2233529 -0.76500815
-5.0810618 -1.2296876 -0.7351262
-4.8280048 -1.2555981 -0.62078536
-4.649734 -1.255147 -0.54082435
-4.6232691 -1.2551522 -0.5289517
-4.478961 -1.2216492 -0.46526659
-4.4455047 -1.2161862 -0.45042956
-4.2654409 -1.1910292 -0.37044138
-4.1404743 -1.2472067 -0.31261194
-4.0600762 -1.2472717 -0.27654201
-3.9254382 -1.2106005 -0.21729481
-3.9073341 -1.2113469 -0.2091496
-3.8819144 -1.2114449 -0.19774276
-3.8424461 -1.2122337 -0.18001181
-3.6833642 -1.1650958 -0.11012816
-3.6729131 -1.1641693 -0.10546875
-3.646282 -1.1636065 -0.093539238
-3.5307362 -1.1456982 -0.042266965
-3.4819036 -1.1457952 -0.020356774
-3.432405 -1.1436199 0.0017806292
-3.3835728 -1.1437172 0.023690701
-3.3354058 -1.1460863 0.045373678
-3.3186843 -1.1446038 0.05282855
-3.2210195 -1.1447978 0.096648693
-3.204298 -1.1433154 0.10410357
-3.1875768 -1.1418328 0.11155844
-3.1547997 -1.1411402 0.12624085
-3.1226885 -1.1427196 0.14069617
-2.9748592 -1.1384664 0.20688117
-2.8932498 -1.1378707 0.24347365
-2.9918041 -1.1210999 0.19873297
-3.2032077 -1.0636019 0.10208488
-3.3844616 -1.1271405 0.022770286
-3.5969601 -1.0905374 -0.073711514
-3.6760743 -1.1287873 -0.10800004
-4.0500383 -0.77361768 -0.28694069
-4.042285 -0.69302958 -0.28599781
-4.0420656 -0.65305984 -0.28715688
-3.8701239 -0.34244844 -0.21979344
-3.6246011 -0.086207278 -0.11770964
-3.3883655 -0.0040364489 -0.014315605
-3.2036269 -0.04157912 0.069742322
-2.807148 -0.3178952 0.2563026
-3.1523187 -0.00095303357 0.091481805
-3.2785368 0.13287158 0.030647874
-3.3612254 0.12226029 -0.0061136484
-3.4114816 0.11709191 -0.028496861
-3.422492 0.11527877 -0.033379316
-3.458307 0.10973944 -0.04927218
-3.5071945 0.099844024 -0.070892572
-3.5994027 0.034079477 -0.11018968
-4.0849543 -0.087045141 -0.32420528
-4.111558 -0.082611762 -0.33627969
-4.1938062 -0.080483459 -0.37324446
-4.2167282 -0.09208826 -0.3831625
-4.2253599 -0.17220092 -0.38451445
-4.211349 -0.23185247 -0.37635219
-4.1968446 -0.33251721 -0.36667812
-4.1237493 -0.4543255 -0.33005416
-4.1063538 -0.5682078 -0.31866717
-4.0983648 -0.6055063 -0.31390983
-4.0882168 -0.7684263 -0.30423158
-4.3149748 -1.0805637 -0.39613867
-4.4454718 -1.0910548 -0.45435166
-4.5109434 -1.0774517 -0.48415124
-4.5751796 -1.0767907 -0.51298946
-4.6233325 -1.0719234 -0.5347448
-4.6561375 -1.0776122 -0.54928261
-4.7223296 -1.0762738 -0.57901955
-4.7705097 -1.0764027 -0.60062993
-4.8032866 -1.0770953 -0.61531234
-4.868813 -1.0734847 -0.64482224
-4.9015908 -1.0741773 -0.65950507
-4.9497437 -1.0693099 -0.68126041
-5.1457257 -1.0686959 -0.76920044
-5.1791406 -1.0722622 -0.78407872
-5.3110251 -1.0730951 -0.84321809
-5.3423605 -1.0782163 -0.85711443
-5.4255939 -1.0744072 -0.89457428
-5.4412384 -1.0732219 -0.90162987
-5.505487 -1.0691864 -0.9305799
-5.5557766 -1.0695395 -0.95312965
-5.5887518 -1.0703721 -0.96789652
-5.6703773 -1.0758464 -1.0043428
-3.8604872 1.2960868 -0.2670213
-3.7949336 1.2974721 -0.23765635
-3.7454352 1.2996473 -0.21551907
-3.6812129 1.2964882 -0.18660843
-3.6156726 1.2953757 -0.15717101
-3.5989649 1.29436 -0.14964378
-3.5507846 1.2944889 -0.12803328
-3.4685228 1.2948587 -0.091140985
-3.3875656 1.2956803 -0.054848075
-3.3220115 1.2970657 -0.025483012
-3.2725132 1.2992409 -0.0033457279
-3.2230422 1.2964199 0.018936634
-3.2076387 1.295856 0.025864601
-3.1915693 1.2975644 0.033019781
-3.1574881 1.2978053 0.048301578
-3.1407666 1.2992877 0.05575645
-3.0765173 1.3011249 0.084522009
-3.0109494 1.3050086 0.11381471
-2.9621172 1.3049115 0.13572478
-2.89587 1.3135655 0.16517198
-2.8142602 1.3141612 0.2017647
-2.7326508 1.3147569 0.23835731
-2.7165952 1.3139671 0.24558496
-2.7871802 1.3081981 0.21410096
-2.8032508 1.3093975 0.20685363
-2.8354175 1.3092985 0.1924262
-1.4888606 1.316897 0.79627478
-1.441175 1.3202119 0.81756306
-1.3590164 1.3159544 0.85455453
-1.327476 1.3129761 0.8687979
-1.3757381 1.3115791 0.84719074
-1.4728394 1.3107027 0.80365717
-1.5377488 1.3124226 0.77448356
-1.5871391 1.3173587 0.75217092
-1.554347 1.3205348 0.76678205
-1.538877 1.318756 0.7737782
-4.2343855 1.3058395 -0.43506503
-4.3487444 1.3095474 -0.48648489
-4.4477959 1.2952046 -0.53046995
-4.4959898 1.2925776 -0.55200773
-4.5461402 1.2906283 -0.57444477
-4.5669265 1.2887645 -0.58371115
-4.5943346 1.2880013 -0.59598291
-4.6269617 1.2871075 -0.61059177
-4.7275047 1.2826891 -0.65555823
-4.6110697 1.2840207 -0.60336536
-4.4814305 1.2572662 -0.54436541
-4.3997793 1.2653562 -0.50798988
-4.2685766 1.2856139 -0.44976729
-4.2358265 1.2813103 -0.4349398
-4.1708698 1.292914 -0.40616423
-4.0885811 1.2982801 -0.36941689
-4.007637 1.2966037 -0.33305126
-3.9420967 1.2954909 -0.30361396
-6.1309805 1.2663238 -1.2846656
-6.1483011 1.2667843 -1.2924504
-6.2595129 1.2669559 -1.3423471
-6.3098254 1.2640829 -1.3648278
-6.3427711 1.2682412 -1.3797387
-6.3913727 1.2711027 -1.4016323
-6.4417014 1.2657323 -1.4240415
-6.4746623 1.2673934 -1.4388806
-6.5406313 1.2632235 -1.4683442
-6.6032095 1.2655283 -1.4964902
-6.5702176 1.2688618 -1.4817944
-6.5198421 1.281724 -1.4595999
-6.4712873 1.2713706 -1.4374917
-6.4070134 1.2723032 -1.4086866
-6.3723726 1.2713822 -1.3931171
-6.360076 1.271199 -1.3875949
-6.3080993 1.2723148 -1.3643124
-6.2611766 1.2687132 -1.3431489
-6.1449261 1.2707616 -1.2910614
-6.0789728 1.2724341 -1.2615263
-6.0459962 1.2732705 -1.2467587
-6.0180588 1.2718869 -1.2341821
-5.9504719 1.2668074 -1.2037016
-6.0337305 1.2680928 -1.2410933
-6.0650272 1.2679963 -1.2551305
-7.651824 -0.23091319 -1.9198356
-7.6450648 -0.1903035 -1.9180808
-7.630599 -0.18245995 -1.9118382
-7.6377974 -0.30870456 -1.9110954
-1.6205115 -1.1608663 0.8151685
-1.4668999 -1.1677554 0.88429797
-1.4320841 -1.1670395 0.89989436
-1.4068294 -1.1581148 0.91094315
-1.2028537 -1.0628047 0.99945152
-1.1062512 -1.0526145 1.0424682
-1.0407915 -1.0587592 1.072028
-1.0085998 -1.056195 1.0863892
-0.89304924 -1.0566723 1.1382419
-0.87637758 -1.0572805 1.1457402
-0.77864981 -1.0533687 1.1894594
-0.74645758 -1.0508045 1.2038208
-0.6655283 -1.0587716 1.2403778
-0.76380587 -1.0582956 1.1962737
-0.77990198 -1.0595778 1.189093
-0.8782053 -1.0615993 1.1450564
-0.8937006 -1.0622742 1.138126
-1.0074739 -1.0624732 1.0870916
-1.0396662 -1.0650374 1.0727304
-1.1218476 -1.0632794 1.035807
-3.8751841 1.3064171 -0.27393949
-3.9079611 1.3057243 -0.28862202
-3.9735012 1.306837 -0.31805944
-4.1046228 1.301568 -0.37671697
-7.9147449 1.2802309 -2.0853291
-7.9493275 1.2763656 -2.1007218
-7.9979763 1.2741954 -2.1224782
-8.0433998 1.275653 -2.1429019
-8.0606756 1.2762178 -2.1506698
-8.1093245 1.2740476 -2.1724262
-8.1611519 1.2757422 -2.1957302
-8.1941137 1.2749394 -2.2104921
-8.2881861 1.2742269 -2.2526722
-8.3713865 1.2731863 -2.2899647
-8.4183998 1.2765763 -2.3111622
-8.4875345 1.2738405 -2.3420908
-8.532958 1.2752982 -2.3625145
-8.5659199 1.2744955 -2.3772769
-8.5864048 1.27393 -2.3864489
-8.5205278 1.2680429 -2.35671
-8.5000582 1.266111 -2.3474662
-8.481061 1.2660475 -2.3389418
-8.45222 1.2667497 -2.3260252
-8.4059858 1.2668235 -2.3052862
-8.3541431 1.2676266 -2.2820537
-8.2939587 1.2660691 -2.2550054
-8.2510672 1.2625787 -2.2356534
-8.2193537 1.2648627 -2.2214985
-8.1423492 1.2632551 -2.1869025
-8.1090174 1.2658489 -2.1720304
-8.0309858 1.2659004 -2.1370258
-7.9947987 1.2703308 -2.1209311
-7.9321151 1.2658108 -2.0926681
-7.9259343 1.2659614 -2.0899
-7.8834496 1.2704785 -2.0709829
-7.8214746 1.2673715 -2.043082
-7.7673345 1.2648294 -2.018714
-7.7030611 1.2583773 -1.989677
-7.6868038 1.2592491 -1.9824109
-7.6728148 1.2599568 -1.9761574
-7.6198606 1.2594178 -1.9523846
-7.587821 1.2717381 -1.9383985
-7.5741854 1.2792757 -1.9325185
-7.635438 1.2755325 -1.9598798
-7.6481829 1.275672 -1.9656017
-7.6708703 1.2725997 -1.975683
-7.7239056 1.273054 -1.9994898
-7.7509809 1.2757031 -2.0117195
-7.7986288 1.2745817 -2.0330601
-7.8472309 1.2799039 -2.0550311
-7.8801932 1.2791013 -2.0697932
-3.5661743 1.2975508 -0.13503373
-3.4517741 1.3013374 -0.083831072
-3.2873964 1.394733 -0.013026834
-3.2546194 1.3954256 0.0016556978
-3.1890652 1.3968112 0.031020761
-3.0755639 1.3558575 0.083227754
-3.0100646 1.3472506 0.11288273
-2.9940364 1.3414645 0.12025523
-3.7139211 1.3082861 -0.20165312
-3.8263514 1.30632 -0.25202936
-2.2084506 1.313118 0.4735738
-2.2325819 1.31242 0.46276999
-2.1917539 1.314996 0.48100507
-1.5636711 -1.0483463 0.83712792
-1.6273532 -1.0428779 0.80838716
-1.6621437 -1.0410963 0.79272342
-1.7116084 -1.0436594 0.77061343
-1.773869 -1.0412532 0.74260664
-1.7784877 -1.0415566 0.7405442
-1.8554754 -1.0413855 0.7060008
-1.9055409 -1.0445555 0.68364036
-1.9630408 -1.0465109 0.65790641
-1.8901215 -1.0513729 0.69077218
-1.8407588 -1.0587997 0.71315086
-1.882 1.3162467 0.61992645
-1.8164887 1.3151064 0.64935172
-1.7505007 1.3020582 0.67936563
-1.6526747 1.3160017 0.72281325
-1.6854181 1.3178205 0.7080667
-1.7509289 1.318961 0.67864168
-1.8152122 1.3237581 0.64965224
-1.8319092 1.3218802 0.64222074
-1.9147429 1.3180656 0.60518026
-1.9463084 1.3185464 0.59100425
-1.9704149 1.320346 0.58013308
-2.0032074 1.3171698 0.56552172
-2.0607073 1.3152126 0.53978789
-2.0687428 1.3158128 0.53616428
-2.1015108 1.3151342 0.52148533
-2.1342785 1.3144557 0.50680649
-2.1262429 1.3138554 0.51043034
-2.0940762 1.3139545 0.52485764
-2.0780053 1.3127551 0.53210509
-2.0613086 1.314633 0.53953648
-1.9803033 1.3142111 0.57588995
-4.8726468 1.275755 -0.72045314
-4.8157592 1.2802593 -0.69507408
-4.7749414 1.2830553 -0.67685044
-5.4904933 1.2752782 -0.99761426
-5.4106255 1.2675183 -0.9615401
-5.3966494 1.2680751 -0.95528758
-5.3603439 1.2653968 -0.93891621
-5.2648206 1.2589338 -0.89585954
-5.2474842 1.2609706 -0.88814622
-5.1971874 1.2613463 -0.86559415
-5.1658907 1.2614425 -0.85155678
-5.1502495 1.2602421 -0.84450209
-5.0841694 1.2519517 -0.81459677
-4.9689808 1.2804935 -0.76381922
-4.9361491 1.2911786 -0.74942648
-4.8557754 1.3047167 -0.71379542
-4.8223324 1.3076817 -0.69888556
-4.7582059 1.2870359 -0.66946793
-7.6533704 -0.28044197 -1.9189711
-3.614341 1.2999201 -0.15671664
-3.6484084 1.3021773 -0.1720708
-2.3475792 -0.37359172 0.46422493
-2.4781716 -0.32635155 0.40415287
-2.4205565 -0.31926146 0.42977679
-2.4125881 -0.32000104 0.43337488
-2.3550973 -0.32540625 0.45933628
-2.3530493 -0.32536414 0.46025372
-2.3068595 -0.32655478 0.4810127
-0.70134354 0.50386989 1.1751472
-0.63187599 0.51875812 1.2058429
-0.67745399 0.54402894 1.1846009
-1.2131014 1.3138126 0.92008197
-1.2947083 1.3136548 0.88347685
-1.2607136 1.3179901 0.89859092
-1.1952024 1.3168496 0.92801607
-1.1791067 1.3181478 0.93519604
-5.0199342 1.2512909 -0.78575885
-4.9543796 1.2526762 -0.75639367
-5.3950162 1.2613233 -0.95434248
-5.4955482 1.2705609 -0.99973351
-5.5251498 1.2737019 -1.0131121
-5.801229 1.2721893 -1.1369183
-5.851542 1.2693163 -1.1593989
-5.9348164 1.2681043 -1.1967191
-5.8549175 1.265339 -1.1607882
-5.7855887 1.2709888 -1.1298639
-5.7543073 1.2685878 -1.1157551
-5.7073698 1.2674836 -1.0946634
-5.6917295 1.2662832 -1.0876089
-5.6240644 1.2736905 -1.0574864
-5.6900177 1.2720177 -1.0870215
-5.73526 1.2763593 -1.1074547
-1.6687212 1.3196985 0.71549833
-1.6538525 1.3173399 0.72224271
-2.2229245 -1.0402244 0.54112053
-2.2556918 -1.0409021 0.52644193
-2.2975013 -1.0464321 0.50785947
-2.2653596 -1.0488629 0.5223552
-2.1831527 -1.0481236 0.55921125
-2.0919731 -1.0500015 0.60017514
-2.0360112 -1.0466437 0.62517488
-2.1225731 -1.038149 0.58607447
-2.1573648 -1.0363716 0.57041037
-2.1901565 -1.0395468 0.55579948
-5.1693282 1.2474762 -0.85265958
-5.1992359 1.245893 -0.86602682
-5.2313328 1.2499706 -0.88055432
-5.2955418 1.2556278 -0.90953755
-5.3637195 1.2614197 -0.94030535
-5.377696 1.2608627 -0.94655788
-1.4486709 -1.0444357 0.88859594
-1.3776174 -1.0460663 0.92052305
-1.2861099 -1.0497732 0.9616915
-5.1176395 1.2439907 -0.82936156
-5.1033902 1.2466515 -0.82305276
-2.0591097 -1.0393335 0.61458254
-2.05143 -1.0398264 0.6180433
-1.9865463 -1.0440807 0.64728498
-1.4969339 -1.0457846 0.86698687
0 0 0 1 0 0 0 1 0 0 0 1 0 0 0 0 0 689 1 0 0
