ply
format ascii 1.0
comment PCL generated
element vertex 603
property float x
property float y
property float z
element camera 1
property float view_px
property float view_py
property float view_pz
property float x_axisx
property float x_axisy
property float x_axisz
property float y_axisx
property float y_axisy
property float y_axisz
property float z_axisx
property float z_axisy
property float z_axisz
property float focal
property float scalex
property float scaley
property float centerx
property float centery
property int viewportx
property int viewporty
property float k1
property float k2
end_header
0.68385649 1.3724031 3.0245037
0.75790262 1.293349 3.0328383
0.73712635 1.0126083 3.0373769
0.76593065 0.73372412 3.0462525
0.7585578 0.69370127 3.04651
0.75144863 0.41381919 3.0522363
0.73358345 0.37385958 3.0515656
0.69982052 0.33560491 3.0494521
0.4578681 0.17205852 3.0317953
0.42324781 0.65040374 3.0178776
0.42290115 0.6904428 3.016938
0.50299263 0.89056981 3.0194683
0.50264597 0.93060887 3.0185287
0.50255871 1.0105619 3.016706
0.21896791 1.3624377 2.9836698
0.40333128 1.413898 2.998785
0.41057682 1.4133883 2.9994364
0.45045471 1.4125817 3.0029769
0.6491437 1.3811495 3.0212393
0.4139514 -1.0544441 3.0557618
0.56970596 -1.0257323 3.0688665
0.58695936 -1.0105906 3.0700464
0.64850712 -0.93509859 3.0737686
0.65343475 -0.93005866 3.0740895
0.65077353 -0.89066428 3.0729601
0.61856174 -0.85041374 3.0692012
0.34132719 -0.80759972 3.0437431
0.39881325 -0.25494105 3.0362735
-0.17967176 -0.29879415 2.986176
-0.22355318 -0.35809541 2.9836466
-0.22268724 -0.6179257 2.9896219
-0.20028543 -0.69879484 2.9934366
-0.49792528 -1.076169 2.9757159
-0.42370987 -1.0770688 2.9822912
-0.30025768 -1.0783179 2.9932232
-0.22112274 -1.0876191 3.0004237
-0.10252905 -1.069092 3.0104775
0.050832272 -1.0641363 3.02391
0.17320824 -1.093883 3.035394
0.24852943 -1.0911033 3.0419836
-10.709834 -0.86010462 2.068871
-10.567438 -1.0642304 2.086082
-10.462626 -1.1270154 2.0967646
-10.444994 -1.1312797 2.0984187
-10.40974 -1.1423032 2.1017828
-10.33923 -1.164351 2.108511
-10.295221 -1.165015 2.1124129
-10.083986 -1.1687024 2.1311533
-10.044449 -1.1558087 2.1343527
-9.941082 -1.1458714 2.1432567
-9.7696056 -1.1224756 2.1578708
-9.6860237 -1.1177413 2.1651454
-9.6200256 -1.1137424 2.1708837
-9.571619 -1.1179678 2.1752551
-9.5496044 -1.1183014 2.177207
-9.4439659 -1.1263895 2.1867208
-9.4351616 -1.1260233 2.18749
-9.4043655 -1.1259875 2.1902094
-9.3515415 -1.1287839 2.1949382
-9.2679338 -1.1290462 2.2023287
-9.1095848 -1.1174455 2.2160511
-9.0392389 -1.1070144 2.2220273
-8.9160185 -1.1093733 2.232964
-8.832386 -1.1146321 2.2404702
-8.7839327 -1.1238575 2.2449591
-8.6211376 -1.1208177 2.2592683
-8.5375547 -1.1160834 2.2665431
-8.5948238 -1.1047261 2.2612271
-8.6388321 -1.1040618 2.2573252
-8.7136116 -1.1084299 2.2508197
-8.7664232 -1.1081319 2.2461486
-8.8500185 -1.1103678 2.238816
-8.9292431 -1.1061749 2.2317233
-8.9688797 -1.0990818 2.2280617
-9.2302847 -0.68837583 2.1956494
-9.14219 -0.48760402 2.1988721
-8.6879711 -0.40970808 2.2372212
-8.6775665 -0.40099627 2.2379425
-8.6467705 -0.40096062 2.2406616
-8.6115904 -0.39699435 2.2436788
-8.5324917 -0.37620389 2.2501929
-8.4840879 -0.37543571 2.2544506
-8.4092846 -0.3760643 2.2610717
-8.2948799 -0.37629098 2.2711813
-8.1717358 -0.36365962 2.2817709
-8.0837069 -0.36748636 2.2896328
-8.0133114 -0.3670488 2.2958403
-7.9252701 -0.37337387 2.3037598
-7.8900414 -0.37940103 2.3070083
-7.9516335 -0.37947237 2.3015699
-8.0220041 -0.38490659 2.2954779
-8.0704451 -0.37817961 2.2910469
-8.1628942 -0.37078846 2.2827137
-8.2640362 -0.38125509 2.2740183
-8.3036356 -0.38165694 2.2705297
-8.4224234 -0.3853609 2.2601223
-8.5500259 -0.38693273 2.2488878
-6.6805582 -1.2728324 2.4341161
-6.6600718 -1.2727852 2.4359245
-6.4057736 -1.1110582 2.4547129
-6.3202262 -1.1143181 2.4623427
-6.2825298 -1.1184444 2.465766
-6.273726 -1.1181102 2.4665358
-6.2517343 -1.1183817 2.4684844
-6.1637301 -1.1172535 2.4762316
-6.1021628 -1.1121314 2.4815531
-6.0449185 -1.118561 2.4867549
-5.9613109 -1.1188493 2.4941459
-5.8733196 -1.1152229 2.5018351
-5.816184 -1.104022 2.5066271
-5.714932 -1.1111369 2.5157316
-5.6753321 -1.1107399 2.5192201
-5.6357322 -1.1103432 2.5227087
-5.6005402 -1.1088641 2.5257833
-5.5521483 -1.1056347 2.529984
-5.6226053 -1.0984571 2.5235982
-5.6533766 -1.1035163 2.5209951
-5.732564 -1.1068087 2.514076
-6.6366816 1.3486006 2.3784771
-6.5951538 1.348536 2.3821464
-6.511528 1.3457747 2.389595
-6.4639568 1.3467436 2.3937747
-6.3877778 1.3470306 2.4004965
-6.3338704 1.3464668 2.4052706
-6.2155876 1.3415594 2.4158289
-6.1451035 1.3245087 2.4224412
-6.0174503 1.316087 2.433907
-5.9470415 1.3140261 2.4401727
-5.8791203 1.3144386 2.4461622
-5.8769207 1.3145304 2.4463544
-5.8667459 1.3145642 2.4472523
-5.7710476 1.3188646 2.4556069
-5.731473 1.3242631 2.4589796
-5.6257854 1.3061819 2.4687247
-5.5993962 1.3072834 2.4710305
-5.5117064 1.3160152 2.4785774
-5.4965806 1.3160992 2.4799113
-5.471818 1.3138521 2.4821494
-5.4586067 1.3131521 2.4833322
-5.5201964 1.3080873 2.4780073
-0.14667559 1.3697095 2.9512103
-0.30253601 1.448173 2.935663
0.011476517 1.410675 2.9642487
0.1398592 1.3719373 2.9764671
0.060744762 1.3864338 2.9691503
-0.062746525 1.3841944 2.9582942
-10.610691 1.3135715 2.0282786
-10.635185 1.3138828 2.026108
-10.795413 1.2378554 2.0136824
-10.936699 1.1959338 2.0021553
-11.015288 1.0752058 1.9979552
-11.037159 0.99503219 1.9978437
-11.019434 0.91526264 2.0012202
-10.960046 0.71374643 2.0110404
-10.992527 0.51199442 2.0127521
-10.982201 0.092240378 2.0231938
-10.994511 0.067052096 2.0226784
-10.995363 -0.025598317 2.0247066
-10.980312 -0.065421104 2.0269399
-10.954967 -0.34915584 2.0356202
-10.952049 -0.38230067 2.0366304
-10.877957 -0.46011138 2.0449409
-10.712916 -0.73958451 2.0658627
-4.5348144 -0.47072524 2.605423
-4.0783291 -0.23487705 2.6403863
-4.0787363 -0.1149272 2.6376271
-4.0741506 -0.03561759 2.6362317
-4.0892992 0.084914699 2.6321573
-4.0821075 0.12425967 2.6318991
-3.9719453 0.595204 2.6309371
-4.0127811 0.63516158 2.6264231
-4.0273762 0.67496306 2.6242306
-4.1141782 0.91639435 2.6110828
-4.3691096 1.3409145 2.5789287
-4.4530787 1.341414 2.571501
-4.5644312 1.3589499 2.5612681
-4.5768209 1.35831 2.5601883
-4.7201719 1.3572814 2.5475504
-4.747551 1.3537796 2.5452118
-4.7918472 1.3567672 2.5412316
-4.8436861 1.3574972 2.5366366
-4.8883018 1.3549733 2.5327532
-4.8929801 1.3543503 2.5323544
-4.9325213 1.3515682 2.5289252
-5.0494852 1.3339593 2.5189943
-5.0582762 1.331095 2.5182829
-5.1106863 1.3208981 2.5138855
-5.2012081 1.3157642 2.506007
-5.3222599 1.3225882 2.4951603
-5.225441 1.3216262 2.5037334
-5.1946702 1.3266585 2.5063369
-5.1351075 1.3412228 2.5112669
-5.1302328 1.3426545 2.5116651
-5.1253586 1.3440859 2.512063
-5.090693 1.3454366 2.5150943
-5.0809393 1.3458014 2.5159473
-4.9969878 1.3552954 2.5231466
-4.972075 1.3562813 2.5253246
-4.9032903 1.3701513 2.531085
-4.7145929 1.3961604 2.5471606
-4.6461592 1.3966858 2.5531929
-4.6066146 1.3969696 2.5566792
-4.5548401 1.3951373 2.5612936
-4.5480347 1.395324 2.5618904
-4.4591866 1.3937576 2.5697732
-4.3157148 1.4380674 2.581439
-4.3026829 1.4391251 2.582566
-4.1815958 1.4742436 2.5924635
-4.0034723 1.3563249 2.6108727
-3.9243512 1.3394034 2.6182451
-3.8008194 1.3291941 2.6293876
-3.7241554 1.3227997 2.6363039
-3.6475224 1.3338943 2.6428204
-3.5142632 1.33904 2.6544733
-3.474714 1.3368256 2.6580167
-3.316529 1.3354621 2.672019
-3.2623823 1.3525324 2.6764138
-3.225322 1.3602936 2.6795108
-3.2228506 1.3603115 2.6797287
-3.1922235 1.3603666 2.6824324
-3.1842203 1.3607953 2.6831295
-3.1609972 1.3618569 2.6851566
-3.1504691 1.3623457 2.6860754
-3.1239238 1.362123 2.6884251
-3.1069598 1.3617625 2.6899314
-3.077028 1.3613577 2.6925843
-3.0473692 1.3615704 2.695199
-3.026345 1.3619967 2.6970463
-3.0127671 1.3618186 2.6982496
-2.9761269 1.3599467 2.7015281
-2.9708788 1.3599155 2.7019925
-2.9472044 1.3598645 2.7040846
-2.6940918 1.3408122 2.7268727
-2.4741709 1.3518329 2.7460463
-2.4337299 1.3619096 2.7493894
-2.3914404 1.3615932 2.7531316
-2.2813118 1.346823 2.7631938
-2.2393234 1.3440745 2.7669647
-2.1924543 1.34026 2.7711909
-2.0614371 1.3647878 2.7822058
-2.0422423 1.3656142 2.7838824
-2.0144775 1.3651247 2.7863457
-1.9604087 1.365581 2.7911108
-1.767199 1.3355207 2.8088579
-1.6461515 1.3508286 2.8192017
-1.5372877 1.3613086 2.8285789
-1.4986753 1.3717861 2.8317513
-1.3791895 1.3713348 2.8423147
-1.3668313 1.3714235 2.8434043
-1.2605085 1.3832819 2.8525257
-1.2209544 1.3785689 2.8561263
-1.1740894 1.3772528 2.8602953
-0.97994471 1.3344998 2.8784134
-1.0973291 1.3158929 2.868468
-1.2135458 1.3270009 2.8579514
-1.3346128 1.321686 2.8473792
-1.3717127 1.3183708 2.8441777
-1.4483731 1.3222663 2.8373184
-1.7381783 1.0911375 2.8169694
-1.8604178 1.0508363 2.8070879
-2.0203075 0.81032079 2.7984266
-1.9982305 0.56573987 2.8059292
-1.9938905 0.52483177 2.8072412
-1.9170699 0.086345777 2.823981
-1.9150007 0.064573199 2.8246582
-1.9147754 -0.33526444 2.8337555
-1.6401374 -0.64712298 2.8650923
-1.2995911 -0.32381111 2.88783
-1.2773471 -0.32365203 2.889791
-1.2896814 -0.33623278 2.8889873
-6.5247855 1.303443 2.3893852
-6.4309926 1.2988441 2.3977735
-6.356226 1.3057106 2.4042213
-6.2594571 1.3147418 2.4125631
-6.2022352 1.3083842 2.4177613
-6.1934314 1.3087504 2.4185307
-6.0745816 1.2999628 2.4292274
-5.9601779 1.299736 2.4393368
-5.9161196 1.2890785 2.44347
-5.8369579 1.2973773 2.4502735
-5.7797136 1.2910163 2.4554739
-5.6961179 1.2932527 2.4628065
-5.6125731 1.3054819 2.4699075
-10.523064 1.3167121 2.0359468
-10.479036 1.3185368 2.039794
-10.461273 1.3167241 2.0414038
-10.428066 1.3143125 2.0443916
-10.382044 1.3100374 2.0485535
-10.197327 1.3564465 2.0638146
-10.186248 1.3556328 2.0648115
-9.9622154 1.2829239 2.0862491
-9.8830166 1.2837269 2.093226
-9.8301888 1.2757325 2.0980735
-9.8125696 1.274102 2.0996666
-9.7333832 1.2774034 2.1065855
-9.6673689 1.2738075 2.1124978
-9.6057663 1.2765434 2.1178765
-9.5353584 1.2744138 2.1241436
-9.6145449 1.2711124 2.1172245
-9.6805325 1.2697115 2.111428
-9.6937447 1.2703097 2.1102476
-9.8037529 1.2720377 2.100492
-9.8169518 1.2701375 2.0993695
-9.9066696 1.2699177 2.0914505
-9.9288635 1.2703099 2.0894814
-10.003635 1.2734203 2.0828066
-10.014977 1.2731271 2.0818117
-10.157612 1.2782209 2.069098
-10.183889 1.2770817 2.066803
-10.222967 1.2753077 2.0633919
-10.227639 1.2751896 2.0629821
-10.298195 1.2672966 2.0569296
-10.33774 1.2568989 2.0536728
-10.547214 0.99441761 2.0411308
-10.595299 0.81516135 2.0409534
-10.509524 0.55486417 2.0544388
-10.508579 0.47509885 2.0563331
-10.509365 0.35769868 2.058929
-10.506451 0.27464777 2.0610719
-10.537234 0.19726117 2.0601101
-10.511997 -0.059557676 2.0681696
-10.276773 -0.29612142 2.0943158
-10.023546 -0.33741486 2.117619
-10.020515 -0.33814782 2.1179032
-9.9427156 -0.49670511 2.1283743
-9.6295013 -0.65356249 2.1595993
-9.368453 -0.33555198 2.175436
-9.3512154 -0.31788772 2.1765573
-9.3116035 -0.3199842 2.1801035
-9.2719412 -0.33207405 2.1838813
-9.2410059 -0.3595202 2.1872365
-9.1702204 -0.43653131 2.1952369
-7.6832633 -0.37202871 2.325104
-7.5930786 -0.36441648 2.3328965
-7.5490584 -0.36759996 2.3368566
-7.4852767 -0.36752105 2.3424883
-7.4654503 -0.36788821 2.3442476
-7.3906589 -0.36601228 2.3508108
-7.3289948 -0.37602234 2.3564844
-7.4631982 -0.38034636 2.3447294
-7.5621734 -0.38198435 2.336025
-7.6304264 -0.37732333 2.329891
-7.7140341 -0.37706113 2.3225005
-7.749239 -0.37603062 2.3193676
-7.6920662 -0.37239492 2.3243349
-8.6736622 -0.41067368 2.238507
-4.6373839 -0.8388539 2.6047215
-4.8935952 -1.0650027 2.5872266
-5.0267801 -1.0714226 2.575609
-5.1058927 -1.0670207 2.5685217
-5.1252985 -1.0693908 2.5668616
-5.217814 -1.0916553 2.5591958
-5.2881742 -1.0996099 2.5531621
-5.2397819 -1.0963805 2.5573628
-5.1253424 -1.1041009 2.5676458
-5.0548978 -1.1136343 2.574084
-4.873436 -1.0720727 2.5891676
-4.8040428 -1.0726619 2.5953097
-4.7846456 -1.0677929 2.5969126
-4.6458611 -1.0689712 2.6091971
-4.636158 -1.067786 2.6100271
-4.4828477 -1.05844 2.6233556
-4.3940582 -1.0541601 2.6311007
-4.1713514 -1.1531365 2.6530178
-4.1516533 -1.1304967 2.6542435
-3.8800044 -1.0302947 2.6759613
-3.8018193 -1.0295756 2.6828504
-3.7224202 -1.0290205 2.6898506
-3.3481505 -1.0605876 2.7236235
-3.3035629 -1.0727112 2.7278368
-3.2639172 -1.0873742 2.7316713
-3.2198591 -1.0980997 2.7358062
-3.1846821 -1.099211 2.7389383
-3.1450844 -1.0988834 2.7424283
-3.0966127 -1.1056716 2.7468636
-3.06146 -1.0992877 2.7498233
-2.8941312 -1.1250806 2.7651877
-2.7886562 -1.1109259 2.7741823
-2.7490826 -1.1031032 2.7774999
-2.6962221 -1.098459 2.7820632
-2.6303213 -1.0921268 2.78774
-2.5021932 -1.0774879 2.7987242
-2.4626443 -1.0797074 2.8022676
-2.4253762 -1.0760543 2.8054762
-2.358654 -1.0706251 2.8112459
-2.304476 -1.0710964 2.8160419
-2.2497692 -1.072619 2.8209083
-2.1721716 -1.0917096 2.8281953
-2.0866575 -1.1050649 2.8360512
-2.0471087 -1.1072843 2.8395948
-1.9061887 -1.1312742 2.8525858
-1.8097653 -1.1505814 2.8615403
-1.7952569 -1.0738819 2.8610806
-2.0769234 -1.0922406 2.8366199
-2.3169835 -0.73219156 2.8072431
-2.1588633 -0.45001948 2.8148024
-1.9210413 -0.40820867 2.8348582
-2.7120769 1.1832799 2.7288606
-2.8683739 0.88645929 2.7217948
-2.8163362 0.64138192 2.7319548
-2.8210368 0.52511436 2.7341793
-3.1954193 0.28434902 2.706579
-3.2255464 0.20432046 2.705735
-3.234376 0.12410036 2.7067764
-3.2475777 0.084237143 2.7065153
-2.9291999 -0.29216182 2.7431808
-2.8993635 -0.29054999 2.7457793
-2.8106158 -0.27377522 2.7532368
-2.769871 -0.26864356 2.7567191
-2.6203089 -0.26734334 2.7698991
-2.3876572 -0.091375977 2.7864525
-2.3529868 -0.092558622 2.7895415
-2.0937688 0.069199607 2.808764
-2.0542605 0.40672618 2.8045905
-2.0796766 0.5182355 2.7998142
-2.081214 0.52606463 2.7995005
-2.0898132 0.60395598 2.7969728
-2.0731931 0.64418805 2.7975273
-2.0212224 0.81052077 2.7983413
-1.9519687 1.0896037 2.7981219
-2.3031886 1.3066518 2.7621737
-2.4624867 1.2483202 2.7494283
-2.4834471 1.2489963 2.7475617
-2.5947692 1.2310038 2.738138
-2.6374159 1.2199779 2.7346215
-3.1139786 -1.0415978 2.743875
-2.9953187 -1.0457017 2.7544484
-2.9557624 -1.0479026 2.7579923
-2.6800687 -0.61757743 2.7725725
-2.9090328 -0.30173093 2.7451792
-2.9340472 -0.29400384 2.7427943
-3.2447112 -0.33897138 2.7163768
-3.3559427 -0.46825635 2.7094877
-3.3935668 -0.58870947 2.7088993
-3.3918114 -0.74880689 2.7126889
-6.5498056 1.3001368 2.3872504
-6.6246095 1.3007655 2.3806293
-6.6730127 1.2999973 2.3763716
-6.7477922 1.2956293 2.3698661
-6.8049865 1.2919965 2.364897
-6.8533669 1.2912254 2.3606415
-6.9194031 1.2947216 2.3547297
-6.9853659 1.2882214 2.3490512
-7.0557613 1.2877836 2.3428438
-7.1041775 1.2895141 2.3385282
-7.1525817 1.2887459 2.3342705
-7.1789694 1.2876441 2.3319647
-7.2450047 1.2911403 2.3260531
-7.2625895 1.2904048 2.3245168
-7.3153882 1.2882044 2.3199034
-7.3990211 1.2934635 2.3123972
-7.4893055 1.2861958 2.3045881
-7.5222039 1.2883272 2.3016341
-7.5530128 1.2907898 2.298857
-7.6058121 1.2885895 2.2942436
-7.6653767 1.2962139 2.2888098
-7.7357721 1.295845 2.2826004
-7.7577524 1.2938132 2.2807052
-7.8017607 1.2944441 2.276804
-7.8765392 1.2901106 2.2702978
-7.9953127 1.2839093 2.2599483
-8.3397694 1.0951817 2.2338097
-8.4387054 1.081686 2.2253778
-8.4827652 1.0923104 2.2212453
-8.5052567 1.1345572 2.2182996
-8.804903 1.2725141 2.1887021
-8.8621349 1.2762415 2.1835625
-8.7434635 1.3024297 2.1934495
-8.6598816 1.3071973 2.2007232
-8.549572 1.3004079 2.2106202
-8.4662771 1.3077383 2.2178106
-8.3845644 1.3010709 2.225179
-8.3165569 1.2892251 2.2314546
-8.2681637 1.2872598 2.2357733
-8.2153778 1.2920599 2.2403266
-8.1450195 1.2999239 2.2463622
-8.1054201 1.3003254 2.2498507
-8.017417 1.3015623 2.2575951
-7.9074593 1.3098278 2.2671192
-7.8238258 1.3046017 2.2746246
-7.8150225 1.3050356 2.2753923
-7.784214 1.3025048 2.2781708
-7.7226114 1.3052404 2.2835495
-7.7054462 1.307152 2.2850223
-7.6874199 1.3066742 2.2866251
-7.5642509 1.3143413 2.2973299
-7.5399017 1.3100767 2.2995772
-7.4694548 1.3005209 2.3060162
-7.390255 1.3013246 2.312993
-7.3715401 1.299293 2.314692
-7.3018265 1.2998965 2.3208356
-7.2362137 1.2940049 2.3267646
-7.1834273 1.2987037 2.33132
-7.1399741 1.2994215 2.3351417
-7.1174397 1.3002071 2.3371141
-7.0715241 1.3034484 2.3410959
-7.0698748 1.3036735 2.3412364
-7.0473156 1.3025835 2.3432536
-7.0191197 1.3016894 2.3457642
-6.9914746 1.3009286 2.3482232
-6.9780021 1.3014123 2.3494022
-6.910624 1.3000844 2.3553834
-6.8740668 1.3043416 2.3585155
-6.8674679 1.3046167 2.359092
-6.8295164 1.3047938 2.3624399
-6.6819921 1.3346078 2.3747928
-0.16073465 -0.69844872 2.996922
0.22424603 -0.7365877 3.0317903
-9.1612883 1.2664027 2.1573641
-9.2185211 1.2701302 2.1522245
-9.2932987 1.2657967 2.1457183
-9.3196878 1.264797 2.1434102
-9.3769207 1.2685244 2.1382709
-9.4957457 1.2723167 2.1276898
-9.3857489 1.273087 2.1373875
-9.3593264 1.2718909 2.1397483
-9.2977333 1.2718256 2.1451898
-9.2581329 1.272227 2.1486783
-9.2141256 1.2715962 2.1525793
-7.6444411 -1.0925825 2.3448915
-7.7676611 -1.0902238 2.3339548
-7.8688164 -1.0981922 2.3252015
-7.9568577 -1.091867 2.317282
-8.0404396 -1.0966015 2.3100073
-8.1196518 -1.0949068 2.3029726
-8.2428589 -1.0950463 2.2920938
-8.2868795 -1.0918837 2.2881341
-8.3660297 -1.1026807 2.2813885
-8.3967762 -1.1127098 2.2789006
-7.6267719 -1.1043417 2.346719
-7.7367544 -1.1076796 2.337081
-7.8159676 -1.1059849 2.3300462
-7.9039583 -1.1096535 2.3223579
-7.9831824 -1.1054604 2.3152654
-8.1019688 -1.1091642 2.304858
-8.2559223 -1.119333 2.2914915
-8.3483095 -1.1244335 2.2834473
-8.431077 -1.1268694 2.2761924
-8.4547215 -1.1280119 2.2741301
-7.5807285 -1.0935919 2.3505418
-7.5322876 -1.1003559 2.3549738
-7.468359 -1.1052327 2.3607306
-7.4090924 -1.0977488 2.3657954
-7.084096 -0.79964012 2.3877318
-8.9809475 1.2775354 2.1730394
-9.024929 1.2731695 2.1692538
-9.0601215 1.2717359 2.1661782
-9.0953007 1.2678039 2.1631603
-9.0820894 1.2672057 2.164341
-9.0469093 1.2711377 2.1673586
-9.0293255 1.2717032 2.1688991
-8.9237022 1.2713099 2.1782367
-8.8973265 1.2748079 2.1804869
-10.551444 -0.85724765 2.0827956
-10.224976 -1.1345975 2.1179266
-10.142458 -1.1370916 2.1252713
-10.131456 -1.1372576 2.1262469
-10.066578 -1.1329899 2.1318803
-10.011587 -1.1288176 2.1366425
-9.9059772 -1.1269152 2.145927
-9.6531429 -0.65657777 2.1575797
-4.6210294 -0.55884051 2.5998087
-4.6149631 -0.51863712 2.5994318
-4.5743704 -0.46852428 2.6018794
-6.4290595 -0.39423871 2.4363823
-6.6374965 -0.51101035 2.4206238
-6.7211046 -0.51072216 2.4132328
-6.7609429 -0.51854646 2.4098918
-7.0511322 -0.39709532 2.3815043
-7.1190004 -0.35442168 2.3745413
-7.1750393 -0.36585754 2.3698514
-7.2542152 -0.37164807 2.3629899
-10.290476 -0.35768336 2.0945032
-10.582523 -0.74430114 2.0774863
-5.3365774 -1.1003408 2.5489035
-5.4773569 -1.1037586 2.5365472
-5.3409853 -1.0992587 2.5484896
-6.2452049 -0.70881748 2.4597628
-5.9745598 -1.1106064 2.4927886
-5.8997798 -1.1062322 2.499294
-5.8725548 -1.1059592 2.5016923
-6.2434664 -0.66995132 2.459034
-6.2083158 -0.54742122 2.4593568
-6.1952863 -0.51069432 2.4596736
-6.1998882 -0.46963912 2.4583352
-6.2286744 -0.43269694 2.4549539
-6.2922401 -0.31066459 2.4465692
-6.3062773 -0.30911589 2.4452941
-6.3395405 -0.31106824 2.4424007
-6.3946047 -0.35391819 2.4385102
-7.1135283 -1.1960962 2.3941331
-6.8336601 -1.2332659 2.4196956
-6.8119221 -1.2348077 2.4216504
0.39373636 -0.21501043 3.0349185
-8.9017353 1.27584 2.1800742
-5.3398447 1.3218527 2.493624
-5.3791723 1.3195124 2.4902036
-5.3486357 1.3189883 2.4929125
-7.5586143 -1.1139925 2.352958
-7.5190272 -1.1110971 2.3563888
-7.4551101 -1.1134276 2.362087
-7.3051419 -1.1552963 2.3762832
-7.2195206 -1.1735461 2.3842597
0 0 0 1 0 0 0 1 0 0 0 1 0 0 0 0 0 603 1 0 0
