ply
format ascii 1.0
comment PCL generated
element vertex 589
property float x
property float y
property float z
element camera 1
property float view_px
property float view_py
property float view_pz
property float x_axisx
property float x_axisy
property float x_axisz
property float y_axisx
property float y_axisy
property float y_axisz
property float z_axisx
property float z_axisy
property float z_axisz
property float focal
property float scalex
property float scaley
property float centerx
property float centery
property int viewportx
property int viewporty
property float k1
property float k2
end_header
-1.4620609 1.3581023 -5.8888559
-1.4153056 1.3487196 -5.9165688
-1.3349853 1.3072668 -5.9643202
-1.3228292 1.1874357 -5.9721947
-1.2909799 1.1078402 -5.9914899
-1.2855992 1.0279088 -5.9951286
-1.2898355 0.94785225 -5.9930787
-1.2841277 0.86793101 -5.996911
-1.2907457 0.78783524 -5.9934525
-1.2931376 0.54779518 -5.9934058
-1.2963877 0.42774612 -5.9921675
-1.3310843 0.18729299 -5.9730124
-1.3373642 0.34720829 -5.9683857
-1.3289781 0.4673301 -5.972662
-1.3298364 0.58732104 -5.9714708
-1.3333292 0.64477307 -5.9690771
-1.3312669 0.78730595 -5.9694843
-1.3350635 0.88725483 -5.9666686
-1.6419711 1.1333152 -5.7837076
-1.6722031 1.1304314 -5.7658396
-1.7491198 1.1269311 -5.7203579
-1.8096204 1.1261632 -5.6845713
-1.8398705 1.1257793 -5.6666784
-1.9608178 1.116744 -5.5951805
-1.9910679 1.1163601 -5.5772877
-2.2780881 1.3474809 -5.4061766
-1.9195476 1.2997886 -5.6185517
-1.8716583 1.3403791 -5.6466503
-1.8243923 1.3409791 -5.6746082
-1.7204785 1.3522981 -5.7360163
-1.6297817 1.3609495 -5.7896204
-1.5995317 1.3613335 -5.8075137
-1.5527759 1.3519508 -5.8352265
-10.666774 1.2470765 -0.44422507
-10.767738 1.1809689 -0.38487387
-10.782478 1.1257769 -0.37646914
-10.78356 0.96576202 -0.37674117
-10.822218 0.80558085 -0.35478473
-10.821224 0.60559285 -0.35651302
-10.811638 0.58310139 -0.36231184
-10.703578 0.3542999 -0.42754173
-10.673064 0.24699005 -0.44620442
-10.724554 0.005692929 -0.41712022
-10.846291 -0.37486079 -0.34727335
-10.881701 -0.41511533 -0.32655501
-10.888794 -0.53550482 -0.32304549
-10.897795 -0.57532537 -0.31794786
-10.835207 -0.71721816 -0.35578203
-10.884486 -1.0157733 -0.32833123
-10.890054 -1.0283459 -0.32510924
-10.919699 -1.0954968 -0.30795527
-10.926992 -1.1105015 -0.30372572
-10.889645 -1.1108409 -0.32582188
-10.833195 -1.1221938 -0.35928106
-10.812664 -1.1275457 -0.37145686
-10.778976 -1.1275202 -0.39138484
-10.715253 -1.129604 -0.42909408
-10.668459 -1.1142014 -0.45668817
-10.612109 -1.1055555 -0.48997402
-10.585747 -1.1047997 -0.5055654
-10.535215 -1.1047615 -0.53545761
-10.488323 -1.1093577 -0.56322432
-10.398261 -1.1056858 -0.61648178
-10.484674 -1.107223 -0.56537104
-10.659362 -1.0284635 -0.46158123
-10.705689 -0.61300778 -0.43180656
-10.485168 -0.25222549 -0.56020474
-10.55792 0.047042727 -0.51546073
-10.577038 0.12700072 -0.50369573
-10.609444 0.24699235 -0.48384047
-10.522919 0.54729402 -0.53331518
-10.519264 0.56734157 -0.53536224
-10.52323 0.60979027 -0.53277493
-10.510876 0.76745176 -0.53918409
-10.296968 1.1706493 -0.66342735
-10.272657 1.1782593 -0.67776608
-10.089355 1.2827318 -0.78560734
-9.9958181 1.2929192 -0.84088326
-9.9675007 1.296613 -0.85761428
-9.9565268 1.2980176 -0.86409807
-9.8758097 1.2940679 -0.91187048
-9.8495712 1.2917027 -0.92740631
-9.7518215 1.2963002 -0.98520589
-9.7136497 1.296513 -1.0077863
-9.7105827 1.2966303 -1.0095999
-9.675065 1.2964733 -1.030612
-9.6093359 1.2873284 -1.0695478
-9.5192375 1.2835007 -1.1228697
-9.4650192 1.2781742 -1.1549737
-9.3881397 1.281468 -1.2004352
-9.3581018 1.2793589 -1.2182165
-9.2116652 1.2866769 -1.304803
-9.157485 1.2888499 -1.3368422
-9.1311226 1.2896056 -1.3524334
-9.1648092 1.2895801 -1.3325052
-9.2585831 1.2962728 -1.2769928
-9.3149576 1.2926266 -1.2436639
-9.4126215 1.2986497 -1.1858543
-9.4298306 1.2985677 -1.1756744
-9.4631968 1.2984043 -1.1559367
-9.4809093 1.298161 -1.1454598
-9.5109348 1.2977704 -1.1277
-9.533041 1.2977535 -1.1146221
-9.5462227 1.2973758 -1.1068265
-9.6186771 1.2976197 -1.0639631
-9.665823 1.3061808 -1.0360241
-9.7500648 1.3111166 -0.98616099
-9.796957 1.3157128 -0.95839405
-9.8569698 1.3074321 -0.9229393
-9.8906565 1.3074065 -0.90301132
-9.9470692 1.3112599 -0.86961722
-9.9957428 1.3085372 -0.84083867
-10.02395 1.307966 -0.82415581
-10.03713 1.3075881 -0.81636024
-10.055793 1.3077559 -0.80531907
-10.085805 1.3048654 -0.78758144
-10.162648 1.294072 -0.74218416
-10.179466 1.2890594 -0.73226357
-10.26948 1.2753884 -0.67909241
-10.30679 1.2682283 -0.6570611
-10.363178 1.267082 -0.62371016
-10.430514 1.2595313 -0.58391881
-10.483277 1.2655194 -0.55267143
-8.9855003 -1.1019503 -1.4522125
-9.2292976 -0.6849457 -1.305611
-9.1857357 -0.34435907 -1.3294394
-9.1580544 -0.24429038 -1.3452451
-9.246892 -0.08518815 -1.291784
-9.2679625 -0.085091919 -1.2793186
-9.4297228 -0.31204942 -1.1849192
-9.5007057 -0.3436794 -1.143108
-9.590683 -0.36239621 -1.0899867
-9.613308 -0.36392215 -1.0766108
-9.6675854 -0.36063138 -1.0444832
-9.7144804 -0.3559607 -1.0167143
-9.7613764 -0.35129008 -0.98894525
-9.7913837 -0.35419592 -0.97121072
-9.8850565 -0.37235281 -0.91589975
-9.9788265 -0.36801115 -0.86040306
-9.9054298 -0.41029963 -0.90406322
-9.8058109 -0.48939005 -0.96344638
-9.7140026 -0.9296701 -1.0202675
-9.9287634 -1.1076336 -0.89423513
-9.9837465 -1.1063247 -0.86170101
-10.017447 -1.1038504 -0.84175134
-10.047459 -1.1067407 -0.82401323
-10.094326 -1.1071442 -0.79628968
-10.124363 -1.1050351 -0.77850842
-10.137545 -1.1054128 -0.77071285
-10.177064 -1.111546 -0.74736929
-10.244451 -1.1090975 -0.7074914
-10.261306 -1.1066104 -0.69750595
-10.27815 -1.1066233 -0.68754172
-10.330863 -1.1106344 -0.65638089
-10.146708 -1.1679163 -0.76564837
-10.128813 -1.1679028 -0.77623463
-10.08043 -1.1718795 -0.80487943
-10.030218 -1.1867231 -0.83466816
-10.01846 -1.1913462 -0.84164977
-9.9884434 -1.1909401 -0.85940504
-9.8741417 -1.190919 -0.9270227
-9.8272686 -1.1905901 -0.95474982
-9.7091322 -1.1686873 -1.0245111
-9.549902 -1.1455588 -1.1185757
-9.5198956 -1.142653 -1.1363103
-9.4503841 -1.1432979 -1.1774347
-9.3492546 -1.1412599 -1.2372485
-9.2777433 -1.1640725 -1.279683
-9.2675228 -1.1650017 -1.2857347
-9.2553711 -1.1652949 -1.2929251
-9.2196398 -1.1638967 -1.3140545
-9.2122374 -1.163625 -1.3184321
-9.2046032 -1.1633884 -1.3229469
-9.1774712 -1.1637838 -1.3390001
-9.1643095 -1.1633008 -1.3467832
-8.9415026 -1.2910488 -1.4793179
-8.9415779 -1.2735499 -1.4791737
-8.9722853 -1.1139665 -1.4600985
-8.2045259 -1.1404593 -1.9144353
-8.2132998 -1.1527761 -1.9093155
-8.2270336 -1.2350835 -1.9016602
-7.8400421 -1.3125638 -2.1310353
-7.6538177 -1.2152748 -2.2406464
-7.5984874 -1.2079589 -2.2733364
-7.2526202 -1.1208166 -2.4774456
-7.5339718 -1.1234846 -2.3110209
-7.6817327 -0.79360974 -2.2217288
-7.765759 -1.1112244 -2.1738317
-5.848628 1.296772 -3.294229
-5.7979746 1.2941043 -3.3242095
-5.7642145 1.2939925 -3.3441815
-5.7116804 1.2884666 -3.3752909
-5.6648211 1.2938476 -3.4029808
-5.6104374 1.2956303 -3.4351425
-5.5710592 1.2958604 -3.4584365
-5.5372796 1.2919989 -3.4784417
-5.5072627 1.2899364 -3.4962106
-5.4641733 1.2983667 -3.5216532
-5.4135351 1.2985008 -3.5516086
-5.3711448 1.2959846 -3.5767
-5.3216705 1.2934767 -3.6059818
-5.2634745 1.2928865 -3.6404126
-5.2466063 1.2953304 -3.6503773
-5.2128587 1.2977184 -3.6703279
-5.1753554 1.299557 -3.6925035
-5.1453381 1.2974946 -3.7102726
-5.1018691 1.3020287 -3.7359619
-5.0744052 1.3025681 -3.7522058
-5.0304389 1.2981051 -3.7782404
-4.9562521 1.2939091 -3.8221514
-4.9177713 1.2983588 -3.8448901
-4.8875499 1.2986258 -3.8627667
-4.7859368 1.3099688 -3.9228139
-4.7223902 1.3055027 -3.9604316
-4.7184367 1.3054171 -3.9627709
-4.682549 1.3057342 -3.9839993
-4.678771 1.3057675 -3.9862339
-4.6018391 1.306299 -4.0317421
-4.5359011 1.3137881 -4.0707064
-4.4864268 1.3112801 -4.0999885
-4.4397039 1.3065447 -4.1276555
-4.3325634 1.312343 -4.1910038
-4.2721205 1.3128772 -4.226757
-4.2089214 1.3131388 -4.264143
-4.1786933 1.3109059 -4.2820377
-3.9324317 1.1960645 -4.4283743
-3.8481236 0.87670743 -4.4800692
-3.9081583 0.75632071 -4.44524
-3.940506 0.67607558 -4.4265614
-3.9498909 0.51601875 -4.4219222
-3.9489064 0.23602915 -4.4241009
-3.9433327 0.078403503 -4.4282966
-3.9429886 0.028407067 -4.4287848
-3.9147027 -0.33874443 -4.4476109
-3.9202428 -0.34881464 -4.4443913
-3.9514775 -0.42921051 -4.4263716
-3.9757681 -0.46951827 -4.4122319
-4.0067425 -0.54991078 -4.3943663
-3.9629548 -0.6293577 -4.420723
-4.2193837 -1.0601467 -4.271482
-4.2716093 -1.0599515 -4.2405858
-4.3100538 -1.0584338 -4.2178345
-4.3622856 -1.0557386 -4.1869202
-4.4254856 -1.0560277 -4.1495342
-4.483171 -1.0567878 -4.1154137
-4.5463963 -1.0470772 -4.0779557
-4.5931201 -1.0423532 -4.0502882
-4.6425743 -1.0473932 -4.0210609
-4.7497473 -1.0406939 -3.9576223
-4.9438539 -0.7545495 -3.8411627
-4.9511132 -0.73705602 -3.8367686
-5.3080473 -1.0335249 -3.627306
-5.353888 -1.0374001 -3.6002097
-5.3816843 -1.0475116 -3.5838239
-5.5273218 -1.0961354 -3.4979458
-5.6173067 -1.0974869 -3.4447207
-5.6510983 -1.0991416 -3.4247401
-5.7148886 -1.0987474 -3.387001
-5.9514718 -0.91711569 -3.2460093
-5.9627385 -0.90478623 -3.239274
-5.859838 -0.35634997 -3.2970209
-5.9593277 -0.35746381 -3.2381716
-5.9698887 -0.35719982 -3.2319229
-6.036654 -0.34913346 -3.19238
-6.1566749 -0.32343897 -3.1212325
-6.2673168 -0.35056904 -3.0559344
-6.3273101 -0.34897038 -3.0204349
-6.3349071 -0.34887943 -3.0159402
-6.4341888 -0.35239908 -2.9572275
-6.4717846 -0.35025892 -2.9349749
-6.5279703 -0.35495481 -2.9017634
-6.5879636 -0.35335615 -2.8662639
-6.6217594 -0.35251132 -2.8462665
-6.6724563 -0.34874442 -2.8162541
-6.766293 -0.31380513 -2.7605436
-6.9031329 -0.34018132 -2.6797433
-6.9855027 -0.35412213 -2.6310949
-7.0192943 -0.355777 -2.611114
-7.0323915 -0.35664991 -2.6033709
-7.062387 -0.35710034 -2.5856292
-7.1037745 -0.35866424 -2.5611544
-7.1506596 -0.3636916 -2.533447
-7.2030606 -0.35968426 -2.5024252
-7.2799478 -0.36016271 -2.4569433
-7.2237511 -0.36296585 -2.4902039
-7.1937561 -0.36251536 -2.5079455
-5.6573601 1.3027483 -3.4073441
-5.6011209 1.3066721 -3.4405913
-5.5973644 1.3061229 -3.4428165
-5.5448093 1.2971911 -3.4739578
-5.5267553 1.2969635 -3.4846394
-5.5068374 1.2979712 -3.4964166
-5.4904337 1.2998798 -3.5061095
-5.439806 1.3022118 -3.536046
-5.3929343 1.3050932 -3.5637579
-5.3541026 1.3012776 -3.5867515
-5.3357835 1.3012507 -3.5975888
-5.3040609 1.3036897 -3.6163411
-5.2749853 1.3037407 -3.6335411
-5.2310324 1.3042775 -3.6595395
-5.1970291 1.303467 -3.6796596
-5.1403751 1.3075787 -3.7131512
-5.0634618 1.3156098 -3.758605
-5.0414515 1.3125625 -3.7716432
-4.9672647 1.3083664 -3.8155541
-4.9095917 1.3141729 -3.8496389
-4.8298965 1.311932 -3.8967972
-4.7941728 1.3166541 -3.9179034
-4.7364879 1.3174605 -3.9520237
-4.7172413 1.3171854 -3.9634109
-4.6403222 1.3227167 -4.008883
-4.5661354 1.3185208 -4.0527935
-4.4919729 1.3243245 -4.096633
-4.4782348 1.3220943 -4.104773
-4.4480076 1.3198614 -4.1226673
-4.4012966 1.3201258 -4.1502991
-4.3655672 1.3223479 -4.1714225
-4.3188629 1.3251122 -4.1990361
-4.2886419 1.3253794 -4.2169123
-4.2254353 1.3231411 -4.2543163
-4.1677504 1.3239477 -4.2884369
-4.1182947 1.3289394 -4.3176651
-4.0880675 1.3267066 -4.3355594
-4.0634136 1.3275671 -4.3501391
-4.0441141 1.3272434 -4.361558
-4.0165157 1.3279659 -4.3778806
-3.9973974 1.3250079 -4.3892069
-3.936955 1.3255421 -4.4249601
-3.9067276 1.3233092 -4.4428549
-3.7804523 1.3270903 -4.5175343
-3.7427638 1.3200849 -4.5398698
-3.7127509 1.3128053 -4.5576658
-3.5759366 1.326364 -4.6385245
-3.5459328 1.3215845 -4.656301
-3.4559288 1.3097456 -4.7096124
-3.5627744 1.3014066 -4.6464529
-3.7547419 0.95733774 -4.5348516
-3.7863214 0.87710679 -4.5166273
-3.7949741 0.83703351 -4.5117369
-3.8875098 0.55644226 -4.4585948
-3.9051449 0.31634954 -4.4495306
-3.898304 0.23640069 -4.4540334
-3.8812001 0.15647271 -4.4646072
-3.8663805 -0.26563105 -4.4757805
-3.8552854 -0.2779927 -4.4824142
-3.8465607 -0.3078821 -4.4877462
-3.8320918 -0.3877013 -4.4967604
-3.8361521 -0.42775151 -4.4945869
-3.8357756 -0.46775028 -4.4950376
-3.8563414 -0.66801202 -4.4840131
-3.8408334 -0.74781752 -4.4936419
-3.8309345 -0.82769358 -4.4999533
-3.5315833 -1.0639113 -4.6783881
-3.7301893 -1.0664241 -4.5609121
-3.8009627 -1.1073192 -4.5192776
-3.8111415 -1.1074469 -4.513257
-3.8181334 -1.1067282 -4.5091166
-3.9566491 -1.0667874 -4.4269466
-3.9913266 -1.0657969 -4.4064269
-4.0464115 -1.0654216 -4.3738379
-4.0763273 -1.0657996 -4.356143
-4.1122179 -1.0643461 -4.3349023
-4.1726608 -1.0648708 -4.299149
-4.2358475 -1.0701598 -4.2617998
-4.2798138 -1.0656712 -4.235765
-4.3430128 -1.0659603 -4.1983795
-4.3869534 -1.0714713 -4.1724167
-4.4721832 -1.0613033 -4.1219392
-4.5271177 -1.059799 -4.0894327
-4.6507597 -1.0606128 -4.016294
-4.7002277 -1.060653 -3.9870303
-4.7441616 -1.0686638 -3.961086
-4.8952284 -1.084975 -3.8718119
-4.9584222 -1.087764 -3.834444
-5.1183605 -1.1142533 -3.7399797
-5.1521554 -1.1134086 -3.7199826
-5.2159457 -1.1130142 -3.6822438
-5.2328472 -1.110092 -3.6722288
-5.3097382 -1.108071 -3.6267307
-5.3959227 -1.1107178 -3.5757611
-5.5066128 -1.105352 -3.5102491
-5.6303968 -1.1033591 -3.4370105
-5.6772165 -1.1197367 -3.4094067
-5.8010583 -1.1113927 -3.3360975
-5.8741565 -1.1056676 -3.2928219
-6.0279236 -1.111624 -3.2018912
-6.0617118 -1.1157784 -3.1819267
-6.0916953 -1.123728 -3.1642346
-6.1329679 -1.121172 -3.1398041
-6.1554642 -1.1215099 -3.126498
-6.1685867 -1.1217068 -3.118736
-6.2165337 -1.1229583 -3.0903792
-6.3430595 -1.1209462 -3.0155184
-6.3992496 -1.1231426 -2.9822903
-6.4292374 -1.1285924 -2.9645815
-6.5061245 -1.129071 -2.9190998
-6.5762582 -1.1235188 -2.8775787
-6.7876353 -1.1618289 -2.7527523
-6.8062253 -1.1631646 -2.7417624
-6.8249974 -1.1627703 -2.7306552
-7.0012522 -1.1260979 -2.6261785
-6.9112673 -1.1247466 -2.6794035
-6.6416359 -0.80478919 -2.8370864
-6.8542814 -0.36397383 -2.7087779
-6.8824058 -0.36189649 -2.6921287
-6.9292946 -0.3644242 -2.6644049
-6.9920287 -0.36405626 -2.6272907
-7.036809 -0.36413708 -2.6008005
-7.0763083 -0.36434999 -2.5774348
-2.5313344 1.4117436 -5.2559967
-2.5534401 1.4114391 -5.2429209
-2.5565715 1.4113506 -5.2410693
-2.5636201 1.4112619 -5.2369003
-2.6000166 1.3958236 -5.215457
-2.616415 1.3905915 -5.2057858
-2.7224295 1.3692231 -5.1431923
-2.7675414 1.371173 -5.1164942
-2.8718936 1.339872 -5.0549402
-2.9362853 1.3367683 -5.0168657
-3.0320983 1.3634012 -4.9600334
-3.0449774 1.3633133 -4.952415
-3.0770869 1.3655708 -4.9334068
-3.1239319 1.3627268 -4.9057112
-3.2008882 1.3695529 -4.860147
-3.2831841 1.3214492 -4.8117371
-3.136884 1.3151323 -4.8983202
-3.086308 1.3230035 -4.928195
-3.0490646 1.3232702 -4.9502254
-2.9569209 1.3039538 -5.0048456
-2.883812 1.2869363 -5.0481915
-2.7524931 1.3282267 -5.1256409
-2.6573994 1.3251421 -5.1819134
-2.6435649 1.3227938 -5.1901112
-2.5365059 1.3416768 -5.2533369
-2.4458623 1.3578277 -5.3068671
-2.3549864 1.3414809 -5.3607197
-7.7296257 -0.43141297 -2.1913319
-7.7378178 -0.40701148 -2.1863465
-7.737133 -0.31220397 -2.1862113
-7.7259746 -0.2870535 -2.1926689
-7.7127938 -0.29153672 -2.2004919
-7.6958981 -0.30164698 -2.2105446
-7.5989103 -0.350692 -2.2681997
-7.5651178 -0.36585906 -2.2882769
-7.6847153 -0.75115061 -2.2197225
-5.7042317 1.299867 -3.3796325
-5.7248683 1.3004721 -3.3674212
-5.7473598 1.2989362 -3.3541243
-5.7848759 1.2995974 -3.3319268
-5.8242741 1.3031169 -3.3085999
-5.8580213 1.3007289 -3.2886496
-5.9049058 1.3003476 -3.2609162
-5.8655214 1.2993277 -3.2842209
-2.4999204 1.4120945 -5.2745781
-2.4991934 1.4121516 -5.2750082
-2.4626179 1.4025917 -5.2966995
-2.4019923 1.3858609 -5.3326597
-8.4148312 1.278536 -1.7762353
-8.3416376 1.2871947 -1.8194853
-8.3084784 1.2889943 -1.8390909
-8.2852621 1.2908409 -1.8528146
-8.2083445 1.2866353 -1.8983409
-8.1746702 1.2891606 -1.9182476
-8.1145954 1.2849423 -1.9538101
-8.0545216 1.2807238 -1.9893723
-8.0982914 1.2768372 -1.9635015
-8.1583052 1.2710255 -1.9280322
-8.2109261 1.2640939 -1.8969421
-8.2578115 1.2662647 -1.8691938
-8.3515921 1.2731062 -1.8136766
-8.3684483 1.2731832 -1.8037043
-8.428484 1.2723711 -1.768194
-8.4617119 1.2806324 -1.74849
-8.431675 1.2785233 -1.7662712
-6.4937391 1.2897835 -2.9126384
-6.5874057 1.2690219 -2.8573458
-6.647439 1.2731466 -2.8218083
-6.6980796 1.2733146 -2.7918496
-6.7880282 1.2595032 -2.7387171
-6.8610196 1.230637 -2.6957021
-6.8778744 1.2256932 -2.6857595
-6.9479308 1.2418134 -2.6442237
-7.0110912 1.2384492 -2.606879
-7.0617189 1.2361172 -2.5769424
-7.1217642 1.2414498 -2.5413907
-7.1367664 1.2412312 -2.532517
-7.2625594 1.2690953 -2.4579425
-7.2719393 1.2705524 -2.4523854
-7.2419853 1.2796973 -2.4700532
-7.2226477 1.2800359 -2.4814909
-7.2173724 1.2800183 -2.4846115
-7.2063556 1.2802167 -2.4911277
-7.1556797 1.2728515 -2.5211484
-7.1350303 1.2697464 -2.5333815
-7.0918899 1.2681774 -2.5589113
-7.0056334 1.2700388 -2.6099277
-6.9587746 1.2754201 -2.6376176
-6.8875999 1.2946455 -2.6796129
-6.8276048 1.2980202 -2.7150853
-6.7113576 1.3028189 -2.7838266
-6.6569605 1.3021019 -2.8160105
-6.6400547 1.2970463 -2.8260405
-6.5275249 1.2948948 -2.8926222
-6.5031586 1.29874 -2.9070148
-6.4394574 1.3115646 -2.9446259
-6.3626204 1.3223828 -2.9900188
-6.2725315 1.3086963 -3.043391
-6.203104 1.3006142 -3.0845087
-6.1562204 1.3009958 -3.1122415
-6.1318402 1.3023412 -3.1266563
-6.1055923 1.3033278 -3.1421785
-6.0586824 1.2987098 -3.1699553
-5.9949179 1.2990353 -3.2076747
-7.7232542 1.26947 -2.1854053
-7.8377528 1.2673115 -2.1176834
-7.8095684 1.2576928 -2.1344116
-7.7326655 1.2559279 -2.1799152
-7.6601248 1.2645075 -2.2227795
-7.6038351 1.2584321 -2.2561135
-7.5906978 1.2564256 -2.2638967
-7.6258273 1.2706543 -2.2430339
-7.6634049 1.2750543 -2.2207789
-7.6649871 1.2750596 -2.2198429
-7.6976795 1.2726681 -2.2005165
-6.3830776 1.2879906 -2.9781129
-6.3568168 1.2864774 -2.9936566
-6.2958841 1.2898657 -3.0296836
-6.2592797 1.2841914 -3.0513701
-6.2261357 1.2896179 -3.0709462
-6.1693187 1.2955029 -3.1045241
-6.1261644 1.291434 -3.1300762
-6.0661049 1.2823097 -3.1656578
-5.9918418 1.2925994 -3.2095313
-5.9611363 1.2932359 -3.2276921
-5.9555078 1.2930158 -3.2310233
-3.2265494 -1.0675406 -4.8588586
-3.1839085 -1.0595005 -4.884038
-3.0641465 -1.0579902 -4.9548774
-3.062017 -1.057963 -4.9561372
-3.0321019 -1.057585 -4.9738321
-2.9575357 -1.0555896 -5.0179319
-2.9534276 -1.0555354 -5.0203619
-2.8928738 -1.0622575 -5.056222
-2.8764045 -1.0670407 -5.0659924
-2.850497 -1.0677874 -5.0813227
-2.7829304 -1.0808293 -5.1213675
-2.7198122 -1.0800078 -5.1587019
-2.6731105 -1.0819024 -5.1863403
-2.6454597 -1.0840577 -5.2027102
-2.6126099 -1.081125 -5.2221265
-2.6099923 -1.0810808 -5.2236748
-2.5382578 -1.085175 -5.2661343
-2.4068959 -1.0884608 -5.3438635
-2.3211288 -1.1023644 -5.39468
-2.2882617 -1.1019315 -5.4141207
-2.2415595 -1.1038262 -5.4417591
-2.0318418 -0.81362665 -5.5641689
-2.0416489 -0.76375186 -5.5580826
-2.0368261 -0.64368773 -5.5602512
-2.3188589 -0.32730964 -5.3916044
-2.318115 -0.28729913 -5.3918171
-2.318398 -0.24730203 -5.3914213
-2.3176539 -0.20729151 -5.3916335
-2.8165195 -0.17374438 -5.0963268
-2.8245299 -0.093841583 -5.0911322
-2.8183413 -0.014861017 -5.0943432
-2.7487116 0.14713667 -5.1346111
-2.7539961 0.16877845 -5.131361
-2.7809589 0.40542608 -5.1140618
-2.7660451 0.52308357 -5.1222134
-2.819685 0.56804669 -5.0902252
-2.8678226 0.56731588 -5.0617523
-2.8736584 0.56723881 -5.058301
-2.8744054 0.24720345 -5.0596828
-2.8873637 0.12706104 -5.052702
-2.9145784 0.052488014 -5.0370278
-2.9512582 -0.055487424 -5.0159445
-2.9520023 -0.095497996 -5.0157328
-2.951719 -0.1354951 -5.0161281
-2.9514363 -0.17549211 -5.0165234
-3.1231389 -0.5762248 -4.917233
-7.0181494 -1.1256757 -2.6161799
-7.0819397 -1.1252812 -2.5784411
-7.1739016 -1.1239575 -2.5240316
-7.0688496 -1.119409 -2.5861514
-7.0557561 -1.1160365 -2.5938778
-7.025754 -1.1205852 -2.6116524
-7.2357073 -1.1312376 -2.4875102
-7.1784687 -1.1240685 -2.5213301
0 0 0 1 0 0 0 1 0 0 0 1 0 0 0 0 0 589 1 0 0
