ply
format ascii 1.0
comment PCL generated
element vertex 656
property float x
property float y
property float z
element camera 1
property float view_px
property float view_py
property float view_pz
property float x_axisx
property float x_axisy
property float x_axisz
property float y_axisx
property float y_axisy
property float y_axisz
property float z_axisx
property float z_axisy
property float z_axisz
property float focal
property float scalex
property float scaley
property float centerx
property float centery
property int viewportx
property int viewporty
property float k1
property float k2
end_header
-11.123296 1.1364383 0.88228858
-11.16171 0.99813938 0.89826572
-11.158545 0.87720418 0.89315689
-11.147053 0.75756574 0.88376296
-11.141211 0.72272968 0.8797313
-11.121607 0.63825548 0.86713469
-11.076971 0.59603328 0.84275353
-10.900137 0.36147588 0.74423659
-10.888998 0.24072832 0.73499358
-11.027211 -0.016343653 0.79937303
-11.060891 -0.05585289 0.81572425
-10.957424 -0.21503603 0.75745189
-11.011673 -0.61537802 0.77413929
-10.840121 -0.3348982 0.69312465
-10.548087 -0.30061755 0.54251087
-10.395905 -0.33738682 0.46245897
-10.37 -0.33678392 0.44902861
-10.021128 -0.3736482 0.26687157
-9.9611073 -0.41157743 0.23462737
-9.9440508 -0.41788921 0.22559249
-9.9236078 -0.4217898 0.21486866
-9.6840296 -0.80940235 0.079394221
-10.02063 -1.0766801 0.24646485
-10.132275 -1.091769 0.30398715
-10.148859 -1.0943403 0.31252301
-10.244562 -1.1090583 0.36178076
-10.340202 -1.1087861 0.4114362
-10.460915 -1.0594481 0.47551167
-10.482441 -1.0413697 0.48720491
-10.919168 -0.89653504 0.71806204
-10.497136 -1.0581058 0.49435318
-10.466491 -1.1173472 0.47674716
-10.45088 -1.1205746 0.46855152
-10.419018 -1.1248293 0.45188916
-10.338976 -1.1193756 0.41049588
-10.259588 -1.1186206 0.36930692
-10.227725 -1.1228752 0.3526448
-10.132053 -1.1156523 0.30318797
-10.070187 -1.1132741 0.27114117
-9.9797249 -1.1105503 0.22425997
-9.9478474 -1.1097926 0.20773423
-9.899127 -1.1075616 0.18250716
-9.8365936 -1.1108364 0.14995205
-9.7090273 -1.0953141 0.08417666
-9.677784 -1.101948 0.067768216
-9.614007 -1.0954361 0.034847617
-9.5190201 -1.1030526 -0.014678478
-9.4396563 -1.1073524 -0.056000113
-9.2571201 -1.1697453 -0.15254307
-9.117754 -1.2845484 -0.2281791
-9.1168537 -1.2848989 -0.22865653
-9.0484581 -1.2884808 -0.26426351
-8.9786434 -1.2924236 -0.30061781
-8.8947525 -1.3268027 -0.34515095
-8.7880707 -1.3077599 -0.39998376
-8.7561827 -1.3045039 -0.41644406
-8.6835728 -1.2825596 -0.45350742
-8.6294746 -1.2800835 -0.48151898
-8.608284 -1.2824067 -0.49258542
-8.559185 -1.2801237 -0.51800716
-8.3843508 -1.3171252 -0.6098249
-8.311676 -1.2885898 -0.64673293
-8.2657948 -1.2750094 -0.67016077
-8.1066751 -1.2407824 -0.75177968
-8.0728054 -1.2399772 -0.76933837
-7.978982 -1.1977799 -0.81683338
-7.962986 -1.1849099 -0.82476795
-7.8200274 -1.0926586 -0.89633453
-7.787528 -1.0870076 -0.91304302
-7.8037715 -1.0885839 -0.90465629
-7.8344507 -1.089548 -0.88875818
-7.8819613 -1.0894871 -0.86409342
-8.0088587 -1.0901228 -0.79823864
-8.0094585 -1.0900197 -0.79792476
-8.1045017 -1.0948944 -0.74872673
-8.1520472 -1.1023279 -0.7242589
-8.2013893 -1.1094525 -0.69884932
-8.2477016 -1.1095978 -0.67481279
-8.2809772 -1.111755 -0.657601
-8.3904057 -1.1468881 -0.60180283
-8.4379158 -1.1468271 -0.57713842
-8.4866142 -1.1440619 -0.55177999
-8.5016594 -1.1458445 -0.54402089
-8.6291561 -1.1463773 -0.47785211
-8.6928759 -1.140398 -0.44460356
-8.8701124 -1.1271254 -0.35221922
-8.8996572 -1.1191437 -0.33665359
-9.1028137 -0.80934906 -0.22231603
-9.1105976 -0.76956713 -0.21713507
-9.1160202 -0.6497947 -0.21088755
-9.1136589 -0.56980431 -0.20982087
-9.0708971 -0.36895236 -0.22626269
-9.0510941 -0.32970485 -0.23541737
-9.1020985 -0.28856954 -0.20776188
-9.1114502 -0.2864112 -0.20284557
-9.3186836 -0.12670767 -0.090692878
-9.3862038 -0.080851704 -0.054328918
-9.4222212 -0.050424874 -0.034760118
-9.4503384 -0.034797966 -0.01971662
-9.5453587 -0.034676075 0.029612422
-9.6085491 -0.043789297 0.062153459
-9.6124916 -0.051079303 0.063991189
-9.6557713 -0.11128333 0.084732413
-9.907402 -0.27761492 0.21058786
-10.017406 -0.27970806 0.26763141
-10.341207 0.041420504 0.44492114
-10.341127 0.06140022 0.44545257
-10.308877 0.20136905 0.43272245
-10.380428 0.53232241 0.47934997
-10.548501 0.079229042 0.55361187
-10.890678 0.32062796 0.73815572
-10.892046 0.48047411 0.74344695
-5.1969957 -1.1512707 -2.2596402
-5.1631484 -1.1504174 -2.2771859
-4.9657664 -1.0686746 -2.377305
-4.903214 -1.0695345 -2.409801
-4.9794178 -1.0633732 -2.3700666
-4.9946456 -1.0601422 -2.3620691
-5.1894989 -0.64310539 -2.2489684
-5.1994529 -0.63330042 -2.2435203
-5.4466124 -0.34911546 -2.1070743
-5.4781842 -0.30995664 -2.0895629
-5.4920149 -0.29532221 -2.081964
-5.6786737 -0.152367 -1.9809717
-5.6972685 -0.14848784 -1.971208
-5.7944655 -0.44748279 -1.9293213
-5.5413971 -0.82959986 -2.0716414
-5.7201295 -1.087065 -1.9862393
-5.6725988 -1.0874254 -2.0109229
-5.5456996 -1.0898401 -2.0768661
-5.498188 -1.092698 -2.1016116
-5.2126698 -1.1501074 -2.2514703
-11.092007 1.1599535 0.86672008
-11.060052 1.1756938 0.85058343
-10.916727 1.2154355 0.77732193
-10.964326 1.1879377 0.80124271
-11.114834 0.91414261 0.87152493
-11.10609 0.79519629 0.86357701
-10.886105 0.55945218 0.74262607
-10.380065 0.62226284 0.48173892
-10.352654 0.88086033 0.47492111
-10.567053 1.2808461 0.59767926
-10.39851 1.3234895 0.51141036
-10.34532 1.3300366 0.4839865
-10.303503 1.3235155 0.46209228
-10.269949 1.3232038 0.44466507
-10.106051 1.2917321 0.35868371
-10.074503 1.291376 0.34229624
-9.99475 1.3007241 0.30116427
-9.9254999 1.2908434 0.26493323
-9.8519306 1.3018651 0.22705853
-9.7887754 1.3086441 0.19446909
-9.7575359 1.3071858 0.17821038
-9.6612701 1.3041172 0.12815106
-9.5981369 1.3058993 0.095429063
-9.5355959 1.3179729 0.063310266
-9.4550428 1.2931484 0.020783067
-9.4406996 1.2905171 0.013262272
-9.391305 1.2871376 -0.01247561
-9.3131752 1.290987 -0.052922964
-9.2345028 1.2720532 -0.094304681
-9.169467 1.2729415 -0.12803936
-9.0738354 1.2701709 -0.17776155
-9.0263424 1.2676855 -0.20248652
-8.932683 1.2483207 -0.25166059
-8.8845558 1.2455373 -0.27672315
-8.8357544 1.2524492 -0.30185831
-8.7726507 1.2467363 -0.3347795
-8.7251377 1.2492477 -0.35937178
-8.7088737 1.2507187 -0.36777234
-8.6294756 1.2539722 -0.4088949
-8.5181637 1.2654626 -0.46634793
-8.4549799 1.2797365 -0.49873793
-8.4068317 1.2819498 -0.52366829
-8.3449955 1.2768329 -0.55591404
-8.3606253 1.2750638 -0.54785132
-8.4081402 1.2725525 -0.52325857
-8.4719467 1.261075 -0.49046481
-8.5035095 1.261433 -0.47407031
-8.5165234 1.2609253 -0.46732974
-8.5995235 1.2481133 -0.42461085
-8.6307831 1.2445748 -0.40848529
-8.6945515 1.2430906 -0.3754257
-8.7264252 1.2448468 -0.3588295
-8.7576742 1.243807 -0.34263754
-8.8377161 1.2383531 -0.3012439
-8.8533258 1.2415806 -0.29304826
-8.9164391 1.2447951 -0.26019371
-8.963953 1.2422838 -0.23560095
-9.0439444 1.2493218 -0.19387555
-9.0908346 1.2440143 -0.16968691
-9.1226883 1.2507672 -0.15295804
-9.1960773 1.2551481 -0.11473608
-9.2645149 1.2629222 -0.078986883
-9.2963791 1.2671766 -0.062324286
-9.3607597 1.2709873 -0.028794646
-9.4082527 1.2734727 -0.0040694475
-9.4875908 1.2852094 0.037451148
-9.5588055 1.2893389 0.074537158
-9.6150951 1.2897362 0.10376894
-9.6632328 1.2900212 0.12876546
-9.7406979 1.2933688 0.16907442
-9.8050804 1.2971795 0.20260417
-9.8656158 1.2858177 0.23370326
-9.9014359 1.2777629 0.25206649
-9.9490004 1.2627597 0.27632749
-9.9958801 1.2599505 0.30058229
-10.303448 1.0015734 0.45283687
-10.299948 0.88174558 0.44758618
-10.368189 0.60255432 0.47500908
-6.3025594 1.2694087 -1.6163638
-6.3506398 1.2620777 -1.5916151
-6.3986468 1.2772312 -1.56626
-6.3349528 1.2688245 -1.5995648
-0.45342779 1.3606399 -4.6500559
-0.58252525 1.3212162 -4.5841708
-0.709167 1.3250657 -4.5183201
-0.7581954 1.3081096 -4.4933553
-0.86792707 1.3156972 -4.4361758
-0.91693974 1.3062366 -4.4110041
-0.96421385 1.3085241 -4.3863983
-0.99631166 1.3053002 -4.3698287
-1.0174198 1.3111358 -4.3587046
-1.0587535 1.318096 -4.3370481
-1.1060333 1.3178849 -4.312511
-1.1381259 1.3171597 -4.2958727
-1.1702132 1.3189329 -4.2791653
-1.1913505 1.3193735 -4.2681799
-1.2343979 1.3174822 -4.2458882
-1.3010993 1.3192048 -4.2112141
-1.3669987 1.3183767 -4.1770291
-1.4277515 1.3202679 -4.1454377
-1.3635669 1.3218553 -4.1787105
-1.3314748 1.322649 -4.1953473
-1.2859106 1.3212304 -4.2190404
-1.2538185 1.3220242 -4.2356768
-1.2031059 1.3258237 -4.2618928
-1.1710143 1.3266172 -4.2785292
-1.1102614 1.3222275 -4.3101916
-1.0646973 1.320809 -4.3338852
-1.0139861 1.3221099 -4.3601723
-0.98189354 1.3229035 -4.3768086
-0.91770887 1.3269895 -4.4100103
-0.79104948 1.3509115 -4.4750743
-0.71167374 1.3620203 -4.5159597
-0.6133852 1.3881867 -4.5662322
-0.51616192 1.4055253 -4.6162038
-0.5122509 1.4054902 -4.6182351
-0.48437643 1.4001031 -4.6328592
-0.42191458 1.3973014 -4.6653638
-0.40500975 1.398541 -4.6741037
-0.38981676 1.4005253 -4.6819334
-0.37462473 1.4025098 -4.6897631
-0.34425545 1.3989828 -4.7056289
-0.27623272 1.3873397 -4.7412734
-0.24396563 1.3671103 -4.7586031
-1.0681486 -1.2595875 -4.406045
-0.98878574 -1.2613353 -4.4472928
-0.95668459 -1.2580248 -4.4638615
-0.92458344 -1.2547143 -4.4804306
-0.86037207 -1.2455951 -4.5135016
-0.82827997 -1.2447827 -4.5301375
-0.76408768 -1.2406596 -4.5633416
-0.66782188 -1.2407203 -4.6133156
-0.63572025 -1.2374096 -4.6298847
-0.51528978 -1.2267057 -4.6920938
-0.50004005 -1.2273887 -4.7000294
-0.4847908 -1.2280717 -4.7079649
-0.4679575 -1.2244062 -4.716598
-0.38032961 -1.2200714 -4.7619619
-0.34697199 -1.2215655 -4.7793207
-0.39518213 -1.1992505 -4.7536554
-0.42556143 -1.2006882 -4.7379265
-0.50493908 -1.2041167 -4.6968193
-0.53186274 -1.2006079 -4.6827426
-0.55220795 -1.1993194 -4.6721444
-0.56997299 -1.2014749 -4.6629844
-0.65192747 -1.207589 -4.6206169
-0.71836615 -1.2027706 -4.58599
-0.77857399 -1.2062201 -4.5548348
-0.85450459 -1.2010703 -4.5152712
-0.88658714 -1.1968032 -4.4984951
-0.95077753 -1.2007617 -4.4652867
-0.98286963 -1.2014917 -4.4486485
-1.04706 -1.2054504 -4.4154406
-1.0791578 -1.208679 -4.3988709
-1.1433325 -1.2051419 -4.3654561
-1.1754251 -1.2058719 -4.3488178
-1.2251463 -1.1983999 -4.322793
-1.2572384 -1.1992123 -4.3061576
-1.2874312 -1.2001343 -4.2905107
-1.334693 -1.195076 -4.2658319
-1.4309587 -1.1950153 -4.215858
-1.582171 -1.1618073 -4.1364117
-1.6520314 -1.1581082 -4.1000409
-1.6841421 -1.1639168 -4.0835385
-1.7652102 -1.1622325 -4.0414076
-1.8597331 -1.1521161 -3.9920502
-1.7519391 -1.1679941 -4.0484619
-1.7348709 -1.1739742 -4.0574932
-1.6859128 -1.1814669 -4.0831223
-1.6555452 -1.1857142 -4.0990081
-1.5441561 -1.204136 -4.1573586
-1.4817338 -1.217563 -4.1901469
-1.4496427 -1.2167505 -4.2067823
-1.3703361 -1.2334868 -4.2484303
-1.2758131 -1.2436032 -4.2977877
-1.196506 -1.2603394 -4.3394356
-1.1644139 -1.259527 -4.3560715
-1.1323228 -1.2587146 -4.3727069
-1.1002307 -1.2579021 -4.3893428
-2.8902035 -0.70924497 -3.444437
-2.688319 -0.37570789 -3.5396771
-2.6929164 -0.33546534 -3.5361373
-2.7126465 -0.27935973 -3.5242872
-2.7532885 -0.25255588 -3.5024219
-2.8134587 -0.23146284 -3.4705827
-3.0847611 -0.29913452 -3.3316879
-3.437638 -0.0294227 -3.1407785
-3.4631798 0.10767576 -3.1235907
-3.477128 0.14527829 -3.1152725
-3.5080755 0.12868497 -3.099683
-3.7001412 0.11713798 -3.0003119
-3.7474332 0.11977529 -2.975687
-3.8790028 0.094205394 -2.9081213
-3.9009984 0.082766041 -2.8970313
-4.0332003 -0.11390761 -2.8340411
-4.2753277 -0.30130121 -2.7137225
-4.4551964 -0.72041297 -2.6323631
-4.2345867 -1.0630387 -2.7567017
-3.9431472 -0.6379503 -2.8958068
-6.9146647 -1.078256 -1.3658988
-6.8195825 -1.0682113 -1.4149687
-6.8833561 -1.0822808 -1.382267
-6.8995533 -1.0813349 -1.3738317
-6.9476156 -1.0811784 -1.3488779
-6.9632835 -1.0829134 -1.3407943
-7.0264654 -1.0821759 -1.3079751
-6.9789333 -1.0796517 -1.332577
-7.5806427 -1.085778 -1.0204027
-7.5184555 -1.0863025 -1.0526996
-7.5493879 -1.0899137 -1.0367458
-7.5827327 -1.0901966 -1.0194446
-7.598392 -1.0894332 -1.0112939
-7.6302562 -1.0902224 -0.99477559
-7.6606531 -1.0913683 -0.97902942
-7.661252 -1.0912652 -0.97871554
-7.7085505 -1.0864058 -0.95402348
-7.692883 -1.0846709 -0.9621067
-7.6615567 -1.0836993 -0.97834051
-7.6453595 -1.084645 -0.9867757
-7.5962763 -1.0849594 -1.0122638
-4.8982296 1.2801028 -2.3450501
-4.8188396 1.2830721 -2.3861766
-4.7731242 1.2783277 -2.4100437
-4.7089958 1.2795475 -2.4432981
-4.6296058 1.2825167 -2.4844246
-4.5975742 1.2781297 -2.501178
-4.5334282 1.2818477 -2.5343699
-4.5013633 1.2824576 -2.5509975
-4.4372182 1.2861757 -2.5841889
-4.4083066 1.2825713 -2.5993004
-4.3899422 1.28104 -2.6088772
-4.3273735 1.2826509 -2.6413107
-4.2984452 1.2815449 -2.6563592
-4.1990981 1.2875886 -2.7077575
-4.1060576 1.2852039 -2.7561235
-4.0357671 1.3014312 -2.7921467
-3.9592521 1.3020427 -2.8318481
-3.8984094 1.2906126 -2.8637595
-3.8343132 1.2868353 -2.8971405
-3.8022485 1.2874452 -2.9137678
-3.7396464 1.294053 -2.9460754
-3.6282415 1.2901368 -3.0040183
-3.5961437 1.2957437 -3.0205197
-3.518281 1.3041013 -3.060699
-3.4515564 1.3099457 -3.0951686
-3.2952397 1.3312476 -3.1757026
-3.2784522 1.3276091 -3.1845214
-3.2204509 1.3112253 -3.2150998
-3.1747184 1.3050196 -3.2390175
-3.1718602 1.3048793 -3.2405052
-3.136692 1.3022079 -3.2588377
-3.057236 1.3151712 -3.2997122
-2.9626024 1.317392 -3.348773
-2.8984563 1.3211101 -3.3819652
-2.8564525 1.3201953 -3.4037957
-2.7753642 1.3230492 -3.445807
-2.7315154 1.3198913 -3.4686596
-2.7128963 1.3203986 -3.4783103
-2.6994231 1.3206849 -3.4852962
-2.6487119 1.321986 -3.5115833
-2.5693381 1.3280975 -3.5526114
-2.5558655 1.3258854 -3.5596683
-2.5131788 1.3219907 -3.5819387
-2.4764943 1.3220026 -3.6009817
-2.4140263 1.3193523 -3.6334848
-2.3785026 1.3236246 -3.651803
-2.3312209 1.3289424 -3.6761947
-2.2552786 1.3315754 -3.7155414
-2.1928084 1.3364203 -3.7478309
-2.140383 1.3344636 -3.7751012
-2.0948172 1.3355436 -3.7987237
-2.0475371 1.3358645 -3.8232574
-1.9968252 1.339664 -3.8494735
-1.9039819 1.3310707 -3.8979149
-1.8807716 1.3282977 -3.9100432
-1.8263283 1.3204517 -3.9385297
-1.7452433 1.310813 -3.9808974
-1.809427 1.3117242 -3.9475534
-1.8549902 1.3181397 -3.9237175
-1.9056993 1.3243344 -3.8972168
-1.9521213 1.3273817 -3.8730316
-1.967401 1.3287538 -3.8650603
-2.0492563 1.3216326 -3.822773
-2.1134372 1.3325379 -3.789144
-2.1741908 1.3319308 -3.7576239
-2.24389 1.3212265 -3.7217495
-2.3025625 1.3187618 -3.6913631
-2.3421087 1.3228277 -3.670718
-2.3528726 1.3228266 -3.6651306
-5.109098 1.2604858 -2.2361498
-5.028131 1.2655624 -2.2780347
-4.9503016 1.2689232 -2.3183398
-4.9334812 1.2702817 -2.3270323
-4.8236527 1.2642584 -2.3842173
-4.7579141 1.2725821 -2.4181039
-4.7121658 1.2728345 -2.4418449
-4.6632967 1.2723044 -2.4672282
-4.6159878 1.2721657 -2.4917905
-4.5535016 1.2612842 -2.5245392
-4.4740787 1.2692506 -2.5655396
-4.3931122 1.2743272 -2.607424
-4.2969513 1.2711598 -2.6574323
-4.2512031 1.2714124 -2.6811733
-4.2191386 1.272022 -2.6978004
-4.1534319 1.2753488 -2.7318137
-4.1229606 1.2713531 -2.747746
-4.0893035 1.2765685 -2.7650681
-4.0419779 1.2789282 -2.7895675
-3.9946861 1.2762908 -2.8141923
-3.9473443 1.2811489 -2.8386283
-3.9000192 1.2835087 -2.8631275
-3.8847752 1.2827599 -2.8710623
-3.8374665 1.282621 -2.8956242
-3.7733207 1.2863392 -2.9288161
-3.6955574 1.279706 -2.9693732
-3.631428 1.2809258 -3.0026283
-3.5825593 1.2803956 -3.0280113
-3.5352509 1.2802566 -3.0525732
-3.4847558 1.2893291 -3.0785255
-3.4222198 1.2859432 -3.1110854
-3.361161 1.2954407 -3.142509
-3.3138521 1.2953019 -3.1670711
-3.234479 1.2957729 -3.2082605
-3.1993108 1.2931015 -3.226593
-3.1047268 1.2878269 -3.2758431
-3.0437012 1.2923278 -3.3073926
-2.9307363 1.2880204 -3.3661566
-2.8818181 1.2949855 -3.3913507
-2.8243673 1.2960037 -3.4211445
-2.7957046 1.3008143 -3.4358854
-2.7429295 1.3078439 -3.4630799
-2.7068357 1.3141258 -3.481636
-2.6599209 1.3180436 -3.5058775
-2.6134071 1.3165956 -3.5300646
-2.6048639 1.3163296 -3.5345068
-2.4933991 1.3182378 -3.5923142
-2.4802165 1.3177154 -3.5991721
-2.4426892 1.3145416 -3.6187439
-5.8672161 1.2677277 -1.8424001
-5.8753762 1.2650255 -1.8382417
-5.8278503 1.2650704 -1.8629113
-5.3272104 1.2696427 -2.1226642
-5.3499269 1.2694724 -2.110877
-5.413661 1.2653879 -2.0779095
-5.4611783 1.2678412 -2.0531726
-5.4930415 1.2670481 -2.0366552
-5.5729451 1.2714154 -1.9950517
-5.6441703 1.2707576 -1.9580973
-5.6841969 1.2697842 -1.9373472
-5.7322607 1.2674497 -1.912464
-5.7641244 1.2666566 -1.8959463
-5.7397752 1.2658901 -1.9086081
-5.7084579 1.2642953 -1.9249105
-5.6685424 1.2665377 -1.9455667
-5.6366873 1.2648325 -1.9621516
-5.5886235 1.267167 -1.9870347
-5.5496907 1.2633612 -2.007354
-5.48597 1.2624425 -2.040458
-5.4530272 1.2630049 -2.0575426
-5.4222498 1.2615237 -2.0735617
-5.4065909 1.2607265 -2.081713
-5.3428707 1.2598076 -2.1148169
-5.2967558 1.2631484 -2.1386597
-5.2472854 1.2596785 -2.1644394
-5.2003002 1.2597847 -2.1888263
-5.1522288 1.2621615 -2.2137125
-1.620306 1.3105091 -4.0457616
-1.5578365 1.3128555 -4.0781226
-1.5071235 1.3216522 -4.1041956
-1.5713081 1.3175662 -4.0709944
-1.5999689 1.3202512 -4.0560393
-1.6641543 1.3161653 -4.0228376
-1.9579978 -1.1267926 -3.940315
-1.9316018 -1.1256521 -3.9539847
-3.0104129 -1.0631937 -3.3921795
-2.9216931 -1.0926737 -3.4390793
-2.8913257 -1.096921 -3.4549649
-2.8761375 -1.0977955 -3.4628742
-2.8440456 -1.0969831 -3.4795098
-2.7680948 -1.0988579 -3.51899
-2.724988 -1.0958575 -3.5412807
-2.7004902 -1.0946077 -3.5539618
-2.6414521 -1.1006677 -3.5847826
-2.6011839 -1.0950053 -3.6055236
-4.0372491 -0.15372598 -2.8330805
-3.7416282 0.08583726 -2.9796729
-3.6867137 0.082844958 -3.008265
-3.4429932 -0.029970139 -3.1380143
-3.4832697 -0.55137098 -3.1320496
-3.8715272 -0.59764826 -2.9318299
-9.6593542 -0.69196451 0.069950461
-9.2172995 -0.60390294 -0.15699804
-9.3494787 -0.17023376 -0.075954795
-9.5921211 -0.13225183 0.051090598
-5.0096836 1.2765235 -2.2872965
-4.9944234 1.2782732 -2.2951682
-5.1043506 1.2693058 -2.2383614
-5.1837077 1.2713333 -2.1971087
-5.2148533 1.2678492 -2.1810408
-5.294241 1.2670671 -2.1398525
-2.1753011 -1.0975982 -3.8266754
-2.0807967 -1.1127111 -3.8761661
-2.2715392 -1.0900434 -3.7765012
-2.3205435 -1.095041 -3.7512062
-2.3497784 -1.0935194 -3.7359867
-2.3738317 -1.0926332 -3.723475
-2.392174 -1.0905793 -3.7138946
-2.4471955 -1.0957292 -3.6854804
-2.488771 -1.093497 -3.6638346
-2.5113699 -1.0948561 -3.652142
-2.5472589 -1.09545 -3.6335292
-2.5358675 -1.0961058 -3.639461
-2.4827175 -1.101665 -3.6672108
-2.4185433 -1.1025381 -3.7005489
-2.3864515 -1.1017257 -3.7171845
-2.3391809 -1.1042858 -3.7417965
-2.2429149 -1.1043465 -3.7917702
-2.1483827 -1.1119649 -3.8410606
-2.1332035 -1.1153377 -3.8490367
-2.0538597 -1.1220814 -3.8904176
-2.0032051 -1.1320088 -3.9169974
-1.9728377 -1.1362561 -3.9328828
-1.9087005 -1.1471214 -3.9664881
-1.8631451 -1.1522433 -3.990283
-3.4556396 -0.55269885 -3.1464305
-3.4002488 -0.91056204 -3.1854401
-2.9315662 -0.70779371 -3.4229238
-2.9324532 -0.66803098 -3.4213238
-3.228395 -0.32081017 -3.2577481
-4.5668974 -1.118148 -2.5857775
-4.5737309 -1.1167467 -2.58219
-4.7444181 -1.061084 -2.4919906
-4.8054113 -1.0606521 -2.4603162
-4.5197859 -0.7915808 -2.6008742
-4.4716401 -0.35950801 -2.6134839
-4.4906793 -0.31882378 -2.6024349
-4.4493017 -0.29902533 -2.6233466
-4.3699446 -0.30104622 -2.6645992
-4.3226199 -0.29867521 -2.6890976
-7.8205061 1.1308793 -0.83236182
-7.7744417 1.0890164 -0.85747373
-7.7165356 1.0562125 -0.88847303
-7.6852188 1.052218 -0.90484405
-7.6789522 1.0512692 -0.90812421
-7.6314487 1.051282 -0.93278337
-7.5616322 1.0703938 -0.96847761
-7.5444479 1.1097633 -0.97626984
-7.4102316 1.2741181 -1.0412316
-7.45364 1.2747446 -1.0186802
-7.5397987 1.2710922 -0.97405958
-7.5575914 1.2729483 -0.9647702
-7.5720153 1.2725959 -0.9572928
-7.6013026 1.273963 -0.94205046
-7.6130171 1.2745099 -0.93595374
-7.6682892 1.2786031 -0.90714467
-7.6923847 1.2787515 -0.8946321
-7.7314849 1.2768079 -0.87439084
-7.8043098 1.2725557 -0.83670902
-7.8763804 1.2672877 -0.79944777
-7.9324589 1.2748823 -0.77011955
-8.0436592 1.2908735 -0.71193683
-8.1537437 1.2687936 -0.65542412
-8.2165556 1.2681117 -0.62283778
-8.24226 1.2681963 -0.6094923
-8.2962246 1.2762498 -0.58124804
-8.2487612 1.2662694 -0.60617268
-8.2175217 1.2648113 -0.62243128
-8.1677322 1.2624871 -0.64834344
-8.1531296 1.2634989 -0.65589464
-8.0893831 1.2599864 -0.68908668
-8.0587969 1.2538295 -0.70514059
-7.9003553 1.1728942 -0.78970766
-7.8847561 1.1671683 -0.79796922
-4.5516529 -1.1188806 -2.5937119
-4.5279984 -1.1189443 -2.6059928
-4.5043445 -1.1190081 -2.6182735
-4.4702759 -1.1183652 -2.6359401
-4.46387 -1.1177342 -2.6392474
-4.4470491 -1.1163964 -2.6479409
-4.3197751 -1.0782324 -2.7129157
-4.3092628 -1.0773963 -2.7183487
-4.2861342 -1.0755571 -2.7303021
-4.2359018 -1.0770323 -2.7564204
-4.2083373 -1.0771499 -2.7707324
-4.197825 -1.0763139 -2.7761655
-4.141284 -1.0772873 -2.8055439
-4.110796 -1.0787525 -2.8214126
-4.0057645 -1.0783008 -2.8759217
-3.9870379 -1.0770546 -2.885607
-3.9702177 -1.0757172 -2.8943
-3.9597049 -1.0748811 -2.8997335
-3.9027367 -1.0778871 -2.9293919
-3.8962319 -1.0771265 -2.9327469
-3.8670917 -1.075174 -2.9478178
-3.8463941 -1.0752295 -2.9585636
-3.8133769 -1.0746703 -2.9756868
-3.7674153 -1.0343424 -2.9983897
-3.3912303 -0.94388831 -3.1910768
-3.3108718 -1.0312859 -3.2352958
-3.2789385 -1.0506687 -3.2524281
-3.2500103 -1.0517057 -3.2674744
-3.2179623 -1.0535991 -3.2841649
-3.1859307 -1.057991 -3.3009186
-3.1386383 -1.060617 -3.3255434
-3.1049974 -1.0579418 -3.3429298
-3.0592651 -1.0601395 -3.3667326
-1.6979632 1.3086354 -4.0055032
-1.7165835 1.3056295 -3.9959235
-6.7950687 1.2703339 -1.3606737
-6.8588033 1.2662493 -1.3277059
-6.9057908 1.2684939 -1.3032501
-6.938714 1.2681184 -1.2861701
-7.0024405 1.2665321 -1.253135
-7.0343122 1.2632407 -1.2366846
-7.0494194 1.2712748 -1.2286122
-6.9857016 1.2703627 -1.2617145
-6.9381599 1.2754042 -1.2862492
-6.8431249 1.2704977 -1.3357228
-6.7637525 1.2663393 -1.3770446
-6.683825 1.2694668 -1.4184453
-6.7470126 1.27017 -1.3856244
-7.1220684 -1.0870415 -1.2584866
-7.0745282 -1.0820192 -1.2830212
-7.0907431 -1.0860701 -1.2747202
0 0 0 1 0 0 0 1 0 0 0 1 0 0 0 0 0 656 1 0 0
