ply
format ascii 1.0
comment PCL generated
element vertex 665
property float x
property float y
property float z
element camera 1
property float view_px
property float view_py
property float view_pz
property float x_axisx
property float x_axisy
property float x_axisz
property float y_axisx
property float y_axisy
property float y_axisz
property float z_axisx
property float z_axisy
property float z_axisz
property float focal
property float scalex
property float scaley
property float centerx
property float centery
property int viewportx
property int viewporty
property float k1
property float k2
end_header
-11.083174 0.79483777 0.98980194
-11.103519 0.91468066 0.98693329
-11.086951 0.99481058 0.98923665
-11.072826 1.0749216 0.99119818
-11.045865 1.1546595 0.99495578
-11.016375 1.1730993 0.99907851
-10.836622 1.2374742 1.0242167
-10.795155 1.2477975 1.0300165
-10.723495 1.2635927 1.04004
-10.564375 1.3581778 1.0622857
-10.407458 1.3201101 1.0842476
-10.387075 1.320328 1.0870994
-10.384668 1.320258 1.0874362
-10.352732 1.3107731 1.0919063
-10.280837 1.2915698 1.1019689
-10.203239 1.2907549 1.1128261
-10.111643 1.2924151 1.1256415
-10.044901 1.2991741 1.1349783
-9.973093 1.2999203 1.1450253
-9.9232426 1.3002006 1.1519998
-9.8757362 1.2976034 1.1586472
-9.7775459 1.2914344 1.1723864
-9.7501202 1.2912661 1.1762238
-9.7193203 1.2938144 1.1805327
-9.6602936 1.2973423 1.1887906
-9.5828857 1.2942998 1.1996218
-9.5373898 1.2919619 1.2059877
-9.5174427 1.2926872 1.2087784
-9.4711666 1.2928314 1.2152531
-9.5301743 1.2879691 1.206998
-9.5565205 1.2898846 1.2033114
-9.6257029 1.2916527 1.1936314
-9.7128181 1.2761741 1.1814457
-9.7781067 1.2552876 1.1723146
-9.7844734 1.2529286 1.1714244
-9.8626976 1.2573229 1.1604788
-9.994771 1.2644061 1.1419985
-10.019182 1.2711116 1.1385818
-10.098739 1.2820424 1.1274488
-10.164484 1.2810717 1.1182503
-10.196754 1.2805688 1.1137352
-10.261917 1.2810221 1.1046181
-10.441153 1.1991363 1.0795555
-10.442392 1.1990823 1.0793822
-10.645645 1.2252795 1.0509392
-10.963375 0.87529916 1.0065488
-10.758495 0.56189239 1.035272
-10.747779 0.55721247 1.0367723
-10.773232 0.43653947 1.0332332
-10.592334 0.055445001 1.0586135
-10.585798 0.03775914 1.0595312
-10.572456 -0.4576838 1.0614891
-10.63557 -0.93773794 1.052747
-10.367195 -1.1279281 1.0903313
-10.301754 -1.1294723 1.0994879
-10.217213 -1.124041 1.1113155
-10.126223 -1.1287838 1.124047
-10.185249 -1.1324143 1.1157891
-10.198015 -1.1320648 1.1140029
-10.230743 -1.1300429 1.1094233
-10.308918 -1.133149 1.0984862
-10.393509 -1.1310807 1.0866503
-10.484449 -1.1338373 1.073927
-10.504396 -1.134665 1.0711362
-10.529911 -1.1364657 1.0675669
-10.595436 -1.1224222 1.0583962
-10.614653 -1.1118983 1.0557057
-10.621069 -1.1067237 1.0548069
-10.916824 -0.78968567 1.0133682
-10.947028 -0.73947072 1.0091331
-11.01515 -0.64227343 0.99958402
-10.936668 -0.37983423 1.0105162
-10.943586 -0.29966253 1.0095336
-10.943854 -0.25966412 1.0094888
-10.938006 -0.17984194 1.0102923
-10.968678 -0.059629679 1.0059788
-10.946955 -0.019460708 1.0090108
-10.902391 0.03610982 1.0152355
-10.829951 0.23751482 1.0253339
-10.821774 0.33984309 1.0264592
-11.055233 0.63505375 0.99374062
-6.5711422 -1.2692045 1.6214792
-6.3297057 -1.159113 1.6552393
-6.0987368 -1.1463932 1.6875528
-6.0453291 -1.1458809 1.6950252
-6.0269279 -1.1456059 1.6975998
-5.9260993 -1.1063036 1.7116998
-5.8228841 -1.1042886 1.7261407
-5.7691755 -1.0963789 1.7336539
-5.6854005 -1.0974162 1.7453754
-5.6527038 -1.0944273 1.7499496
-5.6072254 -1.0943198 1.7563126
-5.5872779 -1.0934492 1.7591034
-5.5681467 -1.0915217 1.7617798
-5.5354495 -1.0885328 1.7663541
-5.4963536 -1.0882345 1.771824
-5.3853197 -1.1071484 1.7873627
-5.3462076 -1.10935 1.7928355
-5.3398247 -1.1095408 1.7937286
-5.2879806 -1.1071243 1.8009819
-5.2026234 -1.1027757 1.8129238
-5.1379476 -1.1107404 1.8219743
-5.040576 -1.1157162 1.8355989
-4.9111929 -1.0800387 1.8536948
-4.9941106 -1.0844389 1.8420943
-5.047646 -1.0826241 1.8346037
-5.0994897 -1.078251 1.8273491
-5.3640661 -0.7015034 1.7902617
-5.3789873 -0.6616168 1.7881668
-5.4010434 -0.65178496 1.785079
-5.4338698 -0.63477468 1.780483
-5.5715051 -0.30404487 1.761165
-5.6125894 -0.26935294 1.7554103
-5.6894774 -0.22499886 1.7446444
-5.7387352 -0.26507559 1.7377599
-6.1712451 -0.37169939 1.6772653
-6.2109022 -0.34698665 1.6717122
-6.2491999 -0.34730875 1.6663538
-6.249599 -0.34729677 1.666298
-6.3277249 -0.35789287 1.655369
-6.4123473 -0.35079879 1.6435277
-6.5061641 -0.34925383 1.6304013
-6.5418682 -0.34928674 1.6254057
-6.5687633 -0.3469919 1.6216424
-6.6166687 -0.3496179 1.6149402
-6.6469374 -0.35008818 1.6107051
-6.7315607 -0.34299415 1.5988638
-6.9314594 -0.79202324 1.5709779
-7.2527652 -1.1138036 1.5260818
-7.2902656 -1.1141496 1.520835
-7.3301592 -1.1144239 1.5152534
-7.397563 -1.1178423 1.5058234
-7.4956203 -1.1318088 1.4921062
-7.5474491 -1.1367252 1.4848555
-7.5929279 -1.1368327 1.4784925
-7.713027 -1.1181221 1.4616854
-8.1926126 -1.1114763 1.3945833
-8.2835693 -1.1117331 1.3818573
-8.387291 -1.1116403 1.3673451
-8.4391699 -1.109094 1.3600862
-8.5572386 -1.1138551 1.3435675
-8.5955353 -1.1128066 1.338209
-8.3536091 -1.2561567 1.3720844
-8.2099724 -1.3784416 1.3922037
-8.1578941 -1.4109868 1.3994961
-8.0338402 -1.4677498 1.4168634
-7.9568982 -1.3996242 1.4276162
-7.8986726 -1.3594246 1.4357554
-7.4939899 -1.236558 1.4923537
-7.4354954 -1.2349142 1.5005376
-7.3045063 -1.1951721 1.5188575
-7.1237793 -1.1332541 1.5441324
-6.9758053 -1.1123645 1.5648322
-6.9583516 -1.1123362 1.5672742
-6.9303269 -1.1122571 1.5711952
-6.9128733 -1.1122289 1.5736372
-6.8784657 -1.1123406 1.5784514
-6.608243 -1.2695624 1.6162883
0.36640692 0.30769953 2.5918508
0.44564772 0.31593341 2.602936
0.42798185 0.061243206 2.6005113
0.43073082 -0.058851719 2.6009181
0.43108559 -0.098846942 2.600975
0.39566278 -0.12700245 2.596024
0.31774759 -0.14538068 2.5851259
0.11587954 -0.34201169 2.5569179
0.11696815 -0.70183194 2.5571365
0.44303989 -1.0664498 2.6028256
0.3191967 -1.067333 2.5854983
0.28013897 -1.0652735 2.5800333
0.24781847 -1.0636512 2.575511
0.20202351 -1.0611545 2.569103
0.0035977364 -1.1044176 2.5413485
-0.0316782 -1.1212885 2.5364158
-0.17224646 -1.1457579 2.516753
-0.19756842 -1.1463133 2.5132101
-0.25739479 -1.1439919 2.5048392
-0.30299425 -1.1458812 2.4984593
-0.40525198 -1.1674384 2.4841561
-0.45111704 -1.1674153 2.4777389
-0.54174805 -1.1880316 2.4650621
-0.71822977 -1.2281305 2.4403772
-0.75039959 -1.228493 2.4358764
-0.80996084 -1.228084 2.4275427
-0.82843542 -1.2288321 2.424958
-0.93386126 -1.2283999 2.4102073
-0.98451328 -1.2270105 2.40312
-1.0118966 -1.228739 2.3992891
-1.0724502 -1.2095728 2.3908134
-1.2127562 -1.1287221 2.3711677
-1.5074701 -1.131283 2.3299334
-1.7534935 -1.1519626 2.2955151
-1.7603414 -1.1517698 2.2945571
-1.7671888 -1.151577 2.2935989
-1.7740366 -1.151384 2.2926407
-1.8062065 -1.1517465 2.2881398
-1.9232593 -1.1522552 2.2717626
-2.1781793 -1.0701958 2.2360804
-2.2493832 -1.0657279 2.2261171
-2.3020961 -1.0655118 2.2187419
-2.380115 -1.0708508 2.2078269
-2.458142 -1.0736899 2.1969104
-2.4834805 -1.0692453 2.1933644
-2.515667 -1.0646079 2.1888602
-2.6279242 -1.0689826 2.1731546
-2.6669335 -1.0716521 2.1676972
-2.71963 -1.0764358 2.1603251
-2.8987527 -1.0609838 2.1352603
-2.944598 -1.0614064 2.1288459
-3.0275712 -1.0558068 2.1172359
-3.0733881 -1.0612292 2.1108265
-3.1465147 -1.0650852 2.1005957
-3.1923597 -1.0655077 2.0941813
-3.2635927 -1.0631524 2.0842144
-3.3211503 -1.0653305 2.0761619
-3.3465238 -1.0650527 2.0726116
-3.3669951 -1.0657529 2.0697474
-3.4128263 -1.0686753 2.0633357
-3.4655092 -1.0668312 2.0559642
-3.4977069 -1.066787 2.0514593
-3.5503757 -1.0674428 2.0440903
-3.5689259 -1.0669317 2.0414946
-3.6011233 -1.0668874 2.0369897
-3.6606579 -1.0602769 2.0286589
-3.7064753 -1.0656992 2.0222492
-3.7503848 -1.0674103 2.0161061
-3.7845178 -1.0660775 2.0113301
-3.8284416 -1.0652888 2.0051844
-3.8762221 -1.0644225 1.9984992
-3.9406033 -1.0668339 1.9894917
-4.0371819 -1.0692009 1.9759794
-3.7762311 -1.155236 2.012506
-3.7601323 -1.1552581 2.0147583
-3.752882 -1.1550101 2.0157728
-3.734771 -1.155035 2.0183067
-3.6337934 -1.1549463 2.0324349
-3.6104441 -1.1547205 2.0357018
-3.5923207 -1.1552463 2.0382376
-3.5850706 -1.1549982 2.039252
-3.5786731 -1.1547794 2.0401471
-3.553299 -1.1550571 2.0436974
-3.5279379 -1.154834 2.0472457
-3.4435887 -1.1530231 2.059047
-3.3884687 -1.1528561 2.0667591
-3.3538201 -1.1533895 2.0716069
-3.3377211 -1.1534115 2.0738595
-3.2986999 -1.1532224 2.079319
-3.2914495 -1.1529744 2.0803335
-3.061662 -1.0619737 2.1124673
0.36071253 1.4276551 2.590848
0.27923346 1.4769177 2.5794387
0.23557281 1.4665486 2.5733318
0.11659622 1.442948 2.5566897
0.023280144 1.424449 2.5436368
-0.0028557777 1.4243472 2.5399802
-0.029108524 1.4241381 2.5363071
-0.048760891 1.4239761 2.5335574
-0.079145432 1.4236147 2.5293062
-0.19099283 1.4225179 2.5136573
-0.20303392 1.4223819 2.5119727
-0.22044802 1.4146575 2.5095377
-0.45539856 1.3739675 2.4766722
-0.51827335 1.3563938 2.4678783
-0.63528252 1.3433712 2.4515095
-0.6742568 1.3306971 2.4460588
-0.76595259 1.3207022 2.4332311
-0.77964783 1.3210558 2.4313149
-0.89666605 1.310533 2.4149444
-0.78648663 1.3187326 2.4303584
-0.72214651 1.3194348 2.4393604
-0.58455133 1.3194274 2.458612
-0.51337242 1.3224528 2.4685702
-0.42594862 1.3342984 2.4807999
-0.40192699 1.3356191 2.4841607
-0.3582015 1.3356719 2.4902785
-0.35049772 1.3354731 2.4913564
-0.2402668 1.3286729 2.5067806
-0.19439268 1.3261706 2.5131993
-0.014570236 1.3843412 2.5383484
0.05747509 1.3775711 2.54843
0.14216423 1.4033078 2.5602744
0.1490407 1.4058119 2.5612359
0.23593044 1.4265501 2.5733893
0.27967978 1.4269198 2.5795105
0.33860636 1.4275343 2.587755
0.34306669 1.4275156 2.5883789
0.35036564 1.4276488 2.5894003
0.097030163 0.26509356 2.5541689
-0.068564892 -0.2642214 2.5310972
-0.074252605 -0.30531117 2.530309
-0.027629852 -0.34459221 2.5368395
0.068248272 -0.70164359 2.5503197
-0.16577673 -1.0309532 2.517637
-0.30325747 -1.0658827 2.4984078
-0.46404123 -1.0876945 2.4759159
-0.50990629 -1.0876712 2.4694989
-0.51281309 -1.0879064 2.4690921
-0.61531639 -1.0922388 2.4547513
-0.66290951 -1.0871673 2.4480915
-0.7070961 -1.0771924 2.4419072
-0.75298595 -1.0696694 2.4354854
-0.87003851 -1.0701782 2.4191079
-0.94809055 -1.0655173 2.4081864
-1.2349749 -1.0463191 2.3680439
-1.5013328 -1.0226996 2.3307722
-1.4709835 -0.4911142 2.3349206
-1.3522344 -0.35566849 2.3515105
-1.3351145 -0.37059397 2.3539085
-9.2539616 -1.0906363 1.2460818
-9.2619562 -1.0879178 1.2449627
-9.3059731 -1.0680906 1.2388005
-9.6386814 -1.1299565 1.1922612
-9.650651 -1.1310024 1.1905867
-9.690136 -1.1325445 1.1850624
-9.8266296 -1.1241802 1.1659635
-9.87924 -1.1329851 1.1586041
-9.9247351 -1.1306138 1.1522384
-9.9574471 -1.1310917 1.1476614
-9.9765959 -1.1305673 1.1449823
-10.015692 -1.1308705 1.1395123
-10.074379 -1.1263304 1.1313003
-10.099909 -1.1256312 1.1277281
-8.9665422 -0.28156966 1.2861469
-8.9272118 -0.31626517 1.2916561
-8.9247026 -0.32624578 1.2920091
-8.9252825 -0.3663069 1.2919353
-8.9989452 -0.56699288 1.2816658
-8.9955997 -0.6868003 1.282156
-9.0025272 -0.80684155 1.2812088
-8.7519674 -1.1065196 1.3163208
-8.8301754 -1.1046259 1.3053781
-8.8892355 -1.1032567 1.2971145
-8.9602451 -1.1026859 1.2871791
-9.0192881 -1.1038167 1.2789184
-9.0711813 -1.0987704 1.2716568
-9.1430073 -1.0970516 1.2616071
-9.1885185 -1.0921801 1.2552384
-9.2084827 -1.0905077 1.2524449
-9.2276306 -1.0899833 1.2497656
-3.4345553 1.4035088 2.0598404
-3.339792 1.4146061 2.0730972
-3.2484951 1.4043918 2.0858727
-3.0595262 1.3306512 2.1123257
-2.9746261 1.3258231 2.1242054
-3.0333307 1.326157 2.1159916
-3.0985267 1.3254769 2.1068699
-3.188154 1.3142469 2.094332
-3.2730198 1.3090752 2.082459
-3.3072579 1.3099591 2.0776684
-3.3257496 1.3142543 2.0750804
-3.4287138 1.3233665 2.0606725
-3.4720113 1.3233027 2.0546145
-3.5160756 1.319441 2.04845
-3.5482283 1.3140898 2.0439525
-3.5598552 1.3132083 2.0423257
-3.5872371 1.3114156 2.0384951
-3.6515944 1.3157133 2.0294898
-3.7111635 1.3185692 2.0211546
-3.7686815 1.3251902 2.0131059
-3.880929 1.3182255 1.9974021
-3.9199467 1.3180511 1.991943
-3.9574795 1.3224688 1.9866908
-4.0233393 1.3271744 1.9774753
-4.0486612 1.3266466 1.9739325
-4.0931044 1.3222775 1.967715
-4.1219001 1.3223561 1.9636861
-4.1862226 1.3166541 1.9546875
-4.1999178 1.3170077 1.9527712
-4.2759457 1.3329237 1.9421309
-4.1979275 1.3382722 1.9530458
-4.0615821 1.4013813 1.9721109
-3.8330564 1.3344877 2.0040972
-3.8008776 1.3323389 2.0085998
-3.6701212 1.3300084 2.026895
-1.955822 -0.77264941 2.2671366
-1.9972758 -0.81274581 2.261344
-2.2318056 -1.0524559 2.2285743
-2.3274264 -1.0635672 2.2151976
-2.3870118 -1.0556583 2.2068591
-2.578074 -1.0155278 2.1801195
-2.6696944 -1.0288724 2.1673028
-2.7866888 -1.0419393 2.1509361
-2.8783231 -1.0527841 2.1381173
-2.8919568 -1.0557506 2.1362102
-8.4944725 1.2854176 1.3519077
-8.4562273 1.2920721 1.3572576
-8.3843679 1.2853187 1.3673129
-8.2926121 1.2867904 1.3801507
-8.2606812 1.283586 1.3846189
-8.2079706 1.2772552 1.391995
-8.1169796 1.2725792 1.4047267
-8.0651188 1.2726001 1.4119829
-8.0260229 1.2729027 1.4174529
-7.8696575 1.2766136 1.4393299
-7.8504925 1.2736912 1.4420118
-7.7723017 1.2742965 1.4529519
-7.8305616 1.2769164 1.4447999
-5.5018835 1.2780861 1.7706149
-5.4139686 1.2862678 1.7829139
-5.3812895 1.2917455 1.7874852
-5.3358612 1.2993737 1.7938399
-5.3167295 1.3013493 1.7965163
-5.3430595 1.3006966 1.7928325
-5.3558249 1.301046 1.7910464
-5.4276671 1.3052648 1.7809938
-5.4994421 1.2994839 1.7709526
-5.6231785 1.3087488 1.7536384
-5.6622744 1.3084457 1.7481683
-5.7649503 1.3151495 1.7338014
-5.8035464 1.3156912 1.7284011
-5.8388023 1.3150254 1.7234683
-5.785944 1.307711 1.7308654
-5.7005205 1.3019946 1.7428184
-5.6158967 1.2949264 1.7546598
-6.9251661 1.2804466 1.5714769
-6.9124007 1.2800971 1.5732632
-6.8861036 1.2857496 1.5769414
-6.9116349 1.2864487 1.573369
-6.9443307 1.2834709 1.568795
-6.9770436 1.282993 1.5642182
-7.0815816 1.2842338 1.5495915
-7.1070962 1.282433 1.5460221
-7.0488353 1.279712 1.5541741
-6.9578791 1.2799687 1.5669
-9.7591839 -0.47092432 1.17528
-9.6932182 -0.73129928 1.1845574
-9.9762564 -1.1223967 1.1450282
-10.002178 -1.1223686 1.1414015
-4.7256813 1.3315364 1.8792068
-4.6428318 1.3229436 1.8908001
-4.7140284 1.324918 1.8808384
-4.7208762 1.3250949 1.8798803
-4.7598934 1.3249204 1.8744212
-4.7920723 1.3270694 1.8699186
-4.7989202 1.3272461 1.8689604
-4.8447847 1.3272486 1.8625432
-4.9275994 1.3258418 1.8509567
-4.8495812 1.3311903 1.8618715
-4.8037167 1.3311878 1.8682886
0.32998657 0.30733442 2.586755
-8.8918114 1.2825313 1.2963151
-8.9117756 1.2843058 1.2935214
-8.9181585 1.2844467 1.2926283
-1.8349376 0.027899206 2.2839029
-1.7936981 0.089145467 2.2896614
-1.7821507 0.14790533 2.2912664
-1.7505863 0.2896356 2.2956567
-1.7484252 0.369645 2.2959442
-1.7392778 0.4094784 2.2972169
-1.7236092 0.52965176 2.299387
-1.6883624 0.62991256 2.3043001
-1.6783478 0.69016451 2.3056901
-1.6373081 0.8103475 2.31141
-1.6010067 0.89050943 2.3164744
-1.5671439 0.97066057 2.3211975
-1.5405362 1.0332792 2.3249087
-1.5303254 1.0505137 2.3263342
-1.2225103 1.3119918 2.3693538
-1.1376281 1.3121638 2.3812299
-1.0801268 1.3105427 2.3892756
-0.9747014 1.3101844 2.404026
-1.9592087 -0.13262606 2.2665451
-1.9562125 -0.13271043 2.2669642
-1.9215724 0.027564421 2.2717814
-1.9210453 0.21887423 2.2718201
-1.9575877 0.36861977 2.2666798
-1.9175634 0.4487595 2.272265
-1.8835194 0.64904058 2.2769911
-1.8803735 0.72895068 2.2774167
-1.8554184 0.84895813 2.2808862
-2.0809321 1.3181566 2.2492473
-2.2047889 1.3053106 2.2319202
-2.2506719 1.310313 2.2254996
-2.3355544 1.3101412 2.2136235
-2.3677073 1.30479 2.2091258
-2.4341412 1.3128227 2.1998293
-2.4936845 1.3081788 2.1914992
-2.5237947 1.3090928 2.1872861
-2.6039069 1.312479 2.1760767
-2.6867301 1.3135722 2.1644883
-2.7911217 1.3133135 2.1498826
-2.8828783 1.3208182 2.137043
-2.9082007 1.3202903 2.1335001
-2.9545515 1.3250833 2.1270142
-7.557045 1.270771 1.48307
-7.5179491 1.2710742 1.4885399
-7.4922323 1.2737747 1.4921376
-7.4525404 1.2745299 1.4976909
-7.5050154 1.2765564 1.4903486
-7.5113974 1.2766974 1.4894556
-7.5305457 1.2771199 1.4867764
-7.5768232 1.2758101 1.4803017
-7.5897913 1.2752929 1.4784875
-7.6095362 1.2753667 1.4757248
-7.6414499 1.276071 1.4712595
-7.7068758 1.2751837 1.4621056
-7.6344366 1.2715166 1.4722416
-7.6152887 1.2709923 1.4749207
-7.5961399 1.2704678 1.4776
-7.5634274 1.2709457 1.4821769
-8.0906658 1.2756635 1.4084079
-8.0515709 1.2759663 1.4138778
-8.0196571 1.2752619 1.4183431
-8.4234123 1.2775162 1.3618516
-8.3579865 1.2784034 1.3710054
-8.2997427 1.2782835 1.3791546
-8.2406998 1.2793117 1.3874154
-9.116086 -0.0068286061 1.2651731
-9.1141033 0.055599153 1.265439
-9.1007309 0.11306776 1.2672993
-9.0985556 0.15308516 1.2675965
-9.1032505 0.17606579 1.2669352
-9.1189108 0.18325436 1.2647429
-9.1643887 0.18309253 1.2583798
-9.2425966 0.18498698 1.2474371
-9.2816925 0.18468426 1.2419671
-9.3625336 0.17424843 1.2306583
-9.4472332 0.1730217 1.2188078
-9.5034828 0.18008627 1.2109363
-9.5290308 0.1831497 1.2073612
-9.537241 0.17289564 1.2062144
-9.6088009 -0.049640596 1.1962432
-9.8509092 -0.35618562 1.162425
-9.8654709 -0.37129867 1.1603906
-9.7764215 -0.45105779 1.1728644
-4.3998456 1.3325776 1.9247956
-4.4525232 1.3227569 1.9174271
-4.4799223 1.3259641 1.9135929
-4.5764418 1.3274106 1.9000883
-4.5969849 1.3279409 1.8972139
-4.2322607 -1.0751462 1.9486862
-4.2595844 -1.0710799 1.9448625
-4.1542606 -1.0672683 1.9595981
-4.0644631 -1.0726343 1.972163
-4.1610699 -1.0700016 1.9586458
-5.296782 1.3021767 1.7993071
-5.2576871 1.3024799 1.8047769
-5.1794958 1.3030863 1.8157169
-5.1013207 1.3061924 1.8266542
-5.0949378 1.3060176 1.8275472
-5.0821896 1.3081681 1.8293306
-5.0630746 1.3126435 1.8320042
-5.0076771 1.3192281 1.8397539
-5.2194571 1.3114309 1.8101242
-5.14323 1.3255005 1.820787
-5.1226959 1.3274701 1.8236595
-5.097374 1.3279979 1.8272023
-5.0836787 1.3276445 1.8291186
-5.0124998 1.3306698 1.839077
-6.0132689 1.2970693 1.6990614
-6.0523643 1.2967663 1.6935914
-6.1042256 1.2968125 1.6863352
-6.1177902 1.2958105 1.6844375
-6.1887321 1.2863815 1.6745135
-6.2541418 1.2829257 1.6653624
-6.2804546 1.2797731 1.6616814
-6.3386817 1.2774943 1.6535351
-6.3522463 1.276492 1.6516373
-6.4432364 1.2812351 1.6389056
-6.5014801 1.2814564 1.6307565
-6.5669565 1.2880001 1.6215942
-6.5478249 1.2899758 1.6242707
-6.5078964 1.2866307 1.6298578
-6.4696169 1.2880821 1.6352134
-6.4305043 1.2858853 1.6406863
-6.3842106 1.2848656 1.6471635
-6.2678733 1.3069226 1.6634368
-6.1505365 1.3003323 1.679855
-6.0831499 1.3131306 1.689281
-6.0277476 1.3135883 1.6970325
-6.0088983 1.3139306 1.6996697
-5.9974284 1.3141319 1.7012745
-5.9603276 1.3144896 1.7064654
-5.9204345 1.3147708 1.7120469
-5.8818374 1.314916 1.7174472
-5.9224119 1.3123256 1.7117707
-5.9869385 1.2977221 1.7027452
-4.7990036 -1.0834935 1.8693924
-4.7209468 -1.0856153 1.880314
-4.6887774 -1.0806597 1.884814
-4.5580378 -1.0846255 1.9031072
-4.4731989 -1.0790139 1.9149762
-4.4546633 -1.0770253 1.9175693
-4.4868612 -1.0769808 1.9130644
-4.4936843 -1.0772142 1.9121097
-4.5258822 -1.07717 1.9076047
-4.5512276 -1.081892 1.9040594
-8.6970987 1.2778972 1.3235589
-8.7425766 1.2777352 1.3171959
-8.7617416 1.2806578 1.3145139
-8.7944708 1.282714 1.3099343
-8.7745237 1.2834395 1.3127251
-8.7162971 1.2858194 1.3208714
-8.6907501 1.2827561 1.3244463
-8.6516361 1.2805588 1.3299192
-8.5734625 1.2836642 1.3408563
-8.6053085 1.2743689 1.3364023
-8.6316214 1.2712846 1.3327214
-8.4816389 1.2751362 1.3537053
-4.7473092 -1.0809433 1.8766247
-4.8400021 -1.0748941 1.8636545
-4.734622 -1.0810821 1.8783998
-2.2151875 1.3285936 2.2304611
-2.3698189 1.3185248 2.2088277
-2.5190156 1.3101509 2.1879547
-2.5960429 1.3166851 2.1771762
-2.6361287 1.3271276 2.1715658
-2.6530702 1.3269745 2.1691954
-2.7209945 1.3219558 2.1596928
-2.7278419 1.3221327 2.1587346
-2.8322511 1.3268739 2.1441255
-2.8507257 1.3261693 2.1415408
-2.8956547 1.3265907 2.1352544
-2.9137104 1.3266137 2.1327281
-2.9599948 1.3258885 2.1262524
-9.1200523 1.2880738 1.2643797
-9.0554266 1.2878131 1.2734219
-8.9763851 1.2820667 1.284482
-9.0154629 1.2792641 1.2790149
-9.0290451 1.2808977 1.2771144
-9.100853 1.2801515 1.2670674
-9.1790953 1.2870458 1.256119
-9.1328182 1.2883557 1.2625936
-9.237339 1.2871656 1.2479699
-9.2501049 1.2874473 1.2461838
-9.3282967 1.2868419 1.2352438
-9.2636528 1.2840812 1.2442888
-9.218174 1.2842431 1.2506518
-0.96309137 1.3160657 2.4056494
-1.1181488 1.3716544 2.3839445
-1.2478585 1.3189639 2.3658059
-1.3258858 1.3161154 2.3548894
-1.3854628 1.3214711 2.3465526
-1.4039378 1.3207664 2.3439679
-1.4703636 1.3262992 2.3346729
-1.5805597 1.3230996 2.3192556
-1.6238832 1.3305355 2.3131926
-1.6285908 1.330657 2.3125339
-1.6796322 1.3305717 2.3053925
-1.8775253 1.4099853 2.2776899
-2.0625093 1.3338609 2.251822
-2.1220613 1.331717 2.2434902
-2.2000966 1.3313683 2.2325721
-7.2770433 1.2802181 1.5222443
-7.2834253 1.280393 1.5213515
-7.3025575 1.2784172 1.518675
-7.3161221 1.2774152 1.5167773
-7.296175 1.2782425 1.519568
-7.2243662 1.2790236 1.5296149
-8.1297798 1.2778606 1.402935
-9.3482437 1.2861166 1.232453
-9.3809566 1.285673 1.2278761
-9.3937225 1.2859547 1.22609
-9.3673916 1.2865392 1.2297738
-4.4662361 1.3281103 1.9155076
-4.4847112 1.3274057 1.9129227
-6.6260161 1.2893695 1.6133307
-6.6451473 1.2873938 1.6106544
-6.6650944 1.2865663 1.6078635
-6.736104 1.2871372 1.5979283
-6.664279 1.2854182 1.6079779
-6.6515136 1.2850688 1.609764
-6.6323824 1.2870443 1.6124403
-7.745954 1.2723811 1.4566386
-7.7268229 1.2744584 1.4593149
0 0 0 1 0 0 0 1 0 0 0 1 0 0 0 0 0 665 1 0 0
