ply
format ascii 1.0
comment PCL generated
element vertex 675
property float x
property float y
property float z
element camera 1
property float view_px
property float view_py
property float view_pz
property float x_axisx
property float x_axisy
property float x_axisz
property float y_axisx
property float y_axisy
property float y_axisz
property float z_axisx
property float z_axisy
property float z_axisz
property float focal
property float scalex
property float scaley
property float centerx
property float centery
property int viewportx
property int viewporty
property float k1
property float k2
end_header
-11.296863 1.294504 -4.6833038
-11.345581 1.2818234 -4.7028418
-11.360224 1.2768573 -4.708714
-11.367122 1.2740613 -4.7114801
-11.44776 1.2486795 -4.7438192
-11.462355 1.2324637 -4.7496743
-11.38254 1.0743406 -4.7176948
-11.373375 0.92689645 -4.7140436
-11.375537 0.8742559 -4.7149186
-11.372975 0.83439791 -4.7138977
-11.538292 0.55322701 -4.7802324
-11.540251 0.51321417 -4.7810249
-11.563124 0.071512282 -4.7902675
-11.478796 -0.34295222 -4.7565193
-11.489313 -0.36805412 -4.7607408
-11.482232 -0.48798737 -4.7579203
-11.304007 -0.56539273 -4.6864662
-10.950944 -0.204548 -4.5448346
-11.178619 0.31574175 -4.6360464
-11.170841 0.35570443 -4.6329212
-11.211537 0.39550385 -4.6492333
-11.325743 0.55458933 -4.6950026
-10.944965 0.95692933 -4.5422511
-10.903526 0.95712709 -4.5256348
-10.702393 1.3006217 -4.4449272
-10.70717 1.3003392 -4.4468431
-10.813573 1.3172957 -4.4895067
-10.890635 1.3568027 -4.520401
-10.893534 1.3568004 -4.521564
-10.960638 1.3566618 -4.5484715
-11.025908 1.3565191 -4.5746441
-11.077751 1.3407584 -4.5954351
-11.160555 1.322863 -4.6286416
-11.199394 1.3123658 -4.6442175
-11.282209 1.2969701 -4.6774273
-1.6598122 1.4022518 -0.81894016
-1.7766941 1.4019039 -0.86580849
-1.863565 1.4012278 -0.90064275
-1.9085815 1.4017203 -0.91869378
-2.0254631 1.4013724 -0.96556211
-2.0744274 1.401366 -0.98519623
-2.2291303 1.3603492 -1.0472368
-2.2630889 1.3601786 -1.060854
-2.331001 1.3573372 -1.0880864
-2.4328775 1.3568252 -1.1289377
-2.4739516 1.3603166 -1.1454074
-2.4929049 1.3599819 -1.1530075
-2.534759 1.3588132 -1.1697907
-2.5497646 1.3589774 -1.1758077
-2.5987289 1.358971 -1.1954418
-2.6437454 1.3594635 -1.2134929
-2.6587512 1.3596275 -1.21951
-2.6927097 1.3594568 -1.233127
-2.7227209 1.3597851 -1.2451611
-2.7456217 1.3589513 -1.2543442
-2.7606273 1.3591155 -1.2603612
-2.813539 1.35861 -1.2815783
-2.8285449 1.3587742 -1.2875955
-2.9557443 1.3288865 -1.3386056
-2.9692335 1.3292233 -1.3440146
-2.9787247 1.3292536 -1.3478205
-3.1532514 1.2798154 -1.4178116
-3.255137 1.2767591 -1.4586672
-3.2591348 1.2770658 -1.4602702
-3.3041048 1.2788275 -1.4783022
-3.3831358 1.2954036 -1.5099902
-3.4021025 1.2929643 -1.517596
-3.432056 1.2899723 -1.5296075
-3.5340364 1.3019158 -1.5704985
-3.572017 1.3045367 -1.5857279
-3.650938 1.3036133 -1.6173745
-3.73948 1.2837867 -1.652882
-3.7906945 1.2856787 -1.673418
-3.8689151 1.2826388 -1.7047842
-3.9904366 1.2742598 -1.7535142
-3.986407 1.2689533 -1.7518992
-3.9564219 1.2669455 -1.7398759
-3.9374237 1.2643849 -1.7322583
-3.8735189 1.2700622 -1.7066323
-3.854552 1.2725016 -1.6990263
-3.8206007 1.2751869 -1.6854119
-3.7716804 1.2806183 -1.6657944
-3.7077284 1.2787958 -1.6401507
-3.6660485 1.283736 -1.6234368
-3.6018763 1.2865453 -1.5977039
-3.5608888 1.28259 -1.581269
-3.5189416 1.2846621 -1.5644485
-3.4399576 1.2755859 -1.5327783
-3.3610206 1.2740095 -1.5011257
-3.2780702 1.2696265 -1.4678643
-3.2101359 1.2699974 -1.4406233
-3.1761532 1.2676829 -1.4269969
-3.1421862 1.2678684 -1.4133766
-3.0552847 1.2706786 -1.3785297
-2.976285 1.2591023 -1.3468535
-2.9613161 1.2618483 -1.3408507
-2.9273803 1.2670336 -1.327242
-2.8254948 1.2700897 -1.2863866
-2.7685945 1.2774079 -1.2635691
-2.7236249 1.275646 -1.245537
-2.6786866 1.2788839 -1.2275169
-2.568579 1.2936436 -1.1833625
-2.481708 1.2943197 -1.1485282
-2.4130652 1.3016107 -1.1210021
-2.3798478 1.3023317 -1.1076821
-2.3498368 1.3020034 -1.0956481
-2.3198259 1.301675 -1.0836141
-2.3079772 1.3006719 -1.0788631
-2.229002 1.3003502 -1.0471951
-2.1950488 1.3030208 -1.0335797
-2.1635094 1.3036585 -1.0209327
-2.1359644 1.3023744 -1.0098877
-2.0886304 1.3030764 -0.99090719
-2.0181446 1.302712 -0.96264327
-2.0031447 1.3050478 -0.95662808
-1.9352481 1.315389 -0.92940068
-1.8033609 1.3155727 -0.87651539
-1.7543595 1.2980795 -0.8568691
-1.6335461 1.3064262 -0.80842304
-1.5885186 1.3009337 -0.79036844
-1.5543687 1.3041444 -0.77667415
-1.5166588 1.3042738 -0.76155293
-1.5014567 1.3046497 -0.75545704
-1.4428198 1.3053637 -0.7319442
-1.4337356 1.3044511 -0.72830164
-1.3958187 1.3001208 -0.71309817
-1.3658128 1.3022923 -0.70106578
-1.3262327 1.3049016 -0.68519413
-1.3018484 1.3046348 -0.67541635
-1.2678845 1.3023055 -0.66179764
-1.2489312 1.3026403 -0.65419745
-1.2149775 1.305311 -0.64058208
-1.1742063 1.3047972 -0.62423337
-1.1181831 1.3047942 -0.60176861
-1.3189988 1.3845481 -0.68228078
-1.3960381 1.4026191 -0.71316969
-1.4110432 1.4027833 -0.71918654
-1.4489498 1.4021137 -0.7343868
-1.4718451 1.3987799 -0.74356806
-1.5658317 1.4017657 -0.78125513
-10.855308 -1.1158997 -4.5066314
-10.889435 -1.1137292 -4.5203152
-10.899364 -1.0979502 -4.5242949
-10.897047 -1.0826361 -4.5233631
-10.887774 -1.0430744 -4.5196381
-10.728735 -1.1088027 -4.4558759
-10.796929 -1.1144612 -4.483222
-10.806543 -1.1157204 -4.4870777
0.31613064 -0.95081592 -0.026986599
0.32241249 -0.91078448 -0.024461269
0.11906481 -1.0320452 -0.10602069
-0.063286304 -0.46926722 -0.1790514
-0.20317602 -0.42044964 -0.23513758
-0.52910805 -0.43229285 -0.36583459
-0.70804501 -0.75212216 -0.43763733
-0.45240879 -1.0374728 -0.33517599
-0.37657785 -1.0437725 -0.30476975
-0.34477949 -1.0474597 -0.29201937
-0.293643 -1.048563 -0.27151442
-0.27863741 -1.0486932 -0.26549745
-0.21862698 -1.0442144 -0.24143326
-0.20184517 -1.0429392 -0.23470366
-5.3773179 -0.34839234 -2.3098974
-5.6981311 -0.31182244 -2.438534
-5.421072 -0.30490711 -2.3274355
-5.3800936 -0.3434408 -2.3110099
-7.9035416 -1.350819 -3.3230448
-7.7071819 -1.3748243 -3.2443106
-7.5728731 -1.3757064 -3.1904545
-7.5456319 -1.3727249 -3.1795306
-7.4234762 -1.2865635 -3.1305337
-7.2482939 -1.2842233 -3.0602872
-7.2140365 -1.2938709 -3.0465519
-7.1816616 -1.2886443 -3.0335693
-7.1065402 -1.2879776 -3.0034463
-7.0188818 -1.2596807 -2.9682918
-6.9847989 -1.2518293 -2.9546237
-6.8921895 -0.76689065 -2.9174109
-6.876646 -0.35557029 -2.9111121
-6.9304199 -0.35601702 -2.9326749
-7.0088563 -0.35889652 -2.9641275
-7.0873699 -0.36731276 -2.9956119
-7.127615 -0.36774066 -3.0117497
-7.1887169 -0.40107235 -3.0362561
-7.2073498 -0.40865073 -3.0437288
-7.1754436 -0.48833218 -3.0309477
-7.0839663 -0.63000309 -2.9942892
-7.0680518 -0.68744874 -2.9879167
-7.2989235 -1.0898438 -3.0805581
-7.6032739 -1.2685225 -3.2026277
-7.6368232 -1.2667391 -3.2160802
-7.7691026 -1.2303507 -3.2691169
-7.8595047 -1.1497437 -3.3053541
-7.9188461 -1.1203932 -3.329145
-7.9334822 -1.1128385 -3.3350127
-7.9519787 -1.110691 -3.3424292
-7.9853954 -1.1111777 -3.3558288
-7.9951873 -1.1114403 -3.3597555
-8.0561514 -1.1120003 -3.3842013
-8.0677137 -1.1120114 -3.3888378
-8.1383591 -1.1071818 -3.4171648
-8.192091 -1.1003512 -3.4387097
-8.2358608 -1.1001869 -3.4562612
-8.2650566 -1.0975773 -3.4679675
-8.2945375 -1.0962728 -3.4797888
-8.4115429 -1.0971395 -3.5267067
-8.4456959 -1.0949469 -3.5404017
-8.5040569 -1.0947278 -3.5638037
-8.5332212 -1.097118 -3.5754986
-8.6160889 -1.0976776 -3.6087275
-8.5477972 -1.0995634 -3.5813437
-8.5235901 -1.0975896 -3.5716364
-8.4503403 -1.0990585 -3.5422645
-8.4015961 -1.1013058 -3.5227189
-8.1914043 -1.2128476 -3.4384522
-8.1437511 -1.2722343 -3.4193535
-8.1226997 -1.2822312 -3.4109135
-7.9426384 -1.3515428 -3.3387222
-7.908721 -1.3508539 -3.3251214
-4.3910041 -0.31367692 -1.9143915
-4.4399118 -0.34366199 -1.9340078
-4.4547358 -0.36123434 -1.9399549
-4.445416 -0.80118442 -1.9362881
-4.7291951 -1.0553222 -2.0501211
-4.7931604 -1.0576276 -2.0757709
-4.8460727 -1.0581397 -2.096988
-4.8989887 -1.0561519 -2.1182065
-4.9779553 -1.0607769 -2.1498718
-5.2965364 -1.1475606 -2.2776332
-4.9740028 -1.0627505 -2.1482873
-4.7959723 -1.1631634 -2.076915
-4.6271544 -1.1423228 -2.0092177
-4.4912438 -1.1816584 -1.9547255
-4.0429926 -1.1685412 -1.7749798
-3.9708247 -1.2059758 -1.7460473
-3.9218884 -1.2030444 -1.726424
-3.8688915 -1.2104193 -1.705174
-3.6931376 -1.2965292 -1.6347125
-3.6047251 -1.2758206 -1.5992568
-3.5415998 -1.2158965 -1.5739346
-3.4900901 -1.1754202 -1.5532734
-3.1419344 -1.1523083 -1.4136631
-3.1339383 -1.1529214 -1.4104569
-3.1189537 -1.1526755 -1.4044483
-3.1079671 -1.152123 -1.4000428
-3.0250483 -1.1515061 -1.3667932
-2.991081 -1.1513207 -1.3531725
-2.9461269 -1.1505827 -1.3351464
-2.9271445 -1.1506432 -1.3275347
-2.9041641 -1.1510104 -1.3183198
-2.8701971 -1.1508249 -1.3046994
-2.8362298 -1.1506394 -1.291079
-2.8172474 -1.1507001 -1.2834673
-2.7682953 -1.1502686 -1.2638379
-2.7383418 -1.1472766 -1.2518265
-2.7233574 -1.1470306 -1.2458179
-2.6783879 -1.1487925 -1.2277858
-2.5511174 -1.1572196 -1.1767532
-2.5287578 -1.1572105 -1.1677872
-2.4312706 -1.1380572 -1.1286929
-2.3933642 -1.1374571 -1.1134927
-2.3254468 -1.1371176 -1.0862586
-2.314389 -1.1376781 -1.0818247
-2.1975071 -1.1372989 -1.0349563
-2.1445951 -1.136829 -1.0137392
-2.1216946 -1.1360986 -1.0045562
-2.0956309 -1.1367894 -0.9941051
-2.0806255 -1.1369199 -0.98808801
-2.0387714 -1.1358893 -0.97130489
-1.9597962 -1.1361101 -0.93963683
-1.8579202 -1.1356007 -0.89878559
-1.7978978 -1.1361217 -0.87471735
-1.7828922 -1.136252 -0.86870039
-1.7299802 -1.1357821 -0.84748328
-1.6960216 -1.1356122 -0.83386612
-1.6620629 -1.1354425 -0.82024908
-1.6470575 -1.1355728 -0.81423211
-1.6241565 -1.1348423 -0.80504894
-1.6052034 -1.1345422 -0.79744887
-1.4962168 -1.1350237 -0.75374663
-1.4812117 -1.135154 -0.74772978
-1.4662058 -1.1352842 -0.74171269
-1.4472528 -1.1349843 -0.73411262
-1.4093463 -1.1343839 -0.71891248
-1.3564348 -1.1339141 -0.69769549
-1.3303714 -1.1346049 -0.68724442
-1.3003664 -1.1323655 -0.67521238
-1.2624538 -1.1342653 -0.66001022
-1.032815 -1.0614382 -0.56791592
-0.9909668 -1.0579077 -0.55113482
-1.0739021 -1.0531172 -0.58439016
-1.1346967 -1.0594478 -0.60876918
-1.1497028 -1.0593176 -0.61478639
-1.1797137 -1.0590569 -0.62682033
-1.2057772 -1.0583661 -0.63727129
-1.2247303 -1.0586661 -0.64487135
-1.2397356 -1.0585359 -0.65088832
-1.2886996 -1.0585754 -0.67052233
-1.3905823 -1.056585 -0.71137583
-1.4095352 -1.056885 -0.71897578
-1.4814005 -1.0576551 -0.74779296
-1.4924583 -1.0570945 -0.75222695
-1.5074639 -1.0569642 -0.75824404
-1.526417 -1.0572642 -0.76584411
-1.5493178 -1.0579947 -0.77502716
-1.5982945 -1.0530344 -0.79466546
-1.7222681 -1.0599225 -0.84437847
-1.7830873 -1.0562531 -0.86876583
-1.7980988 -1.053623 -0.87478483
-1.8431094 -1.0557321 -0.89283383
-1.858115 -1.0556018 -0.89885092
-2.053972 -1.05576 -0.97738731
-2.0918784 -1.0563602 -0.99258745
-2.1447842 -1.0593301 -1.0138025
-2.1898007 -1.0589392 -1.0318537
-2.2048063 -1.058809 -1.0378706
-2.2277071 -1.0595396 -1.0470538
-2.2577121 -1.0617789 -1.0590857
-2.3406351 -1.0619884 -1.092337
-2.3595943 -1.0597885 -1.099939
-2.4314654 -1.0580584 -1.1287582
-2.5025456 -1.0569768 -1.1572604
-2.5364983 -1.0596465 -1.1708754
-2.6638753 -1.0735487 -1.2219543
-2.7141871 -1.0613564 -1.2421269
-2.725245 -1.0607958 -1.2465608
-2.7441981 -1.0610958 -1.2541609
-2.7931685 -1.0586355 -1.2737972
-2.8081739 -1.0585052 -1.279814
-2.8381851 -1.0582447 -1.2918482
-2.8531904 -1.0581145 -1.2978652
-2.9086657 -1.0707061 -1.3201121
-2.9915848 -1.0713229 -1.3533617
-3.0365229 -1.0745609 -1.371382
-3.1274848 -1.0670648 -1.4078555
-3.2253728 -1.0704277 -1.4471079
-3.2443709 -1.0678672 -1.4547255
-3.2853112 -1.0714117 -1.4711428
-3.312242 -1.0782377 -1.4819429
-3.4551625 -1.069839 -1.539251
-3.4741609 -1.0672785 -1.5468686
-3.5760467 -1.0703347 -1.5877242
-3.5950449 -1.0677741 -1.5953417
-3.6100137 -1.07052 -1.6013446
-3.6399672 -1.073512 -1.6133561
-3.6889191 -1.0739434 -1.6329854
-3.7378709 -1.0743749 -1.6526144
-3.839788 -1.0724313 -1.6934817
-3.9037244 -1.0731088 -1.7191195
-4.3541746 -0.84102345 -1.8997077
-4.3608899 -0.76094627 -1.9023877
-4.3230958 -0.30834517 -1.8871603
0.16283703 1.3514935 -0.088086843
0.24169731 1.3521599 -0.056464672
0.26286364 1.3523678 -0.047977209
0.30704212 1.3571165 -0.030261517
0.35196447 1.3628544 -0.012247086
0.26498413 1.3725438 -0.047123671
0.17112589 1.3638744 -0.084761143
0.12212706 1.3709428 -0.10440803
0.024345398 1.3904091 -0.14361405
0.014226913 1.3910108 -0.14767146
-0.036863804 1.3930676 -0.16815782
-0.096865177 1.4020832 -0.1922164
-0.18158054 1.3892848 -0.2261883
-0.20518064 1.3888277 -0.23565161
-0.21860695 1.3890725 -0.24103546
-0.3114028 1.3604193 -0.2782501
-0.3558116 1.3417536 -0.29606044
-0.52159882 1.3138998 -0.36254382
-0.59662628 1.3147205 -0.39262891
-0.64953852 1.3142151 -0.41384602
-0.7324667 1.3165379 -0.44709885
-0.80037355 1.3111967 -0.47432971
-0.84933758 1.3111901 -0.4939636
-0.89435387 1.3116826 -0.51201463
-0.96227694 1.3138412 -0.53925061
-1.0151782 1.3083359 -0.56046438
-1.0301843 1.3085001 -0.56648147
-1.0716405 1.3059115 -0.58310533
-1.0873356 1.3054732 -0.58939898
0.25464582 -1.0508847 -0.051657438
0.28219414 -1.0307463 -0.040607452
0.2971139 -0.99091113 -0.034618378
-10.65151 -1.1214135 -4.4249115
-10.586905 -1.1210995 -4.3990059
-10.616453 -1.1260934 -4.4108553
-5.4625897 -1.1491104 -2.344219
-5.6067219 -1.0935211 -2.4020052
-5.5725389 -1.0956692 -2.3882987
-5.4088168 -1.1486636 -2.3226564
-5.4373312 -1.1487899 -2.3340905
-5.4527822 -1.1490629 -2.340286
-0.6233201 0.98698366 -0.40338516
-0.38293409 1.3070518 -0.30694199
-0.28126049 1.3334121 -0.26616764
-0.2389245 1.3396015 -0.24919057
-0.19437504 1.3387222 -0.23132682
-0.12647247 1.344093 -0.20409775
-0.051549435 1.345323 -0.17405438
-0.0025501251 1.3382546 -0.1544075
0.052193642 1.3509098 -0.13245368
0.10323858 1.3560039 -0.11198449
0.15222216 1.3514354 -0.09234333
-0.31430292 -0.34887275 -0.27968669
-0.64284515 -0.021784514 -0.41137612
-0.73255587 0.22702314 -0.44730914
-0.7011466 0.42717975 -0.43468249
-0.71131277 0.50688112 -0.43874609
-0.70148897 0.58717704 -0.43479419
-0.70575619 0.6669156 -0.43649244
-0.71127129 0.7068727 -0.43869758
-0.72734833 0.76954603 -0.44513428
-0.72740746 0.79704559 -0.44515347
-0.72755671 0.86704445 -0.44520211
-0.70847702 0.94690037 -0.43753862
-1.0191212 1.3053368 -0.56204581
-1.072022 1.2998315 -0.58325946
-0.17646646 -0.35411802 -0.22441673
-0.28458261 -0.35122415 -0.26776969
0.20034409 -0.40140101 -0.073327541
0.24423027 -0.31188473 -0.055715561
-5.8996725 -1.0889313 -2.5194743
-5.928731 -1.0919451 -2.531127
-5.860342 -1.0987408 -2.5037048
-5.8116674 -1.0956322 -2.4841864
-9.677084 -1.0825142 -4.0341721
-9.959816 -0.62039578 -4.14747
-9.9601364 -0.56789744 -4.1475906
-9.7031422 -0.083341062 -4.0444608
-9.7045422 -0.0033400953 -4.0450096
-9.7047672 0.058732584 -4.0450897
-9.7189541 0.11670749 -4.0507698
-9.7305422 0.1883654 -4.0554047
-9.6972265 0.41814741 -4.0420084
-9.7027702 0.43068027 -4.0442295
-9.691988 0.77828443 -4.0398502
-9.5402317 0.98171568 -3.9789653
-9.2346554 1.2719744 -3.8563859
-9.1713657 1.2771046 -3.831007
-9.0981445 1.2807046 -3.8016453
-9.0739374 1.2825423 -3.7919383
-9.1177073 1.2828083 -3.8094897
-9.1810112 1.2801781 -3.8348744
-9.2542763 1.2840779 -3.8642521
-9.3226261 1.2959622 -3.8916574
-9.4150524 1.2835097 -3.9287214
-9.4541492 1.2827172 -3.9443989
-9.5224419 1.2846019 -3.9717829
-9.5661831 1.2798682 -3.9893234
-9.6003065 1.2770606 -4.0030069
-9.639389 1.2737682 -4.0186791
-9.6685696 1.2739456 -4.0303802
-9.7205849 1.2784601 -4.0512371
-9.7546921 1.2780668 -4.0649137
-9.7756729 1.276581 -4.0733271
-9.7905474 1.2751266 -4.0792918
-9.8488941 1.2729812 -4.1026888
-9.8911219 1.2764937 -4.1196208
-9.9317894 1.2774546 -4.1359282
-9.9593754 1.2807069 -4.1469893
-10.078312 1.3182901 -4.1946754
-10.131796 1.3028268 -4.2161245
-10.199999 1.2998973 -4.2434731
-10.234116 1.3021824 -4.2571535
-10.385262 1.3138568 -4.3177595
-10.291653 1.2409036 -4.2802353
-10.257462 1.236163 -4.2665253
-10.154989 1.2344407 -4.2254353
-10.140429 1.2347302 -4.2195969
-10.037997 1.2380078 -4.1785221
-10.008857 1.2360867 -4.1668377
-9.7048626 0.79066861 -4.045011
-9.908886 0.57786703 -4.1268559
-10.018427 0.45687762 -4.1708002
-9.9942274 0.27187181 -4.1611261
-10.004294 0.070215344 -4.165195
-10.003839 0.030218497 -4.165019
-10.162403 -0.27903011 -4.228651
-10.265086 -0.31252208 -4.2698307
-10.27144 -0.32008353 -4.2723799
-10.718847 -0.32177982 -4.4517851
-10.786869 -0.30964503 -4.4790592
-10.703152 -0.36104569 -4.4454975
-10.264988 -0.33002135 -4.269794
-10.184743 -0.47916153 -4.2376404
-10.033656 -0.60599005 -4.1770768
-9.9899254 -0.64279521 -4.1595473
-9.9762783 -1.125742 -4.1541524
-9.9275494 -1.1254896 -4.134613
-9.9079866 -1.1276277 -4.1267686
-9.8592739 -1.1248753 -4.1072345
-9.8055553 -1.1292062 -4.0856953
-9.7372637 -1.1310916 -4.058311
-9.6347876 -1.1401699 -4.0172205
-9.532402 -1.1342485 -3.9761643
-9.4595432 -1.1195228 -3.9469466
-9.3959246 -1.1205202 -3.9214363
-9.3863077 -1.1184918 -3.9175797
-9.4449692 -1.1170777 -3.941102
-9.5504475 -1.082119 -3.983392
-9.5863934 -1.0849192 -3.9978065
-8.0695553 1.2798305 -3.3891931
-8.0987358 1.2800077 -3.4008942
-8.1719856 1.2814077 -3.4302664
-8.2448635 1.2693514 -3.4594915
-8.3814325 1.2706209 -3.5142536
-8.4560785 1.2675446 -3.5441864
-8.5083551 1.2688171 -3.5651484
-8.5325623 1.2669795 -3.5748558
-8.5912075 1.2657906 -3.598372
-8.6154289 1.2664529 -3.6080844
-8.6755171 1.2656914 -3.6321793
-8.7423811 1.2696488 -3.6589901
-8.8057432 1.2770182 -3.6843963
-8.864089 1.274873 -3.7077928
-8.9128475 1.2796539 -3.7273436
-8.8544865 1.2792993 -3.7039416
-8.8203621 1.2821068 -3.6902578
-8.7666464 1.2778108 -3.6687188
-8.7325077 1.2781184 -3.6550298
-8.6641874 1.2712338 -3.627635
-8.5959244 1.2743489 -3.6002622
-8.5617714 1.2721565 -3.5865674
-8.5471811 1.2720679 -3.5807168
-8.4938221 1.278728 -3.5593195
-8.4205875 1.2798282 -3.529953
-8.3768167 1.2795621 -3.5124016
-8.3426781 1.2798698 -3.4987123
-8.2889919 1.2805736 -3.4771845
-8.2840328 1.2810585 -3.4751959
-8.2498951 1.2813661 -3.4615068
-8.2303467 1.2817624 -3.4536681
-8.1769581 1.2834227 -3.43226
-8.1428204 1.2837303 -3.418571
-8.1037083 1.2820228 -3.4028878
-4.9188271 1.2731827 -2.1257882
-4.9677863 1.2706763 -2.1454208
-4.9298854 1.2738459 -2.1302223
-7.6990194 1.2877289 -3.2406111
-7.8159671 1.276895 -3.2875075
-7.8550782 1.2786026 -3.3031902
-7.869669 1.2786912 -3.309041
-7.9087791 1.2803986 -3.3247237
-7.9671545 1.2832532 -3.3481312
-7.8988633 1.2813685 -3.3207474
-7.8647108 1.279176 -3.3070529
-7.7964625 1.284791 -3.279685
-7.7077141 1.2975497 -3.2440958
-7.6786346 1.3048302 -3.2324343
-7.6590638 1.3077786 -3.2245862
-7.6148839 1.3117336 -3.2068698
-7.5807028 1.3070726 -3.1931643
-7.5369968 1.3042439 -3.1756392
-7.464179 1.3036958 -3.1464403
-7.3763084 1.307322 -3.1112046
-7.3225255 1.3006096 -3.0896394
-7.2883606 1.2984484 -3.0759399
-7.2200289 1.2941264 -3.0485406
-7.1517296 1.2948042 -3.021153
-7.0885162 1.3049235 -2.9958036
-7.0005827 1.29855 -2.9605443
-6.9714718 1.3008307 -2.9488707
-6.9473667 1.3000532 -2.9392052
-6.8936157 1.2983408 -2.9176517
-6.8690062 1.2993474 -2.9077835
-7.0248141 1.2375457 -2.9702706
-7.0785351 1.2342587 -2.9918127
-7.2300277 1.2855105 -3.0525513
-7.3174562 1.293668 -3.0876076
-7.3908091 1.2974319 -3.1170208
-7.4686813 1.3024217 -3.148246
-7.5419722 1.2961861 -3.1776357
-7.5469952 1.295628 -3.1796501
-7.606535 1.2901816 -3.2035255
-7.6552629 1.2899628 -3.2230649
-7.6735015 1.287889 -3.2303786
-5.7183852 1.2954693 -2.4463983
-5.8404989 1.3065038 -2.4953628
-5.9378791 1.2985455 -2.5344124
-5.9916458 1.302758 -2.5559716
-6.050374 1.2964127 -2.5795219
-6.0989299 1.2711844 -2.5989964
-6.0160356 1.2667526 -2.5657573
-5.996449 1.2672013 -2.5579033
-5.8989911 1.2626599 -2.5188246
-5.8306918 1.2633377 -2.4914372
-5.7769241 1.2591252 -2.4698775
-5.7232037 1.2624124 -2.4483359
-5.6991148 1.264135 -2.4386761
-5.6453476 1.2599225 -2.4171169
-5.6207066 1.2559294 -2.4072368
-5.5865726 1.2587682 -2.393549
-5.5378752 1.2614973 -2.3740213
-5.4941845 1.2611685 -2.3565021
-5.4745822 1.259117 -2.3486421
-5.3105097 1.258131 -2.2828507
-5.2765555 1.2608014 -2.2692354
-5.2355504 1.2639891 -2.2527921
-5.3184443 1.2684207 -2.286031
-5.4695911 1.264675 -2.3466396
-5.5625157 1.2654904 -2.3839014
-5.6814885 1.2932876 -2.4316037
-0.6761179 0.58703506 -0.42462051
-0.61035919 0.71989477 -0.39823091
-0.60180283 0.82695794 -0.39478254
-0.61264896 0.8671428 -0.39912546
-0.72149944 0.22700383 -0.44287562
-9.2156763 -1.1069562 -3.8491569
-9.3425846 -1.1111563 -3.9000459
-9.1766968 -1.1350363 -3.8335307
-8.9965553 -1.103973 -3.7612913
-8.8988447 -1.0971636 -3.7221093
-8.8404837 -1.0973827 -3.6987071
-8.8550587 -1.0998278 -3.7045519
-8.8941402 -1.1030515 -3.7202237
-4.8469672 1.276523 -2.0969729
-4.8130198 1.2816936 -2.0833595
-4.8509212 1.2785239 -2.0985579
-4.8659158 1.2736882 -2.1045713
-6.4013319 1.2873836 -2.7202535
-6.4450397 1.2840209 -2.7377803
-6.4621305 1.2863514 -2.7446332
-6.4938002 1.2912914 -2.7573316
-6.3717961 1.2977562 -2.7084084
-6.3667736 1.2983145 -2.7063942
-6.3179655 1.2835443 -2.686825
-6.3564157 1.2881628 -2.7022426
-6.3453703 -0.34695485 -2.6980753
-6.4332762 -0.35025331 -2.733325
-6.4041424 -0.35473916 -2.7216434
-6.3649359 -0.35204944 -2.7059216
-5.6510515 -1.0910491 -2.4197805
-5.6750865 -1.0892252 -2.4294178
-5.7092438 -1.089577 -2.4431148
-5.7338839 -1.0945096 -2.4529958
-5.7142677 -1.0944146 -2.4451299
0.13775826 -1.0487325 -0.098527431
0.031945229 -1.0547434 -0.14095831
-0.028077126 -1.0540868 -0.16502643
-0.092051983 -1.0514292 -0.19067931
-0.14495325 -1.0569345 -0.21189284
-0.24861383 -1.0539536 -0.2534591
-0.26756668 -1.0542537 -0.26105917
-0.29974699 -1.0554521 -0.27396321
-0.33370018 -1.0581226 -0.28757846
-0.38444901 -1.0546329 -0.30792761
-0.41446018 -1.0543725 -0.31996179
-0.48240185 -1.0447123 -0.34720397
-0.51636696 -1.0423821 -0.36082315
-0.6292758 -1.0523307 -0.40610003
-0.7272172 -1.04741 -0.44537246
-0.74616432 -1.0502101 -0.45297062
-0.81801033 -1.05848 -0.48178148
-0.90093994 -1.0561894 -0.51503479
-0.93095064 -1.0559287 -0.52706873
-0.96490335 -1.0585986 -0.54068387
-9.2011013 -1.1045113 -3.8433123
-9.1961441 -1.1040944 -3.8413239
-9.171936 -1.1021208 -3.8316169
-9.1573467 -1.1021756 -3.8257666
-9.1427574 -1.1022303 -3.8199162
-9.0549612 -1.0962542 -3.7847102
-9.050004 -1.0958375 -3.782722
-6.3159246 -1.0787674 -2.6863849
-6.2945647 -1.0711408 -2.6778188
-6.3482637 -1.0790871 -2.6993527
-6.4312201 -1.0700483 -2.7326159
-6.3823967 -1.0819387 -2.7130399
-0.74393511 -0.34478953 -0.45196378
-0.74776697 -0.39271918 -0.45350802
-0.70898294 -0.75211394 -0.43801355
-8.7284355 -1.0969325 -3.6537771
-8.7185202 -1.0960993 -3.649801
-8.6893244 -1.0987087 -3.6380944
0 0 0 1 0 0 0 1 0 0 0 1 0 0 0 0 0 675 1 0 0
