ply
format ascii 1.0
comment PCL generated
element vertex 634
property float x
property float y
property float z
element camera 1
property float view_px
property float view_py
property float view_pz
property float x_axisx
property float x_axisy
property float x_axisz
property float y_axisx
property float y_axisy
property float y_axisz
property float z_axisx
property float z_axisy
property float z_axisz
property float focal
property float scalex
property float scaley
property float centerx
property float centery
property int viewportx
property int viewporty
property float k1
property float k2
end_header
-7.5908194 -1.3758553 -3.6020176
-7.6394978 -1.3764176 -3.6204963
-7.8587999 -1.3102998 -3.7038889
-7.90341 -1.2679654 -3.7209132
-7.9175615 -1.2503333 -3.7263227
-8.1759443 -1.108737 -3.8247099
-8.0569954 -1.1016958 -3.779568
-7.967093 -1.1005459 -3.7454405
-7.9399557 -1.0994692 -3.7351403
-7.8977728 -1.1023679 -3.7191205
-7.8631063 -1.1045288 -3.7059555
-7.7862854 -1.1045885 -3.6767917
-7.77319 -1.1058788 -3.6718175
-7.6963959 -1.1009388 -3.6426744
-7.6898556 -1.100334 -3.6401927
-7.6552162 -1.0974951 -3.6270485
-7.603713 -1.1011288 -3.6074886
-7.4923468 -1.0998254 -3.5652132
-7.4368963 -1.1117363 -3.5441375
-7.3601341 -1.1183161 -3.5149822
-7.2975397 -1.1075757 -3.4912419
-7.2323637 -1.0918019 -3.4665322
-7.137495 -1.1057101 -3.4304876
-7.0754337 -1.1125952 -3.406913
-7.0474191 -1.1122377 -3.3962784
-6.9847789 -1.106497 -3.3725102
-6.9014053 -1.1080508 -3.3408558
-6.7699795 -1.1166688 -3.2909443
-6.6866522 -1.1132232 -3.2593179
-6.5686302 -1.1118938 -3.2145157
-6.5479889 -1.109189 -3.2066853
-6.4506769 -1.1030648 -3.1697555
-6.5266075 -1.1113576 -3.1985636
-6.7225847 -1.2460312 -3.2726805
-6.781846 -1.2742118 -3.2951188
-6.9138746 -1.27572 -3.345238
-7.0189977 -1.2894443 -3.3851171
-7.0676765 -1.2900065 -3.4035962
-7.219842 -1.2917717 -3.461359
-7.2685213 -1.2923341 -3.4798381
-7.2868624 -1.2925606 -3.4868007
-5.9468336 -0.77988213 -2.9791582
-5.9999189 -0.35791689 -3.000196
-5.9781246 -0.34763819 -2.9919438
-5.9641166 -0.3474595 -2.9866264
-5.9087124 -0.35437065 -2.9655786
-5.8771915 -0.35654587 -2.9536076
-5.8361921 -0.35612202 -2.9380438
-5.8700442 -0.63651162 -2.9503071
-5.929337 -0.79718935 -2.9724798
-5.7836709 -1.1555578 -2.9164286
-5.9235373 -1.11702 -2.9696071
-5.9342852 -1.1171241 -2.9736872
-5.9582705 -1.1174891 -2.9827919
-5.9780588 -1.1176827 -2.990304
-6.0136056 -1.1180774 -3.0037978
-6.0252295 -1.1181926 -3.0082102
-7.4005365 1.3219278 -3.5354381
-7.4035807 1.3219162 -3.5365934
-7.5054054 1.3208275 -3.5752473
-7.5520382 1.3199911 -3.5929487
-7.6785688 1.2914759 -3.640924
-7.7412338 1.2814815 -3.6646926
-7.7988605 1.2820026 -3.6865706
-7.8541107 1.281157 -3.7075436
-7.9374733 1.280645 -3.7391896
-8.0142546 1.2733063 -3.7683229
-8.070467 1.2714736 -3.789659
-8.0283422 1.2703639 -3.7736647
-7.958993 1.2716521 -3.7473402
-7.8831453 1.2730038 -3.718549
-7.8409777 1.2725034 -3.7025397
-7.7510743 1.2736883 -3.6684122
-7.6817684 1.2743672 -3.6421027
-7.6536694 1.2765336 -3.6314399
-7.6187596 1.2806287 -3.6181958
-7.5722842 1.2808933 -3.6005528
-7.5678997 1.2808347 -3.5988884
-7.5332355 1.2812054 -3.5857294
-7.4725742 1.281854 -3.5627017
-7.3732414 1.3015651 -3.5250332
-7.3451838 1.3011893 -3.5143809
-7.3311687 1.3035015 -3.5090652
-7.2618408 1.3042426 -3.4827476
-7.1512294 1.3036009 -3.4407547
-7.2627153 1.3159223 -3.483104
0.31263494 1.3491778 -0.60732996
0.30200768 1.3693413 -0.61140656
0.23525572 1.3758816 -0.63676155
0.10616016 1.3802953 -0.68577969
0.068404675 1.3721725 -0.70009577
0.048388004 1.3696226 -0.70768929
-0.011691093 1.3669729 -0.73049164
-0.035030842 1.3665181 -0.73935127
-0.11840773 1.3559138 -0.77098167
-0.21296072 1.350546 -0.80686557
-0.23448801 1.3454099 -0.81502724
-0.27073288 1.3398734 -0.82877541
-0.31259203 1.3377476 -0.84466195
-0.34154749 1.3382316 -0.85565555
-0.36155367 1.3402861 -0.86325467
-0.43752861 1.3261645 -0.89206755
-0.47945166 1.3274182 -0.90798557
-0.52498245 1.3283402 -0.92527246
-0.56840849 1.3240662 -0.94174933
-0.61183405 1.3197919 -0.9582262
-0.66079569 1.3223304 -0.9768188
-0.72976589 1.3294233 -1.0030169
-0.81321049 1.3342581 -1.0347054
-0.91663837 1.326148 -1.0739528
-0.9455905 1.3241321 -1.0849397
-0.9021492 1.3184065 -1.068436
-0.87318611 1.3129228 -1.0574293
-0.72631788 1.3153073 -1.0016785
-0.4886322 0.98603207 -0.9107548
-0.50064802 0.90849364 -0.91515386
-0.50274324 0.86848223 -0.91586542
-0.50268316 0.82848352 -0.91575861
-0.50477886 0.78847206 -0.91647029
-0.502563 0.74848616 -0.91554534
-0.49590731 0.70866954 -0.91293514
-0.49313354 0.66862553 -0.911798
-0.49572754 0.58867341 -0.91261518
-0.49789381 0.50851935 -0.9132694
-0.49373817 0.46864706 -0.91160822
-0.56134892 0.18786232 -0.93668652
-0.62090683 0.090307146 -0.95909202
-0.77339268 -0.013966233 -1.0167618
-0.78844643 -0.031554386 -1.0224397
-0.50099993 -0.31073987 -0.91273057
-0.49147511 -0.43060851 -0.90886319
-0.48590279 -0.51068431 -0.90657985
-0.44823885 -0.30986202 -0.89270258
-0.088338375 -0.15068732 -0.75640666
-0.053843975 -0.16048355 -0.7432909
0.01513052 -0.17007641 -0.71708596
0.38320827 -0.069216445 -0.57756329
0.060265064 0.093992971 -0.70050526
-0.083460808 0.34628105 -0.75559723
-0.40526295 0.58382785 -0.87826169
-0.41141081 0.66959864 -0.88077557
-0.41418505 0.70964265 -0.88191271
-0.38039827 0.86984843 -0.86942208
-0.37010145 1.1089319 -0.8660146
-0.080555916 1.3465371 -0.75659215
-0.017168045 1.3495916 -0.73253453
0.082944393 1.3573409 -0.69454491
0.17524576 1.3607321 -0.65951145
0.26427984 1.3562185 -0.62570179
0.2787509 1.3538867 -0.62020338
-10.780003 -1.0416963 -4.8134336
-10.746188 -1.0972348 -4.8004804
-10.676908 -1.101512 -4.7741704
-10.579376 -1.108745 -4.7371292
-10.484191 -1.1195006 -4.7009711
-10.437273 -1.1198559 -4.6831589
-10.226925 -1.1764804 -4.6031857
-10.161544 -1.2143731 -4.5782852
-10.084594 -1.2133021 -4.5490746
-10.075213 -1.2132019 -4.5455136
-10.058462 -1.2129513 -4.5391545
-10.045633 -1.2128093 -4.5342855
-10.038021 -1.2126806 -4.5313954
-10.023914 -1.2124696 -4.5260406
-9.8113766 -1.2497835 -4.4452763
-9.7789097 -1.2493728 -4.4329515
-9.7540569 -1.2490909 -4.4235172
-9.4760952 -1.1977795 -4.3181019
-9.3831644 -1.1311532 -4.2829618
-9.1434708 -0.99880743 -4.1922445
-8.9673538 -0.59882015 -4.1262236
-8.9719944 -0.47739547 -4.1282396
-8.9866533 -0.39763945 -4.1339722
-8.7976189 0.0045346469 -4.0630522
-8.7640324 0.067073733 -4.0504327
-8.6558456 0.36225915 -4.0099807
-8.6496191 0.34718686 -4.007585
-8.5575628 0.18700315 -3.9723017
-8.4803095 0.11245503 -3.9428177
-8.4776478 0.107424 -3.9417963
-8.5320854 0.045019954 -3.962332
-8.6907129 -0.35577512 -4.0217113
-8.6850033 -0.43582141 -4.0193763
-8.6359501 -0.755463 -4.0000834
-8.52283 -1.0471296 -3.9565279
-8.3557768 -1.1060369 -3.8929858
-8.3211241 -1.1056979 -3.8798313
-8.2592926 -1.1117818 -3.8563452
-8.2798891 -1.1122538 -3.8641634
-8.3058786 -1.1125081 -3.8740292
-8.361495 -1.1128154 -3.8951421
-8.4259892 -1.1178716 -3.9196157
-8.5374022 -1.1547731 -3.9618342
-8.5783834 -1.1690925 -3.9773619
-8.6302261 -1.1945999 -3.9969895
-8.8529587 -1.169896 -4.0815978
-8.9050369 -1.1580541 -4.1013932
-8.9223795 -1.1557734 -4.1079817
-8.9571428 -1.1437124 -4.1212044
-9.1302156 -1.1534021 -4.1868877
-9.1992903 -1.1717768 -4.2130723
-9.2338943 -1.1747147 -4.226203
-9.2685242 -1.1751527 -4.2393489
-9.3031559 -1.1755908 -4.2524948
-9.3723907 -1.1789666 -4.2787714
0.34479856 -1.0692968 -0.5900476
0.24745607 -1.1096655 -0.62691724
0.23297834 -1.1094236 -0.63241398
0.13105679 -1.1280606 -0.6710676
-0.0068697929 -1.1238744 -0.72343767
-0.026863575 -1.1293195 -0.73101664
-0.10629416 -1.1107708 -0.76120985
-0.095042706 -1.1105202 -0.75693893
-0.043371201 -1.110604 -0.73732257
-0.026083469 -1.1101133 -0.73076069
-0.0088911057 -1.1104007 -0.72423327
0.0036096573 -1.1101222 -0.71948814
0.023611546 -1.109677 -0.7118957
0.031112194 -1.1095099 -0.70904851
0.30658865 -0.93116629 -0.60484302
0.33026075 -1.0290561 -0.59565091
-8.8081913 1.34638 -4.0698795
-8.840373 1.345589 -4.0820951
-9.0021152 1.2860562 -4.143373
-9.0713272 1.2802058 -4.1696358
-9.0980282 1.2791499 -4.1797705
-9.1598196 1.2776313 -4.2032247
-9.2020016 1.2806317 -4.2192445
-9.2303333 1.2804228 -4.2299995
-9.2508278 1.2798408 -4.2377787
-9.271307 1.2799528 -4.245554
-9.2161684 1.2752665 -4.2246118
-9.146904 1.2736173 -4.1983132
-9.1122818 1.2740425 -4.1851702
-9.0776577 1.2744677 -4.1720271
-9.0430183 1.2723932 -4.1588721
-8.9737349 1.268244 -4.1325617
-8.9452953 1.2678412 -4.1217642
-8.9044714 1.2665948 -4.1062632
-8.8792467 1.2656837 -4.0966854
-8.8601637 1.2658324 -4.0894413
-8.8006554 1.2753701 -4.0668697
-8.7570515 1.2778583 -4.0503216
-8.5346432 0.787839 -3.9648609
-8.4774799 0.82809448 -3.943244
-8.3880348 0.90866637 -3.9094567
-8.3492565 0.94904637 -3.8948205
-1.492445 1.3862315 -1.2926733
-1.6097808 1.4036934 -1.3372544
-1.6297829 1.4032482 -1.3448468
-1.6876941 1.4042156 -1.3668338
-1.7021718 1.4044576 -1.3723305
-1.7221735 1.4040122 -1.3799229
-1.9235272 1.4034789 -1.4563621
-2.1048195 1.3633921 -1.5251023
-2.164825 1.3620563 -1.5478795
-2.1793027 1.3622983 -1.5533762
-2.2082584 1.362782 -1.5643697
-2.2516918 1.3635076 -1.58086
-2.2916954 1.362617 -1.5960448
-2.3206511 1.3631009 -1.6070383
-2.4240899 1.3624905 -1.6463056
-2.4585695 1.3622872 -1.6593947
-2.4985731 1.3613966 -1.6745796
-2.5275288 1.3618803 -1.6855731
-2.5475345 1.3639349 -1.6931722
-2.605442 1.3624026 -1.7151525
-2.6399217 1.3621993 -1.7282417
-2.7371426 1.3428167 -1.7651091
-2.8467357 1.3184799 -1.806663
-2.9827743 1.2984527 -1.8582658
-2.8648546 1.2992754 -1.8135014
-2.8303528 1.2969936 -1.8003986
-2.7396367 1.2876827 -1.7659403
-2.7114739 1.287827 -1.7552491
-2.5874257 1.2880466 -1.7081571
-2.5674241 1.288492 -1.7005646
-2.5129611 1.3016403 -1.6799164
-2.4495335 1.3063599 -1.6558471
-2.3861055 1.3110791 -1.6317778
-2.3661039 1.3115246 -1.6241853
-2.3205686 1.3081026 -1.6068916
-2.271615 1.3105642 -1.5883124
-2.2260191 1.3048512 -1.5709908
-2.1502683 1.309316 -1.5422428
-2.0668428 1.3169808 -1.5105878
-1.9834168 1.3246454 -1.4789327
-1.8799815 1.3277557 -1.439672
-1.8689299 1.3266302 -1.4354739
-1.83445 1.3268336 -1.4223849
-1.7475796 1.3228823 -1.3893977
-1.6296706 1.3282505 -1.3446469
-1.5841279 1.3198287 -1.3273399
-1.555172 1.3193449 -1.3163463
-1.4806738 1.3104392 -1.2880456
-1.4461942 1.3106427 -1.2749566
-1.388279 1.3071752 -1.2529628
-1.31932 1.307582 -1.2267847
-1.27932 1.3109726 -1.2116065
-1.2503643 1.3104888 -1.200613
-1.2269366 1.3118178 -1.1917219
-1.1869292 1.3102086 -1.1765305
-1.1814051 1.3108957 -1.1744348
-1.094542 1.3119441 -1.1414609
-1.0545382 1.3128349 -1.1262761
-1.0200663 1.3180382 -1.1132004
-1.0779738 1.3165057 -1.1351807
-1.0890214 1.3151314 -1.1393719
-1.3023422 1.3865142 -1.2205049
-1.3177247 1.3867713 -1.2263452
-1.38116 1.3870516 -1.2504278
-4.2686052 -0.6003105 -2.3424258
-4.2705164 -0.76026732 -2.3428161
-4.5476131 -1.0476917 -2.4474082
-4.5676122 -1.0506482 -2.4549942
-4.5876112 -1.0536048 -2.4625802
-4.9502964 -1.0686458 -2.6002355
-4.530283 -1.1200897 -2.4406772
-4.504899 -1.1201354 -2.4310405
-4.4813251 -1.120149 -2.422091
-4.4214621 -1.1199962 -2.3993654
-4.3978877 -1.1200097 -2.3904159
-4.3489308 -1.120069 -2.37183
-4.3235469 -1.1201147 -2.3621936
-4.2401099 -1.1199752 -2.3305182
-4.2288589 -1.1197184 -2.3262479
-4.220108 -1.1195186 -2.322926
-4.0703568 -1.0981228 -2.2661207
-4.0213995 -1.0981822 -2.2475348
-3.8605812 -1.1589608 -2.1863556
-3.7274544 -1.2585323 -2.1356075
-3.6930249 -1.218335 -2.1226213
-3.6186416 -1.1372256 -2.094553
-3.3973956 -1.0487946 -2.0107465
-3.6409345 -0.67685497 -2.1039815
-3.5399339 -0.31679505 -2.0663939
-3.5597575 -0.31669599 -2.0739195
-3.7003431 -0.31703663 -2.1272898
-3.7103443 -0.31726497 -2.1310859
-3.7418947 -0.31761748 -2.1430628
-3.781208 -0.31844151 -2.1579857
-3.7932804 -0.3189379 -2.1625676
-3.9044747 -0.30537188 -2.204809
-3.9989631 -0.30444062 -2.2406816
-4.1403208 -0.2960484 -2.2943633
-4.2348247 -0.28261763 -2.3302679
-4.3271995 -0.29428393 -2.3653119
-4.3706264 -0.29850984 -2.3817894
-4.4251056 -0.30166501 -2.4024649
-4.4401679 -0.31925136 -2.4081461
-4.4250579 -0.33916366 -2.4023681
-4.2840919 -0.52039486 -2.3484728
-10.652761 -1.080063 -4.765048
-10.59145 -1.0792121 -4.7417746
-10.353699 -0.59851778 -4.6525249
-10.558983 -0.44103652 -4.7307873
-10.328779 -0.59799957 -4.6430655
-10.108723 -0.57357031 -4.559576
-10.107841 -0.57355714 -4.5592418
-10.025684 -0.93259776 -4.5272994
-9.8542042 -1.0903159 -4.4618692
-8.7513485 1.3467844 -4.0483012
-8.7248287 1.346892 -4.0382338
-8.5707054 1.2809012 -3.9795852
-8.5491333 1.2798946 -3.9713936
-8.4798279 1.2805732 -3.9450843
-8.4386215 1.2790859 -3.9294381
-8.3205929 1.2774373 -3.8846273
-8.2859659 1.2827766 -3.8714929
-8.1963882 1.2707161 -3.8374615
-8.1608572 1.2710452 -3.8239732
-8.1380157 1.270774 -3.8153012
-6.71208 -0.36588591 -3.2705383
-6.663909 -0.40533239 -3.2521682
-6.7409472 -0.4261989 -3.2813706
-6.8166022 -0.40704536 -3.310132
-6.8994441 -0.36798239 -3.3416634
-6.8249636 -0.35464901 -3.313416
-6.7527003 -0.32632458 -3.286042
-6.6304674 1.3099799 -3.2430701
-6.6511025 1.3094214 -3.2509027
-6.7690802 1.3009979 -3.2956731
-6.8590145 1.2946985 -3.3298018
-6.9357939 1.2998909 -3.3589606
-6.8318167 1.3035026 -3.3194952
-6.8111959 1.306561 -3.3116732
-6.783123 1.3036854 -3.3010099
-6.6297064 1.3182992 -3.2427988
-6.5950422 1.3186698 -3.22964
-6.5257435 1.3244108 -3.2033439
-6.4919114 1.3289614 -3.1905098
-6.4638391 1.3260859 -3.1798465
-6.526504 1.3160914 -3.2036152
-6.5463214 1.3138528 -3.211134
-3.9468851 1.2729291 -2.2242193
-4.010324 1.2757094 -2.2483087
-4.03585 1.2745768 -2.2579966
-4.0937653 1.2780443 -2.2799902
-4.1227169 1.2760282 -2.290977
-4.1371984 1.2787701 -2.2964807
-4.2172093 1.2794887 -2.3268566
-4.2551188 1.2809016 -2.3412514
-4.2895942 1.2781981 -2.3543336
-4.3785596 1.2798458 -2.3881111
-4.4385653 1.2785099 -2.4108884
-4.5564818 1.2781415 -2.4556525
-4.4530506 1.2837517 -2.4163985
-4.3696094 1.2814167 -2.3847167
-4.358561 1.2827911 -2.3805254
-4.2861762 1.2840817 -2.3530483
-4.2717023 1.2863395 -2.3475583
-4.2406483 1.2856596 -2.335768
-4.2316942 1.2847303 -2.3323667
-4.7612457 1.2667249 -2.5333636
-4.8591571 1.264302 -2.5705287
-4.9336553 1.2732077 -2.5988293
-4.9770851 1.2714334 -2.6153128
-5.0426073 1.2644104 -2.6401725
-5.1260409 1.2617455 -2.6718407
-5.2094884 1.2690803 -2.7035356
-5.2584538 1.2741185 -2.7221351
-5.282486 1.2761497 -2.7312627
-5.3864923 1.2775378 -2.7707496
-5.4698491 1.2769842 -2.8023934
-5.5878844 1.27856 -2.8472066
-5.6572399 1.2828184 -2.8735452
-5.8493795 1.2937199 -2.9465103
-5.8941708 1.2951498 -2.9635174
-5.9288201 1.2922794 -2.9766655
-5.9374862 1.2921867 -2.9799552
-6.0187969 1.2934796 -3.0108259
-6.0696979 1.2899921 -3.0301423
-6.3457184 1.3095111 -3.1349695
-6.0740528 1.285051 -3.0317852
-6.05339 1.2806097 -3.0239315
-5.9469547 1.2524232 -2.9834661
-5.9317894 1.2525853 -2.9777093
-5.8734365 1.2782092 -2.9556105
-4.8847022 1.2756691 -2.5802503
-4.9281354 1.2763947 -2.5967405
-4.9970942 1.2759879 -2.6229184
-5.0605259 1.2737683 -2.6469946
-5.1294894 1.2758613 -2.6731796
-5.143971 1.2786032 -2.678683
-5.1639724 1.2781579 -2.6862752
-5.2206101 1.2828248 -2.7077866
-5.2346396 1.2830124 -2.7131131
-5.2693176 1.2851416 -2.7262824
-5.3019018 1.2848439 -2.7386515
-5.3039813 1.2847711 -2.7394409
-5.3598166 1.2883115 -2.7606454
-5.4049454 1.2969515 -2.7777958
-5.4554515 1.2951239 -2.7969656
-5.4913869 1.2931052 -2.8106036
-5.5427842 1.293789 -2.830117
-5.5976148 1.2936883 -2.8509321
-5.6214967 1.2935386 -2.8599982
-0.26832247 -1.0632457 -0.82282054
-0.30625057 -1.0493333 -0.83724856
-0.46309137 -0.86933506 -0.8971678
-0.66257572 -1.050211 -0.97251892
-0.60808516 -1.0545976 -0.95182347
-0.57913828 -1.0500139 -0.94084394
-0.5301857 -1.0475193 -0.92226505
-0.37223864 -1.0612979 -0.86227453
-0.29727411 -1.065262 -0.83380735
-0.98183703 -1.0562075 -1.0937082
-0.94183302 -1.0553863 -1.0785232
-0.89839554 -1.0585102 -1.0620264
-1.0154083 -1.1121182 -1.1063356
-1.0506663 -1.1291107 -1.1196851
-1.1196215 -1.1320158 -1.1458566
-1.148577 -1.1315998 -1.1568499
-1.2030587 -1.132213 -1.1775316
-1.2085824 -1.1328316 -1.1796272
-1.2320139 -1.131797 -1.1885247
-1.2864954 -1.1324102 -1.2092063
-1.3099272 -1.1313756 -1.218104
-1.335453 -1.1324047 -1.2277923
-1.4339392 -1.1526899 -1.2651381
-1.5168047 -1.132591 -1.2966387
-1.5657623 -1.1325855 -1.3152245
-1.5857639 -1.1329961 -1.322817
-1.6257677 -1.1338174 -1.338002
-1.6747248 -1.133812 -1.3565876
-1.7236824 -1.1338065 -1.3751736
-1.7671158 -1.1331824 -1.3916636
-1.8126433 -1.1346222 -1.4089442
-1.8905563 -1.1342008 -1.4385234
-1.9250362 -1.1344033 -1.4516126
-1.9829519 -1.1310714 -1.4736062
-2.0029535 -1.1314821 -1.4811987
-2.1119118 -1.1352084 -1.5225549
-2.1553454 -1.1345844 -1.539045
-2.1753473 -1.134995 -1.5466373
-2.2187808 -1.1343709 -1.5631274
-2.2477365 -1.1339549 -1.5741208
-2.2822161 -1.1341575 -1.5872099
-2.3022177 -1.1345681 -1.5948024
-2.3422215 -1.1353893 -1.6099873
-2.3622229 -1.1357999 -1.6175797
-2.3856549 -1.1347653 -1.6264772
-2.4546139 -1.1351703 -1.6526556
-2.4801395 -1.1361997 -1.6623437
-2.4946175 -1.1359917 -1.6678405
-2.5235732 -1.1355755 -1.6788337
-2.5580525 -1.1357782 -1.6919229
-2.6844358 -1.1519551 -1.7398679
-2.767868 -1.1525596 -1.7715403
-2.7823253 -1.1527278 -1.7770283
-2.802356 -1.1527777 -1.7846324
-2.8140264 -1.0594904 -1.7892586
-2.7940245 -1.0590799 -1.781666
-2.7305894 -1.0592933 -1.7575836
-2.6961055 -1.0615906 -1.7444876
-2.5926709 -1.0584829 -1.7052271
-2.5526674 -1.0576618 -1.6900423
-2.4947562 -1.0584937 -1.6680555
-2.4802785 -1.0587018 -1.6625589
-2.4547527 -1.0576725 -1.6528707
-2.4202683 -1.0599699 -1.6397746
-2.3168297 -1.0593622 -1.6005073
-2.247875 -1.056457 -1.5743359
-2.2189236 -1.0543731 -1.5633495
-2.1644425 -1.0537599 -1.5426679
-2.0775709 -1.057508 -1.5096809
-1.9796562 -1.0575188 -1.4725093
-1.9596586 -1.0546082 -1.4649237
-1.9141221 -1.0581683 -1.4476291
-1.8562155 -1.0565003 -1.4256494
-1.8362136 -1.0560898 -1.418057
-1.7527812 -1.0533928 -1.386389
-1.6693397 -1.0556955 -1.3547071
-1.6493423 -1.052785 -1.3471216
-1.6148582 -1.0550823 -1.3340255
-1.5948565 -1.0546718 -1.3264331
-1.5659008 -1.0550878 -1.3154397
-1.5514228 -1.0552957 -1.309943
-1.5114193 -1.0544746 -1.2947581
-1.4390302 -1.0555147 -1.2672747
-1.3266375 -1.0557334 -1.2246064
-1.3155851 -1.0569962 -1.2204078
-1.2755773 -1.0586749 -1.2052162
-1.2576742 -1.0578282 -1.1984212
-1.2121508 -1.0538886 -1.1811475
-1.1687171 -1.0545125 -1.1646574
-1.1397572 -1.0574285 -1.1536571
-1.0507965 -1.0566127 -1.1198865
-5.1236587 -1.0954568 -2.665993
-5.165658 -1.0984929 -2.681931
-5.2077041 -1.0965292 -2.6978972
-5.2350245 -1.0967602 -2.7082682
-5.3390379 -1.0979108 -2.7477527
-5.422411 -1.0963567 -2.779407
-5.2930045 -1.0632309 -2.7303495
-5.1304684 -0.64202529 -2.6695292
-5.3228192 -0.47029936 -2.7429118
-4.9937325 -1.065372 -2.6167319
-4.1137743 1.2825989 -2.287596
-4.1027222 1.2814734 -2.2833979
-4.0392833 1.2786931 -2.2593088
-3.9215903 1.3000048 -2.2146733
-3.8179469 1.2921714 -2.1753106
-3.7800374 1.2907584 -2.1609161
-3.7200358 1.2945944 -2.1381454
-3.6566081 1.2993138 -2.1140761
-3.5331709 1.3028693 -2.0672231
-3.5042152 1.3023854 -2.0562296
-3.4552619 1.3048469 -2.0376506
-3.3200545 1.3032061 -1.9863179
-3.4207711 1.2975507 -2.0245414
-3.4842062 1.2978309 -2.0486238
-3.553158 1.2924242 -2.0747888
-3.6421189 1.2915721 -2.1085594
-3.6710782 1.2945559 -2.1195595
-3.711082 1.2936652 -2.1347444
-3.8000245 1.2803134 -2.1684818
-3.8868873 1.2792649 -2.2014556
-10.385222 0.044400096 -4.6658401
-10.38211 0.079909906 -4.6647329
-10.271639 0.40005961 -4.6234665
-10.155899 0.49233973 -4.5797215
-10.160835 0.52083623 -4.581655
-10.293814 0.71573931 -4.6325464
-10.48061 0.97855741 -4.7040119
-10.092424 1.2862959 -4.5572891
-10.084644 1.2829009 -4.5543289
-10.015452 1.2912509 -4.528079
-9.9115286 1.2850273 -4.4886131
-9.9213133 1.2951342 -4.4923487
-10.086893 1.3261515 -4.5552731
-10.129299 1.3289871 -4.5713778
-10.204929 1.3355228 -4.6001034
-10.288307 1.3351411 -4.6317549
-10.420429 1.3321248 -4.6819067
-10.455042 1.329378 -4.6950412
-10.469166 1.32699 -4.7003975
-10.50377 1.3217434 -4.7135239
-10.607682 1.3335028 -4.7529964
-10.64859 1.3127856 -4.7684832
-10.928208 1.3563509 -4.8747263
-10.930195 1.3562038 -4.8754807
-10.924686 0.87634897 -4.8723826
-10.932053 0.83765936 -4.8750982
-10.848238 0.83928752 -4.8432827
-10.764807 0.82466948 -4.8115788
-10.660948 0.82790983 -4.7721577
-10.591695 0.82590348 -4.745863
-10.340134 0.39998347 -4.6494689
-10.436934 0.24179332 -4.6858854
-10.461437 0.1193312 -4.694931
-10.458998 0.081129983 -4.6939249
-6.4291744 1.3264565 -3.1666875
-6.401103 1.3235812 -3.1560245
-6.3597617 1.3121986 -3.1403065
-5.2467251 -0.1604894 -2.7146738
-5.2797127 -0.11602218 -2.7272902
-5.3295684 -0.1209466 -2.7462068
-7.0463915 1.2980328 -3.400943
-7.0191226 1.2943377 -3.3905833
-6.9770498 1.2962742 -3.3746152
-6.991107 1.3014617 -3.3799624
-6.9498234 1.3000787 -3.3642869
-7.0884786 1.2985963 -3.4169219
-7.1305943 1.3041593 -3.4329221
-5.1580377 -0.37986219 -2.6805451
-5.1580787 -0.34736335 -2.6806288
-5.2250905 -0.22786285 -2.7063191
-9.4792385 1.2804164 -4.3244925
-9.4445724 1.2782558 -4.3113275
-9.4239435 1.2777146 -4.3034949
-9.3958626 1.2784284 -4.2928362
-9.4586029 1.282289 -4.3166623
-9.5073538 1.2820202 -4.3351688
0 0 0 1 0 0 0 1 0 0 0 1 0 0 0 0 0 634 1 0 0
