ply
format ascii 1.0
comment PCL generated
element vertex 577
property float x
property float y
property float z
element camera 1
property float view_px
property float view_py
property float view_pz
property float x_axisx
property float x_axisy
property float x_axisz
property float y_axisx
property float y_axisy
property float y_axisz
property float z_axisx
property float z_axisy
property float z_axisz
property float focal
property float scalex
property float scaley
property float centerx
property float centery
property int viewportx
property int viewporty
property float k1
property float k2
end_header
-0.12674713 1.3717022 -4.4394336
-0.21869802 1.387358 -4.3677545
-0.22562027 1.3873026 -4.3623729
-0.31285524 1.3866286 -4.2945514
-0.3170023 1.3862031 -4.2913313
-0.33928299 1.3854718 -4.2740154
-0.34389782 1.3854351 -4.2704277
-0.364851 1.3851976 -4.254138
-0.43685818 1.3735857 -4.1982841
-0.46245193 1.3680124 -4.1784487
-0.60589838 1.3486297 -4.0671382
-0.66127634 1.348187 -4.0240836
-0.74223566 1.3396719 -3.9612327
-0.7934103 1.3260257 -3.9216008
-0.82205391 1.3243203 -3.899349
-0.84463787 1.3223784 -3.8818114
-0.7820859 1.3207476 -3.9304678
-0.75235415 1.3256154 -3.9535291
-0.7011137 1.3267634 -3.9933581
-0.62012815 1.3302796 -4.0562873
-0.52888012 1.3203561 -4.1273532
-0.46473551 1.3042929 -4.1774168
-0.45261288 1.3039443 -4.1868467
-0.41349459 1.3054407 -4.2172456
-0.32550573 1.3393786 -4.2852659
-0.25699854 1.3481638 -4.3384314
-0.20928192 1.3483515 -4.3755312
-10.537591 0.55251968 3.645987
-10.561754 0.63203835 3.6657023
-10.459808 0.87319726 3.5892477
-10.46216 0.95320618 3.5920091
-10.460981 0.99319237 3.5915589
-10.460979 1.0331877 3.5920238
-10.458621 1.11316 3.5911231
-10.465038 1.1927881 3.5970411
-10.449196 1.2355723 3.5852222
-10.366655 1.3225601 3.5220575
-10.347816 1.3399115 3.5076115
-10.298363 1.3945205 3.4697962
-10.296568 1.3951664 3.4684074
-10.253284 1.3951597 3.434752
-10.144005 1.3959599 3.3497918
-10.120398 1.4045951 3.3315363
-10.082722 1.4068019 3.3022666
-10.076216 1.4074113 3.2972155
-10.050873 1.4053743 3.2774858
-9.9873047 1.4001861 3.2279985
-9.9491177 1.4014034 3.1983192
-9.9382 1.4011152 3.189827
-9.6165838 1.3655853 2.9393396
-9.494482 1.3280976 2.8439622
-9.4796963 1.3287096 2.8324716
-9.4611645 1.3261926 2.8180335
-9.4249306 1.3139791 2.7897174
-9.5198364 1.3100791 2.8634655
-9.6020088 1.3245871 2.9275281
-9.955617 1.3782883 3.2031035
-9.9932842 1.3560677 3.2321329
-10.043974 1.3551085 3.2715349
-10.287663 1.0771145 3.4577739
-10.290026 0.91715151 3.4577448
-10.291208 0.79717475 3.4572649
-10.287683 0.63716602 3.4526575
-10.28533 0.59715241 3.4503613
-10.314256 0.43661237 3.4709799
-10.313042 0.31674069 3.4686375
-10.271503 0.11743088 3.4340146
-10.256701 -0.057335287 3.4204667
-10.257896 -0.13731596 3.4204636
-10.255547 -0.17733106 3.4181697
-10.25084 -0.21736589 3.4140429
-10.246868 -0.26017499 3.4104552
-9.9621258 -0.6543684 3.1844552
-9.7067204 -1.1001999 2.9806633
-10.096018 -1.057893 3.2838559
-10.114338 -1.0586662 3.2980921
-10.130157 -1.0189593 3.3108563
-10.169447 -0.93868119 3.3423419
-10.21203 -0.83646792 3.3766453
-10.256183 -0.6642915 3.4129839
-10.275035 -0.61913866 3.4281693
-10.338622 -0.45997202 3.4794681
-10.420456 -0.26633054 3.5453565
-10.436941 -0.18120205 3.5591681
-10.558634 0.017120242 3.6561036
-10.43096 0.27370286 3.5598238
-7.9169359 -1.3594723 1.5859883
-7.9088373 -1.3187954 1.5801659
-7.4777622 -1.2292552 1.2460266
-7.4729996 -1.2341578 1.2422663
-7.3733482 -1.3128633 1.1638641
-7.1935878 -1.3114316 1.0241078
-7.0932579 -1.2668698 0.94661605
-6.9223704 -1.168896 0.81488454
-6.915813 -1.1682673 0.80979311
-6.8970075 -1.16588 0.79519868
-6.8716416 -1.1653636 0.77548146
-6.7767324 -1.1664262 0.7016722
-6.7260008 -1.1653934 0.66223764
-6.5681667 -1.1186702 0.54005837
-6.3149533 -1.0668604 0.34377626
-6.264255 -1.070739 0.30431035
-6.0858097 -0.57878703 0.17129812
-6.3094378 -0.40375125 0.34722248
-6.7213135 -0.33937091 0.66822827
-6.7974024 -0.34841907 0.72728586
-6.8284616 -0.34756595 0.75144589
-6.8726454 -0.34047109 0.7858839
-6.903708 -0.33711827 0.81007576
-7.0182924 -0.33544183 0.89919055
-7.0371037 -0.33282995 0.9138478
-7.0751953 -0.34943241 0.94327247
-7.1638632 -0.39290452 1.0117095
-6.9543548 -0.40814197 0.84862781
-6.9035773 -0.44460428 0.80872035
-6.7548323 -0.74552953 0.68955326
-7.0120163 -1.0697103 0.88574612
-7.0362034 -1.0727334 0.90451741
-7.0615692 -1.0732498 0.92423463
-7.1433582 -1.0759292 0.98779845
-7.1621666 -1.0758171 1.0024244
-7.175281 -1.0770743 1.0126071
-7.2072043 -1.0782192 1.0374155
-7.2317066 -1.0767374 1.0564848
-7.2570724 -1.0772538 1.076202
-7.2946863 -1.079529 1.105422
-7.3519754 -1.0811906 1.149948
-7.4026833 -1.1022208 1.1891305
-7.4372683 -1.1154001 1.2158686
-7.5103025 -1.1462862 1.2722964
-7.8382254 -1.0775316 1.5280753
-8.0610924 -0.6804508 1.7059982
-8.0785704 -0.64581382 1.7199919
-8.3058386 -0.4024229 1.8995442
-8.3185606 -0.3676883 1.9098411
-8.3692923 -0.36873096 1.9492755
-8.432272 -0.37149543 1.9982135
-8.4641953 -0.37266636 2.0230219
-8.5083675 -0.37555915 2.0573339
-8.4825678 -0.48710829 2.0359724
-8.445446 -0.48666704 2.0071137
-8.1449451 -0.64166385 1.7716503
-8.361927 -1.0979843 1.9350426
-8.4380198 -1.1045477 1.9941318
-8.4764948 -1.1113675 2.0239687
-8.5836525 -1.1120255 2.1072817
-8.4821835 -1.1149392 2.0283499
-8.3627386 -1.1475551 1.9350953
-8.0909634 -1.2995265 1.7220032
-8.0782557 -1.3217628 1.711863
-8.009057 -1.403126 1.6571083
-7.9893427 -1.4399221 1.6413498
-7.9737043 -1.4401155 1.6291883
-0.34323406 -1.2426627 -4.3015985
-0.31958818 -1.2423713 -4.3199811
-0.29600811 -1.2363815 -4.3382459
-0.21685886 -1.2250495 -4.3996563
-0.16568375 -1.222024 -4.4394126
-0.12158394 -1.2193244 -4.473671
-0.18254375 -1.1775916 -4.4257846
-0.219594 -1.1602473 -4.3967738
-0.3171773 -1.1616826 -4.3209143
-0.40306807 -1.1552267 -4.254055
-0.51688528 -1.1392312 -4.1653695
-0.53540707 -1.1318088 -4.1508813
-0.66960526 -1.1556723 -4.0468135
-0.71369362 -1.1485121 -4.0124488
-0.80187559 -1.1266925 -3.9436283
-0.86026859 -1.1337242 -3.8983064
-0.92997885 -1.1246569 -3.8439972
-0.99253464 -1.1097434 -3.7951829
-1.0109982 -1.1069894 -3.7807946
-1.0837059 -1.1182151 -3.7243915
-0.9955163 -1.1475334 -3.7933052
-0.8817234 -1.158762 -3.8819163
-0.85610342 -1.1581693 -3.9018302
-0.83048439 -1.1575763 -3.9217436
-0.80486202 -1.1594832 -3.9416885
-0.73514795 -1.1735497 -3.9960589
-0.65412807 -1.1912174 -4.0592623
-0.62850428 -1.1956236 -4.0792375
-0.5844183 -1.2002845 -4.1135712
-0.50601864 -1.2346017 -4.174931
-0.48282433 -1.2344487 -4.1929641
-0.40068865 -1.2430518 -4.2569294
-0.37510014 -1.2426021 -4.2768207
-8.1307211 1.2707565 1.782897
-8.1495275 1.2684188 1.7974932
-8.2256298 1.2718554 1.8567064
-8.3205395 1.2754543 1.9305456
-8.4088917 1.279736 1.999294
-8.4596252 1.281194 2.038759
-8.5291796 1.3003116 2.0930641
-8.5479898 1.3029735 2.1077211
-8.5226212 1.3009946 2.0879731
-8.4465237 1.3025575 2.0288215
-8.4399662 1.3032403 2.0237305
-8.4211578 1.3030784 2.009104
-8.4023495 1.302916 1.9944777
-8.3090248 1.2992847 1.9218705
-8.3086147 1.2993274 1.9215524
-8.3062639 1.2993071 1.9197242
-8.2322025 1.2936692 1.8620715
-8.1871548 1.2837412 1.8269289
-8.1110611 1.2903032 1.7678385
-8.0235691 1.2788107 1.6996751
-7.978529 1.2788811 1.6646545
-7.9032931 1.2757328 1.6061182
-7.9793911 1.2741702 1.6652703
-8.0301228 1.2731283 1.704705
-8.0546265 1.2773185 1.7238066
-8.0988007 1.2769597 1.7581501
-8.9937992 -1.2108111 2.4250402
-8.9970779 -1.2111359 2.4275856
-9.1137171 -1.1417391 2.5190883
-9.143796 -1.1322296 2.5425868
-9.1080513 -1.1181698 2.5149574
-5.8810172 -0.85929328 0.0087893903
-5.72857 -0.39766413 -0.10436189
-5.7050781 -0.33834881 -0.12193614
-5.7286749 -0.32767451 -0.1034638
-5.7663469 -0.32738161 -0.074168533
-5.7728562 -0.32808834 -0.069115222
-5.8249431 -0.33867592 -0.028738499
-5.8890247 -0.33727837 0.021104395
-5.9684143 -0.33209705 0.082894474
-6.0372591 -0.32330573 0.13652727
-6.0632906 -0.33113188 0.15667692
-6.0697927 -0.33683789 0.16166624
-6.2275891 -0.40113062 0.28361115
-6.2717705 -0.40154445 0.31795964
-5.6364217 -1.2536998 -0.18599688
-5.6194091 -1.2395916 -0.19906044
-5.3037372 -1.2125058 -0.44419608
-5.1987791 -1.2541063 -0.52629167
-5.0980935 -1.2000802 -0.60394973
-4.8290091 -1.1833181 -0.81298149
-4.7453666 -1.2086589 -0.87831354
-4.7126756 -1.1973143 -0.9036001
-4.5505052 -1.2172363 -1.0299287
-4.2673693 -1.2110865 -1.2500097
-4.2603512 -1.2176423 -1.2555434
-4.2232466 -1.2062225 -1.284261
-4.1764641 -1.1979916 -1.3205407
-4.0538626 -1.2160447 -1.4160802
-3.9989727 -1.2185028 -1.4587888
-3.9746113 -1.2181239 -1.4777267
-3.9458227 -1.2151701 -1.5000767
-3.9234288 -1.2123172 -1.5174558
-3.878572 -1.0724781 -1.5507032
-3.9411592 -1.0668051 -1.5019722
-4.010901 -1.0795715 -1.4478934
-4.0550852 -1.0956836 -1.4137257
-4.292336 -1.0990109 -1.2292898
-4.4844708 -1.074569 -1.0796095
-4.5241671 -1.076858 -1.0487705
-4.5797081 -1.0727422 -1.0055364
-4.6052861 -1.0731461 -0.9856528
-4.6493549 -1.068012 -0.9513272
-4.700551 -1.0763183 -0.91161644
-4.7587376 -1.0730696 -0.86633521
-4.8354845 -1.0767806 -0.80670393
-4.8795671 -1.074146 -0.77239668
-5.0719051 -1.0871971 -0.62299609
-5.0927277 -1.0950239 -0.60689676
-5.199697 -1.1703861 -0.52460146
-5.2848649 -1.1886413 -0.45859182
-5.6066375 -1.0732026 -0.20705044
-5.6319828 -1.0737629 -0.1873495
-6.2247696 1.3154721 0.30144206
-6.2057619 1.3158953 0.2866675
-6.1932592 1.3156228 0.2769427
-6.0647197 1.2790394 0.17656967
-6.0458808 1.278908 0.16191998
-5.995194 1.2800364 0.12252149
-5.9698462 1.2781012 0.10278967
-5.9893646 1.2785141 0.11797115
-6.0020366 1.2782321 0.12782088
-6.0588779 1.2700183 0.17192206
-6.1342363 1.2730432 0.23055246
-6.1407413 1.2723475 0.23560229
-6.2150435 1.2749014 0.29340622
-6.24862 1.2693954 0.31944951
-6.2822142 1.2738876 0.34562287
-6.3623452 1.2779639 0.40797672
-2.8059278 -1.0817132 -2.3848479
-2.7690029 -1.0847216 -2.4135942
-2.7505414 -1.0849762 -2.4279518
-2.7362227 -1.0857813 -2.4390948
-2.7136188 -1.085485 -2.4566669
-2.6808388 -1.0865448 -2.4821677
-2.6409023 -1.0842576 -2.5131936
-2.6039796 -1.0847664 -2.541909
-2.5712037 -1.080827 -2.5673478
-2.8070471 -0.6316843 -2.3787284
-2.7046485 -0.38038421 -2.4554174
-2.7074406 -0.35349911 -2.4529328
-2.7142918 -0.34061342 -2.4474552
-2.7440476 -0.3135159 -2.4240026
-2.9046695 -0.15413764 -2.2972517
-2.9174633 -0.15432975 -2.2873061
-3.0712497 -0.19335347 -2.1681843
-3.1840801 -0.15716079 -2.0800304
-3.1920743 -0.1547811 -2.073787
-3.1955786 -0.197256 -2.0715575
-3.1608028 -0.2769208 -2.0995266
-3.1257885 -0.39665109 -2.1281488
-3.1460552 -0.59654379 -2.114722
-3.0901914 -0.73069096 -2.1597238
-3.0975397 -1.0586576 -2.1578355
-3.039279 -1.0548925 -2.2030923
-3.0207717 -1.0525055 -2.2174549
-2.9053953 -1.0787885 -2.3074727
-2.8684726 -1.0792973 -2.3361881
-5.0406723 1.2518356 -0.61999792
-5.0745077 1.2430243 -0.59379208
-5.0848098 1.244472 -0.58576477
-5.1288919 1.2471066 -0.55145794
-5.1870794 1.2503552 -0.50617623
-5.2311611 1.2529898 -0.47186935
-5.2496667 1.2560282 -0.4574452
-5.2817221 1.2576628 -0.43250126
-5.3135834 1.2639019 -0.40765458
-5.2681575 1.2615662 -0.44300282
-5.1914387 1.2602782 -0.50267094
-5.091733 1.2685246 -0.58010095
-5.0776143 1.2704103 -0.59105718
-4.9893818 1.2776387 -0.65957803
-9.5256596 -1.1180508 2.8396716
-9.6700687 -1.1215582 2.9519165
-5.7311649 -1.2548091 -0.11234221
-5.6758795 -1.264149 -0.15543848
-5.7242761 1.2836113 -0.088089556
-5.6612468 1.2789135 -0.13715303
-5.6098881 1.2847595 -0.17701901
-5.6229019 1.2858682 -0.16688696
-5.6605754 1.2836311 -0.13762009
-5.6800942 1.2840443 -0.12243819
-5.704762 1.2856979 -0.10323861
-5.7366099 1.2844381 -0.078489751
-5.7937975 1.2801144 -0.034073859
-5.863328 1.2816172 0.020007044
-5.7931261 1.284832 -0.034540921
-6.7398577 -0.55673015 0.680112
-6.7519417 -0.69347137 0.6879127
-6.7471266 -0.78598732 0.68308985
-2.0273492 1.3162034 -2.9622636
-1.9711368 1.3019314 -3.0061381
-1.9085844 1.3003006 -3.0547948
-1.8318024 1.3170202 -3.1143019
-1.7821758 1.3206317 -3.1528471
-1.7251964 1.32111 -3.1971459
-1.7108617 1.3194633 -3.2083111
-1.6811168 1.3218317 -3.2314117
-1.6711714 1.3230186 -3.239131
-1.6965528 1.3228159 -3.219398
-1.7150121 1.3226683 -3.2050467
-1.7406459 1.324594 -3.1850924
-1.7734268 1.3235936 -3.1596153
-1.8140323 1.3204002 -3.1280797
-1.8206959 1.3203008 -3.1228995
-1.8244159 1.3203173 -3.1200068
-1.8544126 1.3200777 -3.0966856
-1.8943543 1.318651 -3.0656455
-1.9381955 1.3183005 -3.0315607
-1.9625425 1.3179212 -3.012634
-1.9833593 1.3174548 -2.9964535
-2.0379181 1.3217647 -2.9539807
-2.1076181 1.3204691 -2.8998005
-2.1844659 1.3162477 -2.8400967
-2.2100995 1.3181734 -2.8201427
-2.2617517 1.3131304 -2.7800393
-2.299078 1.3119783 -2.7510295
-2.3125544 1.3108785 -2.7405636
-2.3279774 1.3093631 -2.7285891
-2.3863657 1.3052893 -2.6832368
-2.4119861 1.3047154 -2.6633222
-2.3679326 1.310436 -2.6975093
-4.7679334 1.2821393 -0.83171344
-4.7459559 1.279 -0.84883869
-4.7062736 1.2787895 -0.87969625
-4.6736507 1.2776365 -0.90507573
-4.6392455 1.2781911 -0.93182099
-4.6251407 1.2775767 -0.9427954
-4.6066089 1.2795374 -0.95718181
-4.5854311 1.2823656 -0.97361565
-4.5739584 1.2833836 -0.98252439
-4.5431633 1.2839024 -1.0064631
-4.4972119 1.2870946 -1.0421556
-4.5227623 1.2916899 -1.0222352
-4.5784731 1.284663 -0.97899914
-4.5934105 1.284739 -0.96738374
-4.6295137 1.2850001 -0.9393084
-4.6550913 1.2845962 -0.91942525
-4.6762686 1.2817683 -0.90299177
-4.707634 1.2815328 -0.87860656
-4.7574015 1.2829809 -0.83989263
-4.0050154 1.3015497 -1.4246957
-4.0676298 1.3022234 -1.3760018
-4.0746884 1.3012807 -1.3705242
-4.1513805 1.3075678 -1.3108188
-4.2140226 1.3032427 -1.262162
-4.2281275 1.3038568 -1.2511874
-4.2325411 1.3037815 -1.2477565
-4.272264 1.2964933 -1.2169548
-4.1743803 1.2955337 -1.2930756
-4.1329165 1.2970309 -1.3252984
-4.0862293 1.287765 -1.3617084
-3.9822598 1.2685921 -1.4427738
-3.8983998 1.2832441 -1.5078082
-3.8798814 1.2827051 -1.5222136
-3.8728223 1.2836478 -1.5276915
-3.8401852 1.2849944 -1.5530527
-3.9238415 1.3078356 -1.4877391
-3.9864967 1.3010108 -1.4391011
-6.2894621 -1.1637857 0.32282475
-6.2452807 -1.1633718 0.28847626
-6.2264442 -1.1635182 0.27382836
-6.1127396 -1.1596308 0.1854625
-6.0997162 -1.1607168 0.1753234
-6.0584731 -1.1395259 0.14350185
-5.8482218 -1.1362851 -0.019941956
-5.7643328 -1.2049854 -0.085971355
-6.9317007 1.2702034 0.85058975
-6.9507251 1.2698123 0.86537755
-6.9758754 1.2698104 0.88493323
-6.9915133 1.2700038 0.89709473
-7.0134954 1.2725666 0.91421688
-7.0257459 1.2733445 0.92375159
-7.0323038 1.2726948 0.9288429
-7.1075459 1.2807069 0.98744118
-7.158277 1.279664 1.0268753
-7.2090092 1.2786214 1.0663098
-7.1337643 1.2681098 1.0076804
-7.0832481 1.2686331 0.96840763
-7.4871655 1.2699647 1.2824897
-7.5686998 1.2687662 1.345873
-7.6006269 1.2725616 1.3707423
-7.5567083 1.2715497 1.3365815
-7.5256538 1.2756431 1.312483
-7.4869142 1.2762995 1.2823683
-7.4427395 1.2766583 1.2480246
-7.4364386 1.2760067 1.2431177
-9.1022539 -0.43011165 2.5184755
-9.2049561 -0.37469661 2.5989785
-9.134244 -0.3712905 2.5440354
-1.6609313 -1.0906692 -3.2752471
-1.624011 -1.0886784 -3.3039315
-1.5686245 -1.0919414 -3.3470354
-1.6168504 -1.0903308 -3.3095183
-1.4904761 1.3255701 -3.3796012
-1.3952608 1.3474364 -3.4533811
-1.3296068 1.3319399 -3.5046113
-1.2785916 1.3302171 -3.5442984
-1.2074728 1.3175483 -3.5997446
-1.2259321 1.3174009 -3.5853932
-1.2628384 1.3146062 -3.5567293
-1.2955933 1.3086064 -3.5313308
-1.3068919 1.3088853 -3.5225422
-1.3509715 1.3081641 -3.4882762
-1.4135895 1.3222928 -3.4394228
-1.4576688 1.3215714 -3.4051573
-1.4791648 1.3227918 -3.3884287
-1.5202079 1.3207023 -3.35654
-1.567337 1.3238485 -3.3198578
-1.5426519 1.3251994 -3.339036
-1.529026 1.3245237 -3.3496387
-1.5197964 1.3245976 -3.3568144
-1.4976373 1.3251438 -3.374038
-5.8886709 1.2810528 0.039706081
-5.8821616 1.2792487 0.034623861
-6.6911569 1.2741177 0.66359997
-6.6987057 1.2748635 0.6694783
-6.7146673 1.2742779 0.68188274
-6.7398715 1.2741461 0.70147848
-6.7435598 1.2737808 0.70434213
-6.7353315 1.2737246 0.69794333
-6.9120312 1.274652 0.83534777
-6.9693232 1.2754593 0.87990451
-9.1288166 1.3026261 2.559341
-9.058588 1.2917411 2.5046074
-9.0207825 1.2853954 2.475137
-8.9831629 1.2825716 2.4458535
-8.9389887 1.2829301 2.41151
-8.91362 1.2784517 2.3917315
-8.9709053 1.2717276 2.4361959
-9.0150833 1.2763681 2.4706004
-9.0592556 1.2735097 2.5049138
-9.1165504 1.2792838 2.5495307
-9.1795282 1.2715883 2.5984097
-9.1729956 1.3072665 2.5937462
-9.2049122 1.2960639 2.618432
-2.3907304 -1.0864217 -2.7077405
-2.2739372 -1.0798569 -2.7984769
-2.2554736 -1.0826111 -2.8128653
-2.2769508 -1.082653 -2.7961662
-2.9277201 1.3213484 -2.2621181
-2.8490605 1.3428488 -2.3230293
-2.7294219 1.3047321 -2.4164991
-2.7100105 1.305968 -2.4315779
-2.658031 1.3055334 -2.4719999
-2.6317341 1.3053744 -2.4924488
-2.5770326 1.3065498 -2.5349686
-2.5370774 1.3054771 -2.5660484
-2.518049 1.3073559 -2.580822
-2.5073326 1.3078451 -2.5891488
-2.4816861 1.3034198 -2.6091418
-2.5114439 1.3035512 -2.5860021
-2.5257659 1.3026986 -2.5748761
-2.5657079 1.3012717 -2.5438356
-2.6067512 1.2991824 -2.5119467
-2.653841 1.2948296 -2.4753828
-2.690773 1.2970343 -2.4466405
-2.7235541 1.2960339 -2.4211631
-2.7611935 1.2976909 -2.3918772
-2.7860935 1.2951648 -2.3725457
-2.7973919 1.2954438 -2.3637574
-2.8237922 1.2975597 -2.343205
-2.8414977 1.2997215 -2.3294129
-2.8784297 1.3019261 -2.3006706
-2.9233966 1.3026857 -2.2656977
-2.9604049 1.305443 -2.2368896
-2.9862792 1.3039222 -2.2167888
-3.0300906 1.2997947 -2.1827712
-3.08834 1.3084981 -2.1373775
-3.0072293 1.3159997 -2.2003579
-6.8746281 1.2713764 0.80622637
-6.8385959 1.2710874 0.77820611
-6.817986 1.2715108 0.76218593
-6.867857 1.2750449 0.80100441
-6.8048773 1.2778094 0.75206649
-1.7961903 -1.0919805 -3.1700914
-1.8289661 -1.0959198 -3.1446524
-1.8986714 -1.0918517 -3.0904057
-1.9099746 -1.0907502 -3.081604
-1.8771966 -1.0893102 -3.1070738
-1.8444185 -1.0878704 -3.1325436
-1.8351879 -1.0879974 -3.1397223
-1.8187988 -1.0872777 -3.1524572
-1.7705708 -1.0913877 -3.1900051
-1.976666 -1.0838859 -3.0296676
-2.0750027 -1.0857062 -2.953227
-1.9796753 -1.0916812 -3.0274186
-1.939739 -1.0893941 -3.0584447
-1.9582026 -1.0866401 -3.0440562
-2.0734582 1.3150043 -2.9264255
-2.1378367 1.3137283 -2.8763826
-2.170131 1.3146012 -2.8512619
-2.1842144 1.3141193 -2.840317
-2.2029123 1.3136008 -2.8257844
-2.2541528 1.3124528 -2.7859557
-2.2838979 1.3100846 -2.7628551
-2.2998636 1.3109801 -2.7504303
-1.5778351 1.3241453 -3.3116915
-1.6042688 1.3260531 -3.2911158
-1.6340139 1.3236847 -3.2680151
-1.6250725 1.323087 -3.2749743
-1.6083806 1.321759 -3.2879689
-1.5857966 1.3237009 -3.3055065
-0.21411085 0.26887897 -4.3843675
-0.24238777 0.30851015 -4.3619184
-0.24120569 0.38853389 -4.3619041
-0.2147398 0.38886076 -4.3824792
-0.21592188 0.308837 -4.3824935
-2.4532773 -1.0815065 -2.6590497
-2.4788971 -1.0820992 -2.6391361
-2.4461169 -1.0831587 -2.6646366
-0.96559191 1.3224347 -3.7877629
-1.0496397 1.3252857 -3.7223778
-1.068099 1.3251383 -3.7080264
-1.0465903 1.3214183 -3.7247939
-0.96971655 1.3206406 -3.7845767
-0.92149925 1.3206565 -3.822068
-1.1873336 -1.0958447 -3.6435544
-1.2016525 -1.0950396 -3.6324112
-1.2344279 -1.098979 -3.6069727
-1.1718793 -1.1063938 -3.655694
0 0 0 1 0 0 0 1 0 0 0 1 0 0 0 0 0 577 1 0 0
