ply
format ascii 1.0
comment PCL generated
element vertex 608
property float x
property float y
property float z
element camera 1
property float view_px
property float view_py
property float view_pz
property float x_axisx
property float x_axisy
property float x_axisz
property float y_axisx
property float y_axisy
property float y_axisz
property float z_axisx
property float z_axisy
property float z_axisz
property float focal
property float scalex
property float scaley
property float centerx
property float centery
property int viewportx
property int viewporty
property float k1
property float k2
end_header
-10.95494 -1.0835686 -0.94320792
-11.003223 -1.0634931 -0.95790595
-11.027765 -1.0212532 -0.96523148
-11.022135 -0.93346798 -0.96310788
-11.06641 -0.63620687 -0.97531945
-10.914474 -0.41289622 -0.9277665
-10.886685 -0.39281088 -0.91916364
-10.775276 0.027888931 -0.88312787
-10.768653 0.050377592 -0.88099676
-10.805084 0.32793164 -0.89089507
-10.802111 0.44792238 -0.88943928
-10.844583 0.5851869 -0.90182489
-10.844895 0.63268554 -0.90170497
-10.820131 0.76775271 -0.89350611
-10.845066 0.88767606 -0.90059906
-10.865511 1.007555 -0.90631658
-10.894219 1.127466 -0.91456562
-10.836325 1.1601517 -0.89668387
-10.800277 1.1700944 -0.88559693
-10.655443 1.256349 -0.84084219
-10.62093 1.2889789 -0.83012253
-10.538928 1.3292565 -0.80482203
-10.507141 1.3295038 -0.79508442
-10.477751 1.3295316 -0.78608221
-10.057205 1.2844181 -0.65747243
-10.027028 1.2870171 -0.64821738
-10.008883 1.2871391 -0.64265865
-9.9240875 1.2928967 -0.61665958
-9.9090405 1.2928729 -0.61205059
-9.9664469 1.2850161 -0.6296702
-10.116594 1.2113253 -0.67599565
-10.474979 1.1294606 -0.78614181
-10.5466 0.96887368 -0.80880898
-10.554886 0.84881699 -0.81189257
-10.553835 0.68882138 -0.81229705
-10.569884 0.60881269 -0.81757659
-10.566395 0.52873588 -0.8168717
-10.576403 0.44875485 -0.82030028
-10.58462 0.32880956 -0.82336181
-10.576773 0.27626202 -0.82119733
-10.573797 0.16878 -0.82077414
-10.574787 0.14626609 -0.82117957
-10.585443 0.10879367 -0.82461399
-10.574427 -0.081235059 -0.82210225
-10.574211 -0.11373415 -0.82218426
-10.549045 -0.25097135 -0.81509882
-10.590315 -0.29114613 -0.82792264
-10.765968 -0.49231035 -0.88263959
-10.791232 -0.692653 -0.8912881
-10.519349 -1.1059856 -0.80988687
-10.434505 -1.1077276 -0.78390664
-10.495052 -1.1107264 -0.80246621
-10.518924 -1.1128912 -0.80978805
-10.579521 -1.1083903 -0.82832867
-10.64007 -1.1113892 -0.8468886
-10.700462 -1.109091 -0.86537677
-10.761166 -1.1173869 -0.88400799
-10.797434 -1.1226268 -0.89514071
-10.821494 -1.1250885 -0.90252155
-10.89426 -1.1005691 -0.92469889
-10.930407 -1.0955122 -0.93574756
-4.2068 -1.1820582 1.1233217
-4.3465457 -1.1634655 1.0806016
-4.4377027 -1.1418369 1.0527781
-4.6077805 -1.0706767 1.0010061
-4.6428237 -1.064725 0.99029917
-4.3569121 -0.60245484 1.0799747
-4.4439497 -0.44435298 1.0540329
-4.476963 -0.36449844 1.0442836
-4.5641289 -0.2416116 1.0181425
-4.3607397 -0.24231175 1.0804381
-4.3122258 -0.22927642 1.0953573
-4.249948 -0.24369004 1.1143677
-4.0233073 -0.32214469 1.1834321
-4.0006666 -0.32062382 1.190374
-3.9588599 -0.31761247 1.2031932
-3.9271975 -0.3199974 1.2128807
-3.907887 -0.32159072 1.2187883
-3.8763509 -0.32661092 1.228425
-3.7915616 -0.32844329 1.254388
-3.7193031 -0.31859067 1.2765658
-3.6808054 -0.31838343 1.2883587
-3.5982776 -0.32988173 1.313585
-3.5609546 -0.32866722 1.3250227
-3.5485134 -0.32826236 1.3288352
-3.501029 -0.33380911 1.3433547
-3.4161103 -0.35314029 1.3692777
-3.3810482 -0.35837248 1.3799937
-2.9810476 -0.34048203 1.5025964
-2.9473279 -0.31536055 1.5130389
-2.9269853 -0.3152867 1.5192703
-2.8727562 -0.31258988 1.5358931
-2.8057539 -0.35448527 1.5562258
-2.8297613 -0.39475071 1.5486894
-2.8717959 -0.44258136 1.5355967
-3.0150881 -0.62809443 1.4908631
-2.7801273 -1.0597068 1.5608718
-2.6716514 -1.056813 1.5941116
-2.6491046 -1.0556698 1.601023
-2.6117811 -1.0544554 1.6124607
-2.5744393 -1.0557407 1.6238928
-2.4231067 -1.0609366 1.6702228
-2.3994217 -1.0583035 1.6774898
-2.3607874 -1.0610437 1.689311
-2.302187 -1.0556231 1.7072852
-2.2535651 -1.0555328 1.7221785
-2.3009443 -1.0582991 1.7076535
-2.3483143 -1.0635651 1.69312
-2.4330759 -1.0687672 1.6671336
-2.520323 -1.0686171 1.6404102
-2.5427742 -1.0714263 1.6335206
-2.5552382 -1.0714047 1.629703
-2.6263111 -1.0743041 1.6079199
-2.6512299 -1.0767612 1.6002761
-2.6749148 -1.0793943 1.5930094
-2.6873786 -1.0793729 1.5891918
-2.7247796 -1.0768087 1.5777473
-2.7621803 -1.0742444 1.566303
-2.8411746 -1.0606477 1.5421686
-2.9146626 -1.0619936 1.5196528
-2.9271038 -1.0623984 1.5158403
-2.9994333 -1.0626611 1.4936843
-3.1689751 -1.063996 1.4417471
-3.1790624 -1.067234 1.4386426
-3.2039444 -1.0680438 1.4310174
-3.2537458 -1.0646634 1.4157784
-3.1051683 -0.67663902 1.4630508
-3.4677646 -0.3983261 1.3532506
-3.5851717 -0.41947091 1.3171924
-3.6398504 -0.4402082 1.30035
-3.6760154 -0.44033957 1.2892718
-3.802161 -0.42025882 1.2507243
-3.9176712 -0.99743652 1.2127213
-3.9131322 -0.99992001 1.2141004
-3.725121 -1.0574543 1.2714275
-3.7126615 -1.0595495 1.2752343
-3.6628418 -1.0654294 1.2904675
-3.5567198 -1.0597024 1.3229991
-3.506918 -1.0630828 1.3382382
-3.5679653 -1.0640237 1.319535
-3.9660873 -1.1815438 1.1970551
-3.8700337 -1.1815548 1.2264764
-6.7161112 1.2768513 0.36588097
-6.9587188 1.3676064 0.29198179
-6.9707079 1.3676056 0.28830943
-7.1398849 1.2683716 0.23603919
-7.1155581 1.2686609 0.24349192
-7.0833883 1.2692387 0.25334826
-7.0720825 1.2692934 0.25681156
-7.0429239 1.269241 0.26574269
-6.9826479 1.2720324 0.28421798
-6.9340124 1.2751111 0.29912916
-6.8613782 1.275691 0.32137993
-6.8250618 1.2759811 0.33250508
-7.1196756 -0.3891553 0.23470023
-7.0767288 -0.4090535 0.24776462
-7.0524063 -0.4087832 0.25521582
-7.004097 -0.40848124 0.27001458
-6.9921041 -0.40846539 0.27368805
-6.9797745 -0.40821087 0.27746582
-6.967782 -0.40819508 0.28113928
-6.9194722 -0.40789318 0.29593801
-6.8142629 -0.42714339 0.32807657
-6.6894875 -0.41865993 0.36633417
-6.7469282 -0.30647677 0.34924948
-6.8593283 -0.34483883 0.31464681
-6.9923592 -0.33322933 0.27395165
-7.101326 -0.33158788 0.24058229
-7.1132603 -0.3391034 0.23689249
-4.1107464 -1.1820692 1.1527431
-4.1344705 -1.1817955 1.1454777
-4.1581945 -1.181522 1.1382122
-3.9898112 -1.1812705 1.1897895
-4.0384169 -1.1818064 1.1748991
-4.0632997 -1.1826161 1.1672738
-5.7526379 -0.059660621 0.65492493
-5.2847419 -0.3539916 0.79690599
-5.7122245 0.020759016 0.66766906
-5.7196522 0.080774002 0.66566658
-5.7234807 0.090774551 0.66453928
-5.7585807 0.10035171 0.65383154
-6.1374693 0.058019362 0.53758448
-5.7830901 -0.034913085 0.64570975
-8.7666893 -1.3161287 -0.27399617
-8.8514194 -1.3042105 -0.29989499
-9.1837749 -1.1664149 -0.40107065
-9.2451172 -1.1668591 -0.41986209
-9.2572594 -1.1669514 -0.42358166
-9.3003559 -1.1123083 -0.43653423
-9.2084799 -0.8065868 -0.40700346
-9.2255802 -0.6467036 -0.41151494
-9.7598715 -0.57040405 -0.57482356
-9.9217396 -0.47154015 -0.62395543
-9.9377766 -0.45165253 -0.62877697
-9.9501019 -0.41172457 -0.63237089
-9.9317722 -0.32748407 -0.62637407
-9.8256226 -0.36834827 -0.59404534
-9.4268875 -0.34562632 -0.47180849
-9.3542929 -0.34261581 -0.44955891
-9.2213745 -0.30416656 -0.40867096
-9.1491365 -0.28619939 -0.38646263
-9.1370773 -0.29112846 -0.38279098
-9.1349134 -0.36610112 -0.382469
-9.1673622 -0.48634559 -0.39295441
-9.1638784 -0.64632457 -0.39261383
-9.1635742 -0.6863234 -0.3927024
-9.1464748 -0.84620667 -0.38819116
-8.8191814 -1.1639773 -0.28938353
-8.5251808 -1.2018729 -0.19950211
-8.439436 -1.2013524 -0.17323601
-8.2476006 -1.1199467 -0.11410654
-8.1993113 -1.1146207 -0.099291027
-8.1206493 -1.1190746 -0.075216949
-8.0541239 -1.1085997 -0.054792404
-7.9938121 -1.1032029 -0.036294103
-7.897398 -1.1025935 -0.0067593455
-7.8971562 -1.1025509 -0.0066851974
-7.836565 -1.1021107 0.011876047
-7.7644548 -1.0991862 0.033977032
-7.715663 -1.0962744 0.048935294
-7.6637378 -1.0931463 0.064854443
-7.6517439 -1.0931305 0.068528175
-7.6277575 -1.0930989 0.075875401
-7.6157641 -1.093083 0.079549134
-7.6034355 -1.0928285 0.083326638
-7.5917778 -1.0930516 0.08689642
-7.5704565 -1.0927532 0.093428612
-7.5431528 -1.0900109 0.1018042
-7.4945278 -1.0869703 0.11671203
-7.3132663 -1.0882783 0.17222705
-7.4863043 -1.0922575 0.11920679
-7.6768103 -1.1960858 0.060382605
-7.8599896 -1.2473336 0.0040414333
-7.9133492 -1.2776899 -0.012440741
-8.089469 -1.2989348 -0.06648314
-8.1015091 -1.2965058 -0.07016027
-8.1678829 -1.279417 -0.090412974
-8.3436565 -1.2631804 -0.14417928
-8.4162502 -1.2661908 -0.16642863
-8.4887486 -1.281701 -0.18870562
-8.6334286 -1.322678 -0.23320764
-8.6939631 -1.3306175 -0.25178564
-8.7248707 -1.3233073 -0.26121944
-0.65610313 -1.1464965 2.2110732
-0.71595526 -1.1467414 2.192739
-0.76581001 -1.1466556 2.1774688
-0.77704048 -1.1468103 2.1740282
-0.8019681 -1.1467674 2.166393
-0.81319857 -1.1469221 2.1629522
-0.82566214 -1.1469005 2.1591346
-0.87305069 -1.1471667 2.1446183
-0.97581959 -1.1273382 2.11323
-1.0900068 -1.1453371 2.0781722
-1.1524534 -1.1102303 2.0592041
-1.2835388 -1.0882552 2.0191522
-1.3154078 -1.08832 2.0093901
-1.3515658 -1.0884316 1.9983144
-1.401052 -1.0886183 1.9831557
-1.5030203 -1.0511937 1.9520926
-1.5753541 -1.046417 1.9299581
-1.6127548 -1.0438528 1.9185138
-1.6589274 -1.0392952 1.9043918
-1.6240034 -1.0390073 1.9150903
-1.5866117 -1.0390717 1.9265432
-1.465683 -1.0362581 1.9635968
-1.4058404 -1.0335133 1.9819393
-1.3696828 -1.0334016 1.9930151
-1.2849116 -1.0306996 2.0189931
-1.23629 -1.0306094 2.0338864
-1.2113619 -1.0306523 2.0415218
-1.2001228 -1.0329976 2.0449536
-1.1028519 -1.0403169 2.0747149
-1.0666947 -1.0402052 2.0857904
-1.042973 -1.0475721 2.0930231
-0.98184156 -1.0600032 2.1116912
-0.8995204 -1.061949 2.1368976
-0.86211014 -1.0670133 2.1483335
-0.78979445 -1.0667897 2.170485
-0.69255114 -1.0666093 2.2002718
-0.64389324 -1.076519 2.2151308
-0.49929762 -1.0660722 2.2594686
-0.45068455 -1.063482 2.2743704
-0.414536 -1.0608704 2.2854548
-0.37836885 -1.0632586 2.2965221
-0.35466576 -1.0656253 2.3037717
-0.22128248 -1.0603333 2.3446515
-0.45038509 -1.145981 2.2740874
-0.53516531 -1.1461829 2.2481182
-0.57132292 -1.1462946 2.2370424
-0.607481 -1.1464063 2.2259667
-0.64487219 -1.146342 2.2145138
-0.18455553 1.3651103 2.3669183
-0.063624859 1.3662118 2.403965
-0.21006346 1.336254 2.358974
-0.23663425 1.3361913 2.3508351
-0.28291893 1.3360791 2.3366575
-0.35130119 1.3258446 2.3156652
-0.39994192 1.3307335 2.3007886
-0.45979452 1.3304952 2.2824547
-0.53334379 1.3303949 2.2599258
-0.58072233 1.3276513 2.2454011
-0.66548204 1.3224237 2.2194152
-0.68917608 1.322302 2.212157
-0.75026226 1.3221961 2.1934457
-0.78641033 1.3195798 2.1823616
-0.90732813 1.3142359 2.1452997
-0.96720934 1.3214977 2.1269908
-1.0644526 1.3212754 2.097204
-1.0881376 1.3186536 2.0899372
-1.0295091 1.3165244 2.1078858
-6.6479673 -1.0783507 0.37605536
-6.660059 -1.0658668 0.37240833
-6.7326703 -1.0689391 0.3501533
-6.7809997 -1.066741 0.33535987
-6.8053012 -1.0695114 0.3279036
-6.8416176 -1.0697975 0.3167786
-6.7569141 -1.079209 0.34268066
-6.70825 -1.0811683 0.3575778
-5.476378 -0.61797637 0.73700815
-5.284493 -0.39149052 0.79681194
-6.7041016 1.274352 0.36954817
-6.6434574 1.2749314 0.38812628
-5.6907859 -1.159116 0.66887623
-5.6422615 -1.1560941 0.68375319
-3.9785285 -1.1819487 1.1932425
-3.3927991 1.3121871 1.3839827
-3.5012922 1.3168377 1.350772
-3.3803451 1.3146816 1.3878087
-3.3192596 1.3147874 1.4065199
-3.2843158 1.3100364 1.4172018
-3.3566413 1.3123035 1.3950584
-5.2369847 1.2836869 0.8189733
-5.1831198 1.2946491 0.83552206
-5.1333127 1.3071275 0.85083473
-5.037303 1.3074822 0.88024437
-5.0123658 1.3049716 0.88787138
-4.9525232 1.3077098 0.90621376
-4.8814316 1.3055753 0.92797971
-4.9662104 1.3053476 0.90201056
-5.0665908 1.2871786 0.87118125
-5.0913906 1.2846841 0.86357373
-5.114687 1.2821892 0.85642666
-5.1267195 1.2821921 0.85274106
-5.1630049 1.2794448 0.84161425
-5.2113061 1.2742002 0.82679558
-5.2839289 1.2762055 0.80456007
-5.3202152 1.2734582 0.79343301
-5.3928204 1.2729636 0.77119154
-5.5017638 1.2772214 0.73784125
-5.4534621 1.2824659 0.75265992
-5.3930602 1.2777082 0.77113962
-5.3808227 1.2779608 0.77488923
-5.2964063 1.2806975 0.8007586
-7.8439808 1.2719764 0.020388722
-7.8919277 1.2698497 0.0056927204
-7.9041529 1.2695717 0.0019468665
-7.9714561 1.2640836 -0.018693149
-8.0130234 1.263852 -0.031426489
-8.0854712 1.2686689 -0.053595483
-8.1700792 1.2632083 -0.079535961
-8.2063961 1.2654682 -0.090649962
-8.2914782 1.2744129 -0.11667007
-8.2550049 1.27745 -0.10548443
-8.1825581 1.2726328 -0.083315432
-8.1460524 1.2706699 -0.07214272
-8.1099558 1.2731128 -0.061075032
-8.0858631 1.2705748 -0.053706884
-8.0132608 1.2710546 -0.031466484
-7.9647017 1.2665728 -0.016613007
-4.9344034 -1.0754415 0.90093875
-5.0383945 -1.0881505 0.86902815
-5.0744758 -1.0905943 0.85796523
-5.0985575 -1.088057 0.85060048
-5.3277555 -1.1566921 0.78008461
-5.5455136 -1.1984439 0.71319491
-5.5818167 -1.1986864 0.70207405
-5.739326 -1.1596383 0.65400589
-5.8413944 -1.1400781 0.62283075
-5.8541784 -1.1400583 0.61891508
-5.8420444 -1.1399277 0.6226325
-5.8179784 -1.1399651 0.63000381
-5.7148509 -1.1590787 0.66150516
-5.7028184 -1.1590974 0.6651907
-4.9593043 -1.0737513 0.89331919
-5.0678167 -1.0716454 0.86009097
-5.0904012 -1.0677888 0.8531909
-5.1514482 -1.0687298 0.83448768
-5.2078543 -1.0615834 0.8172428
-5.2516851 -1.056777 0.80383909
-4.8620925 -1.072679 0.92310035
-4.8496518 -1.0722742 0.92691278
-4.8247881 -1.0689646 0.93454373
-4.8123651 -1.0660599 0.93836212
-3.5499139 1.3167266 1.3358785
-3.6583779 1.3138772 1.3026427
-3.6820915 1.3187554 1.2954013
-3.6957886 1.3188932 1.2912064
-3.7544265 1.3235223 1.2732666
-3.7905746 1.320906 1.2621824
-3.8516216 1.3108004 1.2434375
-3.8890033 1.3083166 1.2319762
-3.9613099 1.3055835 1.209816
-3.9850039 1.3054618 1.2025579
-4.0710068 1.3028669 1.176203
-3.9986818 1.3005997 1.1983463
-3.9625239 1.3007163 1.2094221
-3.9139118 1.3033273 1.224324
-3.8415766 1.2985603 1.2464588
-3.6845102 1.3065206 1.2946049
-3.6234343 1.3091264 1.3133245
-3.5997403 1.3092481 1.3205826
-3.5623584 1.3117319 1.3320441
-3.5386643 1.3118538 1.3393022
-2.7338359 1.3040814 1.5857885
-2.7462997 1.3040867 1.5819707
-2.7712274 1.3040974 1.5743353
-2.8242211 1.3012906 1.5580904
-2.8616126 1.3013068 1.5466374
-2.9339285 1.3010739 1.5244857
-2.9813361 1.3058302 1.5099862
-2.8965561 1.3060578 1.5359557
-2.7868588 1.3087746 1.5695686
-2.75072 1.3138911 1.5806613
-2.6964929 1.3165652 1.5972834
-2.6422465 1.3142403 1.6138887
-2.5518711 1.319531 1.6415951
-2.5157034 1.3171475 1.6526625
-2.4783118 1.3171314 1.6641154
-2.4446208 1.3175129 1.6744368
-2.4309237 1.3173749 1.6786318
-2.4072294 1.3174967 1.68589
-2.3947659 1.3174914 1.6897075
-2.3349042 1.3152298 1.7080331
-2.323674 1.3153569 1.7114735
-2.2003176 1.3279357 1.749315
-2.1766236 1.3280575 1.7565732
-2.1404557 1.3256741 1.7676408
-2.1167617 1.3257958 1.7748988
-2.0806136 1.3284122 1.7859831
-2.043222 1.3283961 1.797436
-1.9958241 1.3261398 1.811944
-1.9098301 1.3312347 1.8383074
-1.8636663 1.3291109 1.8524377
-1.8374951 1.3264676 1.8604422
-1.7415047 1.3318224 1.8898687
-1.8399522 1.3242328 1.8596795
-2.037153 1.2109611 1.7987616
-2.1022871 1.0909249 1.7782657
-2.1045949 1.083426 1.7775247
-2.1893649 1.0806985 1.7515469
-2.1961832 1.0906765 1.7495039
-2.217926 1.1305782 1.7430251
-2.2928879 1.2103453 1.7204263
-2.3459027 1.2551033 1.704391
-2.4074478 1.2898654 1.6856976
-2.5269239 1.3145204 1.6492136
-2.6060691 1.3093569 1.6249478
-2.6309967 1.3093675 1.6173124
-2.6683881 1.3093836 1.6058593
-2.7101419 1.3042033 1.5930464
-7.8435564 1.2650708 0.020487487
-7.8074584 1.2675135 0.031555414
-7.7831955 1.2677727 0.038988352
-7.7350764 1.2726963 0.05374974
-7.7713943 1.2749562 0.042635798
-8.5935726 1.2478102 -0.20932359
-8.4967079 1.248549 -0.17965001
-8.4363956 1.2587507 -0.16113007
-8.419838 1.2612613 -0.15604669
-8.3035164 1.2744321 -0.12035716
-8.3394585 1.2772861 -0.1313535
-8.3639088 1.2767301 -0.13884538
-8.4120436 1.2743063 -0.15360022
-8.4966183 1.2638456 -0.17955327
-8.5208664 1.2610867 -0.18699282
-8.62994 1.2575699 -0.22041857
-8.732089 1.2593392 -0.25169915
-8.605628 1.250329 -0.21300459
-1.5594716 1.329772 1.9456167
-1.5731692 1.32991 1.9414217
-1.6018715 1.3321582 1.9326403
-1.6442709 1.3345445 1.9196641
-1.6679649 1.3344226 1.912406
-1.6205668 1.3321663 1.9269137
-1.5844088 1.3322828 1.9379897
-7.2772865 -1.0882308 0.18324804
-7.2529445 -1.0904604 0.19069391
-7.289279 -1.0882466 0.17957458
-6.9747677 -1.0859258 0.27592087
-7.0107479 -1.0859731 0.26489988
-6.9744124 -1.088187 0.27601951
-6.9501104 -1.0854166 0.28347585
-7.3091316 1.2672101 0.18419319
-7.297142 1.2672107 0.18786556
-7.2844753 1.2702874 0.19175941
-7.3571091 1.2697072 0.1695089
-7.3334594 1.2669207 0.17674017
-3.1621542 1.312748 1.4546325
-3.1135328 1.3128591 1.4695258
-3.067349 1.3057352 1.4836397
-3.1272106 1.307997 1.4653141
-3.1858387 1.3101261 1.447366
-5.7438865 1.2804874 0.66369307
-5.7193766 1.2759929 0.67118013
-5.6953278 1.2784873 0.67855757
-5.5864024 1.2767295 0.71191388
-5.5380497 1.2744743 0.72671425
-5.6107068 1.2814792 0.7044909
-5.6592822 1.2859792 0.68963259
-5.743681 1.2807426 0.66375709
-5.8292766 1.2799954 0.63753563
-5.8648105 1.2772481 0.62663895
-5.8353319 1.2799489 0.63568062
-9.7959757 -1.1056834 -0.58831388
-9.8685694 -1.108694 -0.61056322
-9.914608 -1.1074814 -0.62465948
-9.9872112 -1.1079613 -0.64690024
-10.071867 -1.1059222 -0.67282134
-10.011319 -1.1029233 -0.65426177
-9.9750013 -1.1051832 -0.64314777
-9.9627762 -1.1049052 -0.63940197
-9.9386997 -1.1049433 -0.63202745
-0.37628698 1.3408551 2.3080804
-0.41244459 1.3407387 2.2970045
-0.48475122 1.3380059 2.2748444
-0.50844479 1.3378839 2.2675865
-0.30162239 1.3360046 2.3309283
-0.32086563 1.3359882 2.3250339
-1.7200041 -1.0418639 1.8856721
-1.7324677 -1.0418425 1.8818545
-1.7823148 -1.0442567 1.8665752
-1.7449226 -1.0443211 1.8780282
-1.4285088 1.3228757 1.9856997
-1.367414 1.3204817 2.0044024
-1.3187919 1.3205928 2.0192959
-1.2950978 1.3207145 2.0265541
-1.2814002 1.3205767 2.0307491
-1.3051043 1.3229549 2.0234993
-1.3063378 1.3230873 2.0231221
-1.3661895 1.322849 2.0047882
-4.2506022 1.312152 1.1212347
-4.1658225 1.3123794 1.1472039
-4.1171904 1.3099905 1.1620893
-4.3964767 1.3143187 1.0765626
-4.4949245 1.3067291 1.0463734
-4.5298491 1.3064801 1.0356748
-4.5672207 1.3014963 1.024205
-4.6158724 1.308885 1.0093365
-4.7355757 1.3084086 0.97266871
-4.8091059 1.3033082 0.95012295
-4.480042 1.3189584 1.0509874
-4.6009698 1.3161144 1.013934
-4.7219167 1.3182704 0.97689724
-4.8316045 1.3130537 0.94327581
-4.8577471 1.308197 0.93524635
-9.5614672 1.2972021 -0.50556821
-9.4282742 1.2653848 -0.46491534
-9.2948704 1.2591609 -0.42408162
-9.2344608 1.2543628 -0.40559977
-9.1858845 1.2473811 -0.39075238
-9.1134529 1.245064 -0.36857694
-9.0528555 1.2405632 -0.35003614
-9.0771847 1.2503037 -0.35744399
-9.089427 1.2525256 -0.36118382
-9.1375618 1.2501018 -0.37593859
-9.1499748 1.2495267 -0.3797434
-9.2226267 1.2565467 -0.40196496
-9.3074312 1.2810851 -0.42782956
-9.3433743 1.2839392 -0.43882579
-9.3920383 1.2756244 -0.45376962
-7.6716423 1.2698854 0.073167086
-7.6353059 1.2676756 0.084287047
-7.5746617 1.268255 0.10286516
-7.5413127 1.2691742 0.11308426
-7.5267239 1.2707576 0.11756003
-7.5172524 1.2716361 0.1204651
-7.4424496 1.2710505 0.14337486
-7.4811559 1.2740787 0.13153279
-7.5052314 1.2741169 0.1241585
-7.5147538 1.2732582 0.12123781
-7.5533667 1.2716932 0.10940349
-7.587388 1.2726781 0.098987043
-7.5993776 1.2726775 0.095314682
-7.626173 1.2734162 0.08711046
-7.6476841 1.2723868 0.080516934
-7.6836519 1.2723846 0.06949985
-7.6987753 1.2729362 0.064870059
-4.1433325 1.3051338 1.1540598
-4.2281027 1.3024063 1.128082
-4.2405763 1.3049117 1.1242727
-4.2879839 1.3096679 1.1097733
-0.6954565 1.3348045 2.21029
-0.79889345 1.3245851 2.1785607
-0.88366365 1.3218576 2.1525829
-2.0217137 -1.0477362 1.7932308
-2.0591052 -1.0476719 1.7817779
-2.0964878 -1.0501075 1.7703164
-2.1326456 -1.0502192 1.7592406
-2.0952542 -1.0502834 1.7706935
-2.0727937 -1.0499742 1.7775745
-1.1866045 1.3160639 2.0597649
-1.1504464 1.3161803 2.0708406
-1.1255288 1.3186696 2.0784843
-1.1729164 1.318426 2.0639682
-1.9394011 -1.0471821 1.8184459
-1.9369338 -1.0475341 1.8192
-1.9743254 -1.0474699 1.8077471
-4.1059413 1.3051178 1.1655128
0 0 0 1 0 0 0 1 0 0 0 1 0 0 0 0 0 608 1 0 0
