ply
format ascii 1.0
comment PCL generated
element vertex 340
property float x
property float y
property float z
element camera 1
property float view_px
property float view_py
property float view_pz
property float x_axisx
property float x_axisy
property float x_axisz
property float y_axisx
property float y_axisy
property float y_axisz
property float z_axisx
property float z_axisy
property float z_axisz
property float focal
property float scalex
property float scaley
property float centerx
property float centery
property int viewportx
property int viewporty
property float k1
property float k2
end_header
-6.1443691 -1.1034902 -5.3358321
-6.024828 -1.0996714 -5.3442354
-5.9849935 -1.0967338 -5.3469787
-5.8905029 -1.0732124 -5.3529191
-5.8656125 -1.0704401 -5.3546014
-5.8239284 -1.0637276 -5.3573475
-5.6582203 -0.67826927 -5.3559875
-5.5802059 -0.65392196 -5.3607235
-5.5423622 -0.63478076 -5.3627706
-5.1057377 -0.72396338 -5.3969922
-5.0258565 -0.76321602 -5.4040384
-4.7045231 -0.848768 -5.4299054
-4.3629351 -0.93814111 -5.4573493
-4.3051329 -1.0425339 -5.4650478
-4.1037722 -1.0392345 -5.47931
-4.0240707 -1.0435193 -5.4851465
-3.8253598 -1.0539879 -5.4996905
-3.625355 -1.1049069 -5.5157113
-3.5854783 -1.1120447 -5.5188022
-3.5634801 -1.09286 -5.5197163
-3.197978 -1.0506295 -5.544364
-2.8485136 -1.0625223 -5.5697193
-2.8222485 -1.060762 -5.5715337
-2.7687788 -1.0593405 -5.5753026
-2.6518557 -1.0688541 -5.5839748
-2.6119685 -1.0710098 -5.5868964
-2.5720813 -1.0731653 -5.5898175
-2.5308118 -1.0762953 -5.5928707
-2.3923228 -1.0835868 -5.6030068
-2.3683748 -1.0853539 -5.6047773
-2.2886844 -1.098671 -5.6109219
-2.2102525 -1.109501 -5.6168919
-2.1478837 -1.1214551 -5.6217532
-2.0519419 -1.144624 -5.629395
-1.9694154 -1.1483862 -5.6354156
-1.9308846 -1.154563 -5.6383777
-1.893476 -1.1592376 -5.6412082
-1.8098009 -1.1694973 -5.6475325
-1.7300005 -1.1788039 -5.6535478
-1.6529245 -1.1936551 -5.6595588
-1.5689902 -1.203387 -5.6658835
-1.4932837 -1.2197616 -5.6718483
-1.3336039 -1.2533612 -5.6843977
-1.2498007 -1.238116 -5.6898589
-1.1686831 -1.2359086 -5.6955743
-1.0538621 -1.2713137 -5.7049828
-1.013124 -1.2715806 -5.7079
-0.85366774 -1.262719 -5.7189803
-0.81381941 -1.2573817 -5.7216425
-0.6942234 -1.2513599 -5.7299743
-0.52386665 -1.2710116 -5.7428083
-0.48544741 -1.2622942 -5.7452526
-0.44264603 -1.25696 -5.7481256
-0.40560484 -1.2546781 -5.7506919
-0.36482048 -1.255286 -5.7536244
-0.35688782 -1.2556202 -5.7542024
0.0052547455 -0.89735663 -5.767796
0.026221752 -0.89617443 -5.7692523
0.050235271 -0.77736557 -5.7669015
0.042842388 -0.69746232 -5.7636395
0.039361 -0.65864158 -5.7620625
0.036937237 -0.61677778 -5.760457
0.036449909 -0.6463958 -5.7614355
0.038771629 -0.69817924 -5.7633734
0.029268265 -0.77854788 -5.7654448
0.11254215 0.93520474 -5.7127481
0.11242962 0.85547185 -5.7154684
0.071145535 0.73652279 -5.7165914
0.031264305 0.69640625 -5.715117
0.0046825409 0.69567782 -5.7132444
0.034787655 0.81865394 -5.7111855
0.03454113 0.9385426 -5.7070656
-0.33256912 1.3763227 -5.6658773
0.072870731 0.97225916 -5.7086482
0.11209106 0.97542489 -5.7113395
0.039749146 -0.2865077 -5.7493563
-5.2452087e-05 -0.21917102 -5.7442107
0.030798912 -0.29788586 -5.7491069
0.03817606 -0.39277425 -5.7528801
0.038963795 -0.33839223 -5.7510757
0.039710045 -0.32397082 -5.7506356
-7.9541149 -1.1911106 -5.2096334
-8.072876 -1.252746 -5.2032642
-8.2745285 -1.1538181 -5.1854835
-8.3544521 -1.1570535 -5.1798882
-8.4247665 -1.1637287 -5.175097
-8.4721289 -1.160116 -5.1715922
-8.5537357 -1.156919 -5.165657
-8.5936251 -1.1523987 -5.1626549
-8.6334782 -1.1528711 -5.1598258
-8.674942 -1.1568962 -5.1570034
-8.7109175 -1.0813963 -5.1518517
-8.9572821 -0.87949145 -5.1273551
-9.4329109 -1.2048855 -5.1045346
-9.5117378 -1.2140387 -5.0992203
-9.5911465 -1.2078032 -5.093338
-9.673069 -1.2092903 -5.0875406
-9.694231 -1.21038 -5.0860672
-9.7116671 -1.2105867 -5.0848293
-9.7915878 -1.2091366 -5.0790744
-9.8057098 -1.2100337 -5.0780969
-9.8420954 -1.1738567 -5.0742612
-9.8940887 -1.1328617 -5.0691466
-9.9217854 -1.0932463 -5.065814
-10.079926 -0.95796931 -5.0498958
-10.449334 -1.0740056 -5.0274944
-10.488954 -1.0745518 -5.0246844
-10.61011 -1.0622709 -5.015615
-10.649948 -1.0651636 -5.0128698
-10.740182 -1.0772738 -5.0068426
-10.843925 -0.96110666 -4.9954615
-10.847078 -0.95907032 -4.9951668
-10.892466 -0.92262483 -4.9906793
-10.955602 -0.87961638 -4.9847007
-11.008268 -0.84010327 -4.9795885
-11.013373 -0.80027163 -4.9778614
-11.213076 -0.55989552 -4.9553795
-11.213799 -0.44002602 -4.9512258
-11.173725 -0.36017016 -4.951354
-11.131346 -0.12260014 -4.9462504
-11.214741 0.0799229 -4.9333668
-11.298286 0.1592852 -4.9246869
-11.296236 0.43944272 -4.915247
-11.337178 0.60688245 -4.9065943
-11.337587 0.74172664 -4.9019513
-11.337524 0.7591238 -4.9013605
-11.343106 0.9189868 -4.8954916
-11.353312 0.99882436 -4.8920312
-11.353555 1.0787321 -4.8892794
-11.379528 1.2387856 -4.8819485
-11.339093 1.2386525 -4.8848395
-11.180141 1.2799758 -4.894773
-11.100204 1.3202423 -4.8991017
-11.020555 1.34078 -4.9040852
-10.788956 1.3623866 -4.9198794
-10.781021 1.3621085 -4.9204555
-10.621362 1.3231934 -4.9331851
-10.500492 1.3131366 -4.9421582
-10.420804 1.3211886 -4.9475718
-10.241463 1.3249474 -4.9602461
-10.222115 1.3255008 -4.9616084
-10.101938 1.3159401 -4.9705148
-10.013811 1.2984735 -4.9774036
-9.8937845 1.2995304 -4.9859362
-9.8145599 1.3032647 -4.9914641
-9.7672138 1.3013123 -4.9949112
-9.6930828 1.2958715 -5.0003896
-9.5736332 1.3122306 -5.008357
-9.5356178 1.3114706 -5.011097
-9.4122458 1.2978051 -5.0203719
-9.2945604 1.3029569 -5.0285974
-9.2147961 1.2963833 -5.0345163
-9.1360312 1.3073064 -5.0397658
-8.9738321 1.300355 -5.0515828
-8.8959627 1.3000538 -5.0571523
-8.8163109 1.3084627 -5.0625505
-8.7764378 1.3064245 -5.0654669
-8.6948338 1.3010696 -5.071476
-8.6568193 1.3003097 -5.0742159
-8.5753098 1.3074403 -5.0797906
-8.5346794 1.3123341 -5.0825238
-8.4139214 1.2930148 -5.0918055
-8.2962561 1.3006637 -5.0999441
-8.2564201 1.3036196 -5.1026869
-8.2146511 1.2953088 -5.1059527
-8.057168 1.3084109 -5.1167474
-7.9374561 1.2898104 -5.1259298
-7.8939228 1.292707 -5.1289387
-7.8024325 1.3108472 -5.1348491
-7.7781897 1.3116226 -5.1365533
-7.7208748 1.3155279 -5.1405115
-7.6984625 1.3100431 -5.1422992
-7.5613708 1.3048661 -5.1522632
-7.5215373 1.3078194 -5.1550059
-7.4399047 1.3025115 -5.161015
-7.3601985 1.3034234 -5.1666741
-7.3241453 1.3088279 -5.1690631
-7.2805309 1.3093299 -5.1721592
-7.2008262 1.3102419 -5.1778183
-7.1609735 1.310698 -5.1806479
-7.0812869 1.3141073 -5.1862197
-7.0015068 1.3050305 -5.1922259
-6.9218388 1.3109369 -5.197711
-6.8022809 1.312305 -5.2061996
-6.76052 1.3090384 -5.2092924
-6.6409807 1.3129035 -5.2176943
-6.5252962 1.3292089 -5.2253947
-6.3646617 1.3401791 -5.2364869
-6.322309 1.3365295 -5.2396355
-6.1667538 1.3507934 -5.2502522
-6.0056973 1.3838557 -5.2606187
-5.8883305 1.34524 -5.270319
-5.8789678 1.3440999 -5.2710261
-5.7641478 1.3129473 -5.2802892
-5.7142758 1.3060257 -5.2840862
-5.6824965 1.3051422 -5.2863855
-5.6408725 1.3044493 -5.2893806
-5.5990987 1.3085908 -5.2922211
-5.4831581 1.2974335 -5.30088
-5.3354597 1.3076055 -5.3110757
-5.2976222 1.3038155 -5.3139067
-5.1760697 1.308376 -5.3224282
-5.058547 1.314962 -5.3305926
-5.016685 1.314142 -5.3336091
-4.9768395 1.3168323 -5.3363619
-4.8971419 1.3147198 -5.3421235
-4.7776017 1.3177954 -5.3505521
-4.7392712 1.323743 -5.353085
-4.6620841 1.3154033 -5.358881
-4.618206 1.3135704 -5.3620758
-4.5425491 1.3234742 -5.3671384
-4.4209833 1.3155463 -5.3760881
-4.2222753 1.3654388 -5.3885665
-4.179945 1.3731368 -5.391325
-3.9442515 1.3685082 -5.4083095
-3.8720684 1.3650868 -5.4135795
-3.8575034 1.3653489 -5.4146104
-3.7849016 1.3655082 -5.4197879
-3.7775559 1.3656075 -5.4203086
-3.7704339 1.3645555 -5.4208531
-3.6159942 1.337827 -5.4327931
-3.5362852 1.3257238 -5.4388976
-3.4228046 1.344326 -5.4463625
-3.2654269 1.3436116 -5.4576221
-3.1438658 1.3406792 -5.4664006
-3.0641761 1.3460597 -5.4719052
-2.8727651 1.3749845 -5.4845805
-2.8656344 1.3752873 -5.4850793
-2.7766817 1.3748274 -5.4914451
-2.7045004 1.3929231 -5.4959788
-2.6219101 1.3766949 -5.5024304
-2.5623586 1.3766409 -5.5066833
-2.5040028 1.3764071 -5.5108576
-2.4637446 1.3690116 -5.5139847
-2.3867099 1.3616121 -5.5197372
-2.2680151 1.3771913 -5.5276775
-2.2632899 1.3774133 -5.5280075
-2.141923 1.3573055 -5.5373597
-2.0649269 1.357399 -5.5428534
-2.0236573 1.3542805 -5.5459061
-1.9439352 1.3599508 -5.5514035
-1.8642125 1.365621 -5.5569005
-1.7816997 1.364379 -5.5628338
-1.6634989 1.3738427 -5.5709481
-1.6222553 1.3757195 -5.5738282
-1.5613604 1.3822004 -5.5779538
-1.4255228 1.4222847 -5.5862794
-1.4106565 1.4224712 -5.5873346
-1.3145728 1.4223142 -5.5941992
-1.3017664 1.4221799 -5.595118
-1.236753 1.4278224 -5.5995665
-1.1899209 1.4285824 -5.6028833
-1.1489234 1.4281411 -5.6058254
-1.0670929 1.4423051 -5.6111827
-0.95024824 1.4477314 -5.6193385
-0.87050009 1.4484061 -5.6250086
-0.75044203 1.4316946 -5.634151
-0.72586679 1.432145 -5.63589
-0.71022224 1.4317924 -5.6370192
-0.63725948 1.4319247 -5.6422234
-0.61621237 1.4330727 -5.6436868
-0.54891205 1.4318842 -5.6485319
-0.50921106 1.4323413 -5.6513505
-0.47020054 1.4332775 -5.6541033
-0.4677949 1.4333586 -5.6542721
-0.42911673 1.4327765 -5.6570535
-0.33555079 1.3933665 -5.6650815
-0.33111477 1.3852845 -5.6656747
-7.9940972 -1.1269889 -5.2045851
-8.0541973 -0.91634011 -5.1930866
-8.0572805 -0.83648956 -5.190134
-7.5344353 -0.56943691 -5.2183218
-7.2238154 -0.76765883 -5.2472792
-7.2029462 -0.76804864 -5.2487826
-7.1820769 -0.76843834 -5.2502856
-7.1612091 -0.76882815 -5.2517886
-7.1019611 -0.60709715 -5.2504845
-7.1449919 -0.52757764 -5.2446914
-7.1394701 -0.23286644 -5.2350011
-6.5903835 -0.30051079 -5.2765145
-6.544591 -0.34368595 -5.281261
-6.4683876 -0.37782332 -5.2878695
-6.424747 -0.38232008 -5.2911386
-6.3830094 -0.38309959 -5.2941451
-6.1855922 -0.91164398 -5.3263245
-6.2606931 -1.0323347 -5.3250928
-6.261179 -1.0792484 -5.3266635
-5.5880175 -0.079584718 -5.3405132
-5.8682437 0.30007291 -5.3075166
-5.8294716 0.46027356 -5.3048029
-5.589622 0.70931816 -5.3134036
-5.1703334 0.43926394 -5.3525772
-5.2215238 0.17042859 -5.3581219
-4.3068123 -0.099802941 -5.4326696
-3.8701766 -0.34122875 -5.4721017
-4.145216 -0.72487903 -5.4655948
-4.4849033 -0.58153105 -5.4364395
-1.1277695 -0.59925795 -5.6767097
-1.2827606 -0.23479882 -5.6531739
-1.2670569 -0.11575475 -5.6502213
-1.2797279 -0.07589829 -5.647953
-1.2984953 0.044329405 -5.6424994
-1.3001747 0.085328028 -5.6409764
-1.2997804 0.12486513 -5.6396518
-1.2983251 0.14640345 -5.6390185
-1.2973256 0.16472811 -5.638463
-1.2827654 0.30451801 -5.6347189
-1.2995133 0.38527733 -5.6307602
-1.299633 0.42518124 -5.6293859
-1.2801285 0.54336363 -5.6267343
-1.2947969 0.70407164 -5.6201882
-1.2776985 0.822173 -5.6173673
-1.2892556 0.86301076 -5.6151452
-1.2973509 0.98283899 -5.610467
-1.3011193 1.0633444 -5.6074429
-1.0229034 1.407297 -5.6155353
-0.90309906 1.4238557 -5.6235213
-0.89807129 1.4238681 -5.6238799
-0.82083321 1.4195561 -5.6295414
-0.7423768 1.4037049 -5.6356845
-0.70112085 1.4030842 -5.6386514
-0.662642 1.4068774 -5.6412683
-0.62552023 1.4066336 -5.6439266
-0.52607632 1.396095 -5.6513867
-0.48620987 1.3988104 -5.6541395
-0.37393141 1.3846267 -5.6626406
-0.41524982 -1.2214906 -5.748868
-0.44829082 -1.211718 -5.7461748
-0.60512733 -1.1950533 -5.7344079
-0.80547476 -1.07663 -5.716053
-0.96645498 -0.877877 -5.6977596
-1.0069227 -0.79817045 -5.6921434
-1.0472174 -0.71858573 -5.6865435
-3.929208 0.16270614 -5.4506435
-4.4250984 0.058070615 -5.4188228
-4.3180523 0.56672555 -5.4090595
-2.7386899 1.3587799 -5.4947066
-2.3932567 1.0164418 -5.5310807
-2.9330764 0.80859125 -5.4996557
-2.8129988 1.3411391 -5.490005
0 0 0 1 0 0 0 1 0 0 0 1 0 0 0 0 0 340 1 0 0
