ply
format ascii 1.0
comment PCL generated
element vertex 586
property float x
property float y
property float z
element camera 1
property float view_px
property float view_py
property float view_pz
property float x_axisx
property float x_axisy
property float x_axisz
property float y_axisx
property float y_axisy
property float y_axisz
property float z_axisx
property float z_axisy
property float z_axisz
property float focal
property float scalex
property float scaley
property float centerx
property float centery
property int viewportx
property int viewporty
property float k1
property float k2
end_header
-11.748059 0.15204908 -4.5874405
-11.792509 0.10937706 -4.6067953
-11.698757 0.027479284 -4.5685205
-11.64626 -0.31952387 -4.5515518
-11.636345 -0.44931373 -4.5492992
-11.558283 -0.52951598 -4.5176077
-11.494789 -0.64841819 -4.4926262
-11.477388 -0.70335698 -4.4861107
-11.447283 -0.72796404 -4.4737949
-11.348493 -0.88733792 -4.434546
-11.355227 -0.84736359 -4.43679
-11.440987 -0.68765366 -4.4705458
-11.475889 -0.60806751 -4.484067
-11.555355 -0.40804729 -4.5145741
-11.47104 -0.0089947134 -4.4731445
-11.457478 0.35414815 -4.4620495
-11.381548 0.67373347 -4.4253311
-11.376387 0.79371309 -4.4213781
-11.373511 0.83367705 -4.4195747
-11.425373 0.99276733 -4.4390616
-11.257949 1.3256392 -4.3636074
-11.343275 1.288626 -4.4000959
-11.410397 1.2786422 -4.4285159
-11.438742 1.2727828 -4.4405413
-11.574854 1.2502583 -4.4982071
-11.578936 1.231607 -4.5002027
-11.571293 1.2243376 -4.4970913
-11.446817 0.99231017 -4.4481006
-11.654675 0.63333738 -4.5409727
-11.699913 0.61196434 -4.5603437
-11.777349 0.59166688 -4.5932612
-10.476974 -1.1285015 -4.0710311
-10.492058 -1.1263849 -4.0773535
-10.559372 -1.1239395 -4.10567
-10.58148 -1.1228447 -4.1149664
-10.59304 -1.121467 -4.1198149
-10.727621 -1.1215756 -4.1765027
-10.596029 -0.6806699 -4.1145401
-10.799658 -0.52168989 -4.1979532
-10.834718 -0.47174791 -4.2119808
-10.767333 -0.48169222 -4.1837454
-10.31502 -0.28135365 -3.9902582
-10.160292 -0.156149 -3.9232297
-10.009385 -0.35908565 -3.862675
-10.295753 -0.28096724 -3.9821377
-0.7475605 1.3081455 0.063181162
-0.76551914 1.3060284 0.055585384
-0.78599548 1.3071197 0.046976805
-0.88136482 1.3058712 0.0067881346
-0.91235828 1.3102181 -0.0062019825
-0.86590481 1.308697 0.013341904
0.43724632 0.38917282 0.54860878
0.47776556 0.48682451 0.56712317
0.46918964 0.54905981 0.56443334
0.46657991 0.74902391 0.56629801
0.47575808 0.86971211 0.57195282
0.46785021 0.94911492 0.56979895
0.48193407 1.3571754 0.58177948
0.46644545 1.3541689 0.57521105
0.43154764 1.3490145 0.5604353
0.35845566 1.3469559 0.52961802
0.34472322 1.3473444 0.52383947
0.31373453 1.3483973 0.51080251
0.28857327 1.3487285 0.50020933
0.24674797 1.3534786 0.48266268
0.17023087 1.3586925 0.45051026
0.036791801 1.3356553 0.39396358
0.054769039 1.3302846 0.40145612
0.15503645 1.33319 0.44373226
0.18846941 1.3333254 0.4578166
0.45135689 0.90916419 0.56225944
0.41269875 0.82901788 0.5447886
0.35643005 0.7483561 0.51989222
0.3439126 0.67787015 0.51357484
0.34262419 0.62781566 0.51229048
0.40485907 0.46903166 0.53615069
-4.3491168 -1.0889441 -1.4893492
-3.9038754 -1.0732197 -1.3015774
-3.8010159 -1.0673598 -1.2581654
-3.7649984 -1.0689154 -1.2430177
-3.6826429 -1.065762 -1.2082822
-3.6671872 -1.0650257 -1.2017612
-3.636276 -1.0635529 -1.1887194
-3.6182961 -1.0618312 -1.1811206
-3.5899091 -1.0613436 -1.1691566
-3.5229805 -1.0614262 -1.140967
-3.4534698 -1.0655223 -1.1117494
-3.4225876 -1.0615501 -1.0986826
-3.3427851 -1.0568827 -1.0650001
-3.2603428 -1.0612276 -1.0303392
-3.1728811 -1.0611029 -0.99349803
-3.1419122 -1.0646286 -0.98050594
-3.0724595 -1.0637261 -0.95123851
-3.038995 -1.0637674 -0.93714368
-2.992599 -1.0640575 -0.91760576
-2.9307766 -1.0611117 -0.89152205
-2.894788 -1.0601678 -0.87634933
-2.8568225 -1.0586915 -0.86033618
-2.8104069 -1.0551114 -0.84073257
-2.7794695 -1.0518916 -0.82765377
-2.748513 -1.0511713 -0.81460404
-2.7150574 -1.0512285 -0.80051315
-2.5992308 -1.0485404 -0.75168633
-2.4962695 -1.0619879 -0.70851767
-2.4343753 -1.0580477 -0.68238902
-2.4188972 -1.0576875 -0.6758641
-2.2851121 -1.052917 -0.61944234
-2.2057385 -1.0377408 -0.58578455
-2.1538646 -1.0423698 -0.56400359
-2.1203897 -1.0449266 -0.54994166
-2.053535 -1.0375421 -0.52167249
-2.0225217 -1.0443207 -0.50871003
-1.9710505 -1.0497947 -0.48711109
-1.8731637 -1.0516886 -0.44590855
-1.8062334 -1.0543026 -0.41775572
-1.7522814 -1.0580542 -0.39508641
-1.7238245 -1.0565566 -0.38307798
-1.6260324 -1.0459521 -0.34173012
-1.5540466 -1.05762 -0.31158221
-1.5230899 -1.0568998 -0.29853237
-1.3607907 -1.0581306 -0.23018897
-1.3452935 -1.0602702 -0.22369325
-1.2449074 -1.0629416 -0.18144941
-1.1910129 -1.0591941 -0.15869308
-1.0776477 -1.0607278 -0.11096573
-0.83892727 -0.99575901 -0.0094519854
-0.77963352 -0.98297572 0.01571238
-0.71802807 -0.99487841 0.041484594
-0.58090448 -1.0475326 0.09846139
-0.6322999 -1.0520576 0.076746225
-0.76600933 -1.0668267 0.020208001
-0.8328824 -1.0717117 -0.0080317259
-0.84838009 -1.069572 -0.014527678
-0.93076992 -1.0698177 -0.049234509
-0.96176434 -1.0655385 -0.062226176
-1.08009 -1.0674493 -0.11209416
-1.2089334 -1.0662758 -0.16634631
-1.2244115 -1.0666358 -0.17287111
-1.4520783 -1.1573931 -0.27011132
-1.537961 -1.1372492 -0.305987
-1.5714169 -1.137192 -0.32007802
-1.5893943 -1.1367747 -0.32764411
-1.6692848 -1.1377978 -0.36130965
-1.7027407 -1.1377406 -0.37540066
-1.7411947 -1.1361285 -0.39157391
-1.8056068 -1.1367915 -0.41871452
-1.8365633 -1.1375116 -0.43176436
-1.8700192 -1.1374545 -0.44585526
-1.9034748 -1.1373973 -0.45994616
-1.9653878 -1.1388378 -0.48604572
-2.0657551 -1.1386662 -0.52831852
-2.0812335 -1.1390263 -0.53484344
-2.1351657 -1.1377743 -0.55754161
-2.1481447 -1.1389118 -0.56302536
-2.199578 -1.1384374 -0.58468235
-2.2664895 -1.1383229 -0.61286426
-2.3759761 -1.1575288 -0.6592654
-2.4647248 -1.1387571 -0.69636869
-2.5266376 -1.1401975 -0.72246814
-2.6140258 -1.1388885 -0.75925732
-2.6646326 -1.1449057 -0.78066242
-2.6800883 -1.1456422 -0.78718328
-2.695544 -1.1463786 -0.79370427
-2.7264552 -1.1478515 -0.80674613
-2.7419107 -1.1485879 -0.81326699
-2.8242953 -1.1492417 -0.84797764
-2.842304 -1.148464 -0.85555148
-2.8808746 -1.1453942 -0.87175226
-2.9426968 -1.1483401 -0.89783585
-2.989064 -1.1505493 -0.91739869
-3.0045195 -1.1512859 -0.92391968
-3.0379841 -1.1512444 -0.93801451
-3.0559926 -1.1504667 -0.94558835
-3.0945632 -1.1473969 -0.96178901
-3.1409302 -1.1496063 -0.98135185
-3.1718414 -1.1510792 -0.99439371
-3.2207613 -1.1517743 -1.0150094
-3.23877 -1.1509966 -1.0225832
-3.2851369 -1.1532059 -1.0421461
-3.3031459 -1.1524282 -1.04972
-3.3237076 -1.1501362 -1.0583467
-3.6483405 -1.1767622 -1.195479
-3.7299743 -1.2039212 -1.2302663
-3.7479253 -1.208142 -1.23789
-3.816823 -1.2152699 -1.2670159
-3.8841336 -1.223958 -1.2954962
-3.9848731 -1.1938419 -1.337482
-4.3067803 -1.1985004 -1.4731407
-4.3633308 -1.1971523 -1.4969403
-4.4545226 -1.2198675 -1.5356874
-4.4571099 -1.2208086 -1.5367912
-4.4780254 -1.2207828 -1.5456005
-4.6284637 -1.2008353 -1.6086706
-4.710906 -1.1964903 -1.6433313
-4.7727575 -1.196937 -1.6693903
-4.8758192 -1.1853013 -1.7126281
-4.9431505 -1.1818722 -1.7409378
-4.958261 -1.1809564 -1.7472888
-5.0092731 -1.181649 -1.7687856
-5.3055191 -1.1862199 -1.8936342
-5.3728385 -1.1864829 -1.9219935
-5.3926773 -1.1862144 -1.9303459
-5.7599735 -1.0868211 -2.0835803
-5.3069491 -1.0590138 -1.8923512
-5.2914705 -1.0587038 -1.8858269
-5.2734756 -1.0615747 -1.8782898
-4.8743353 -1.0943398 -1.7106547
-4.794157 -1.122164 -1.6772954
-4.6067357 -1.084673 -1.5977967
-4.5578732 -1.0789793 -1.5771312
-4.4754887 -1.0783254 -1.5424205
-4.4136949 -1.0728803 -1.5163118
0.38309526 -1.0989969 0.50374198
0.31201744 -0.83698606 0.47768712
0.31182384 -0.75692987 0.47879219
0.36110878 -0.46163216 0.50392818
0.23705816 -0.42904583 0.45216036
0.13644075 -0.39450607 0.41029167
-0.081578255 -0.14640057 0.32213783
-0.087797165 -0.15388906 0.31940746
-0.14787102 -0.23127711 0.29295683
-0.14367104 -0.23378381 0.2946887
0.091330528 -0.55338776 0.3889358
0.19462013 -0.82272589 0.42844987
0.20329618 -0.91768241 0.43069673
0.18203211 -1.0927633 0.41914511
0.25697851 -1.1173055 0.45034933
0.27605343 -1.1171569 0.45838618
0.30955076 -1.116946 0.47249866
0.39096928 -1.1164619 0.5067997
-8.2892065 -1.3150883 -3.1522942
-8.0481319 -1.3684398 -3.0515423
-7.9210954 -1.3519173 -2.9977889
-7.7995358 -1.3515978 -2.9465823
-7.7363272 -1.3359557 -2.9197266
-7.6577606 -1.3338804 -2.8866031
-7.5640402 -1.319194 -2.8469098
-7.4969468 -1.3039353 -2.8184233
-7.377553 -1.2891638 -2.767915
-7.2956667 -1.2581589 -2.7329645
-7.2585363 -1.2493994 -2.7171948
-6.8438578 -1.1229646 -2.5406554
-6.7389874 -1.1804672 -2.4973357
-6.6867247 -1.1784554 -2.4752922
-6.3303142 -0.95461321 -2.321852
-5.891573 -0.71172452 -2.133451
-1.028204 1.3100611 -0.054999471
-1.0820818 1.3037097 -0.07778728
-1.1435919 1.3031749 -0.10370362
-1.148993 1.3038224 -0.10596907
-1.1644897 1.3059958 -0.11246419
-1.1774874 1.3074605 -0.11791706
-1.1261086 1.3145207 -0.096171379
-1.5911458 1.3420957 -0.29163945
-1.4297099 1.3157369 -0.2240324
-1.3243084 1.3091507 -0.17973399
-1.2753558 1.3069209 -0.15914798
-1.3961444 1.3006823 -0.21011746
-1.4400806 1.2989948 -0.22864878
-1.5166845 1.3014033 -0.26087916
-1.5482056 1.3015004 -0.27415454
-1.6336591 1.3027455 -0.31012976
-1.707691 1.2944463 -0.34143543
-1.7206702 1.2934114 -0.34691775
-1.7386296 1.2912943 -0.35451376
-1.8080764 1.2971151 -0.38367891
-1.839015 1.293963 -0.39675713
-1.8545115 1.2961364 -0.40325224
-1.9344025 1.2952141 -0.43691647
-2.0013139 1.2953269 -0.46509838
-2.1816087 1.2995731 -0.54097688
-2.2330601 1.3025117 -0.5626049
-2.3334455 1.3051805 -0.6048485
-2.3798809 1.3042018 -0.62442183
-2.4133368 1.3042581 -0.63851285
-2.4827108 1.3000804 -0.66779554
-2.4956903 1.2990453 -0.67327797
-2.5281785 1.2991221 -0.68696117
-2.6294768 1.2942715 -0.72970057
-2.7390473 1.2797482 -0.77606761
-2.8586149 1.2857493 -0.82634139
-2.968076 1.2670116 -0.87272489
-3.0504313 1.2638586 -0.90746021
-3.0838668 1.2614005 -0.92157996
-3.1688044 1.2622609 -0.95734346
-3.1996868 1.2582886 -0.97041029
-3.3000798 1.2584126 -1.0126946
-3.3335729 1.2609532 -1.0267645
-3.3515818 1.261731 -1.0343385
-3.4005594 1.2660346 -1.0549045
-3.4958754 1.2656294 -1.0950582
-3.6118107 1.2725149 -1.1437888
-3.6323724 1.2748069 -1.1524156
-3.694253 1.2768599 -1.1784496
-3.7239399 1.2845834 -1.1908395
-3.8257303 1.2905071 -1.2336266
-3.8591948 1.2905483 -1.2477214
-3.8308654 1.2960347 -1.2357075
-3.8153811 1.2942717 -1.2292116
-3.6840477 1.2931216 -1.1739101
-3.6685634 1.2913586 -1.1674141
-3.6518021 1.2888386 -1.1603914
-3.6015191 1.2812785 -1.1393239
-3.4521194 1.2743516 -1.0764985
-3.4186258 1.271811 -1.0624285
-3.287293 1.2706606 -1.0071272
-3.1208665 1.3479337 -0.93588185
-3.0891693 1.3718992 -0.92217553
-2.9938977 1.4145314 -0.88141453
-2.971107 1.4140091 -0.87182283
-2.7943153 1.3895533 -0.79771936
-2.7665269 1.3951931 -0.78593111
-2.7330711 1.3951366 -0.7718401
-2.6506994 1.3978498 -0.73710442
-2.4672644 1.4207423 -0.65950108
-2.4347777 1.4378328 -0.64556408
-2.3858435 1.4381027 -0.62494862
-2.2646902 1.3943474 -0.5745666
-2.2491937 1.3921741 -0.56807148
-2.1693027 1.3930963 -0.53440726
-2.1563234 1.3941314 -0.52892494
-2.138346 1.3937489 -0.52135849
-1.9584153 1.4394963 -0.44489229
-1.8110776 1.4221028 -0.3830905
-1.808145 1.4224502 -0.38185
-1.7204657 1.3812512 -0.34552968
-9.6864271 -1.1244619 -3.7379875
-9.7837887 -1.13051 -3.7790864
-9.8881865 -1.1324773 -3.8230886
-9.9891071 -1.1327357 -3.8656011
-10.052885 -1.1336983 -3.8924789
-10.105099 -1.1334324 -3.9144673
-10.29986 -1.2189921 -3.9977705
-10.192871 -1.1154029 -3.9511709
-10.16275 -1.114637 -3.9384725
-10.0804 -1.1141996 -3.9037795
-10.046755 -1.1141725 -3.8896074
-9.9858303 -1.1135294 -3.8639357
-9.9370642 -1.1180042 -3.8434615
-9.9254704 -1.1192749 -3.8385973
-9.8767338 -1.12125 -3.8180981
-9.7874613 -1.1147218 -3.7803993
-9.6679115 -1.1198149 -3.7301192
-9.6413336 -1.1131485 -3.7188261
-9.5589848 -1.112538 -3.6841307
-11.020821 1.3272463 -4.2637033
-10.987234 1.3297385 -4.2495198
-10.953627 1.3297312 -4.235364
-10.919994 1.3272244 -4.2212353
-10.886362 1.3247174 -4.2071061
-10.85273 1.3222104 -4.192977
-10.810673 1.3172022 -4.1753368
-10.751883 1.3196889 -4.1505365
-10.684641 1.3171747 -4.1222515
-10.666199 1.3192083 -4.1144533
-10.625828 1.3171619 -4.0974789
-10.550161 1.3121462 -4.0656824
-10.516529 1.3096392 -4.0515532
-10.48292 1.3096319 -4.0373974
-10.130949 1.3340154 -3.8887827
-9.9031706 1.277671 -3.7936764
-9.8358622 1.2753445 -3.7653599
-9.8022213 1.2754309 -3.7511892
-9.7615738 1.2740728 -3.7340882
-9.7349396 1.275604 -3.722847
-9.5884457 1.3384734 -3.6602106
-9.574954 1.3383253 -3.65453
-9.481348 1.3183856 -3.6153984
-9.3989429 1.3139638 -3.5807545
-9.2826252 1.2846323 -3.5321951
-9.1735592 1.2792423 -3.4863355
-9.1434212 1.280051 -3.4736295
-9.0691328 1.2787794 -3.4423575
-9.0460024 1.281033 -3.4325814
-9.0124168 1.2861187 -3.4183593
-8.9300385 1.2841966 -3.3836899
-8.8706837 1.2700224 -3.3588989
-8.8034019 1.2701955 -3.3305571
-8.7581959 1.2714088 -3.3114982
-8.7396507 1.2735904 -3.3036544
-8.6456814 1.2702955 -3.2641225
-8.60851 1.2671602 -3.2485123
-8.5296631 1.26846 -3.2152822
-8.4775047 1.2732278 -3.1932421
-8.3986588 1.2745278 -3.1600122
-8.3347979 1.2679243 -3.1332116
-8.2606201 1.2766511 -3.1018376
-8.3580666 1.2781688 -3.1428604
-8.3836451 1.2799314 -3.1536081
-8.4846487 1.2871708 -3.1960444
-8.4996901 1.2842667 -3.2024229
-8.5448418 1.278054 -3.2215331
-8.5598822 1.2751499 -3.2279115
-8.6759005 1.2769856 -3.276752
-8.7130718 1.2801211 -3.2923622
-8.7653666 1.2878512 -3.3142745
-8.8441858 1.2840519 -3.3475299
-10.89513 1.2636867 -4.2117038
-10.857449 1.252967 -4.195991
-10.836102 1.253757 -4.1869879
-10.821379 1.2537739 -4.1807861
-10.778965 1.2520885 -4.1629457
-10.693008 1.2489223 -4.1267872
-10.634181 1.2539884 -4.101934
-10.573431 1.248294 -4.0764298
-10.506022 1.2408733 -4.0481472
-10.412189 1.2415432 -4.0086136
-10.374922 1.2375559 -3.9929755
-10.311161 1.2366604 -3.9661326
-10.277473 1.2341996 -3.9519799
-10.24382 1.2342381 -3.9378042
-10.109173 1.2318932 -3.8811245
-9.8520613 0.89638495 -3.7778001
-9.7562027 0.69663239 -3.7403846
-9.7496328 0.37421045 -3.7423964
-9.753377 0.69670832 -3.7391934
-9.6765423 0.85716116 -3.704452
-9.6747417 0.86471057 -3.7035816
-9.4877806 1.267338 -3.6188645
-9.3718443 1.2730012 -3.5699472
-9.2674465 1.2750381 -3.5259442
-9.2373095 1.2758471 -3.5132382
-9.2187376 1.2755291 -3.5054202
-9.1584349 1.2746472 -3.4800334
-9.0761127 1.2777245 -3.445313
-9.0540371 1.2766843 -3.4360304
-9.0274029 1.2782154 -3.424789
-7.3605804 -0.66146612 -2.7514622
-7.4355903 -1.147346 -2.7902586
-7.6400008 -1.2280149 -2.8775535
-7.706934 -1.230185 -2.9057782
-7.7760229 -1.2249627 -2.9348018
-7.8434167 -1.2151365 -2.9630427
-8.0736761 -1.1535326 -3.0591164
-8.1367388 -1.1232982 -3.0852308
-8.1554518 -1.1104478 -3.0929222
-8.1950207 -1.112649 -3.1096215
-8.2076359 -1.1126814 -3.1149359
-8.2325153 -1.1123452 -3.1254103
-8.3690853 -1.0921966 -3.1826353
-8.3911886 -1.088554 -3.1918917
-8.4886351 -1.0871032 -3.2329154
-8.5187721 -1.0879802 -3.2456222
-8.5338125 -1.0909179 -3.252001
-8.563921 -1.0942943 -3.2647328
-8.57899 -1.0947325 -3.2710867
-8.4013481 -1.2147635 -3.1980419
-8.3533373 -1.2759334 -3.1787262
-7.3800087 -1.1267085 -2.7665415
-7.2584023 -1.2478427 -2.7171154
-6.9131446 -0.79373109 -2.5649595
-6.6645126 -0.42103222 -2.45471
-6.9534168 -0.35648289 -2.5754416
-7.1923132 -0.36876884 -2.6762483
-7.2455697 -0.35677448 -2.6985028
-7.3128519 -0.35953674 -2.7268834
-7.3278713 -0.36028704 -2.7332208
-7.3428531 -0.36353651 -2.7395794
-7.397758 -0.44977 -2.7639837
-7.3899837 -0.46689001 -2.760963
-6.781148 1.2608192 -2.4789088
-6.7289152 1.2631714 -2.4568732
-6.710362 1.2679054 -2.4489882
-6.8299284 1.2678161 -2.4993517
-6.8521051 1.2687308 -2.5086792
-6.9006286 1.2532309 -2.5293474
-6.9404764 1.2430921 -2.5462818
-6.8670053 1.2558488 -2.5151463
-4.2553725 1.2630223 -1.4150021
-4.3222146 1.2556069 -1.4432664
-4.4382648 1.2724898 -1.4918973
-4.517952 1.2578251 -1.5256793
-4.551445 1.2603657 -1.5397493
-4.6210141 1.2694606 -1.5689175
-4.6519246 1.2679877 -1.5819591
-4.7857823 1.268153 -1.6383384
-4.8527107 1.2682356 -1.666528
-4.8886418 1.2622932 -1.6817503
-4.9041271 1.264056 -1.6882466
-4.8706908 1.2665139 -1.6741267
-4.291852 1.3045673 -1.4297519
-4.2589426 1.2812774 -1.4162352
-3.9466856 1.2929229 -1.2845379
-1.2623396 1.3029566 -0.15372431
-1.2957954 1.303013 -0.16781533
-1.3321538 1.3030081 -0.18312967
-9.296895 -1.1077683 -3.5736663
-9.2598066 -1.1034735 -3.557981
-9.2227192 -1.0991787 -3.5422955
-9.2076788 -1.0962406 -3.535917
-9.1775131 -1.0978637 -3.5232353
-9.2562752 -1.1067637 -3.5565422
-10.312297 -1.1251272 -4.0016174
-10.282176 -1.1243612 -3.9889193
-8.9826202 -1.1007651 -3.4411881
-8.8817825 -1.093008 -3.3985996
-8.8632116 -1.0933601 -3.3907824
-8.8782797 -1.0937985 -3.3971357
-8.9755573 -1.1073453 -3.4383104
-8.9976606 -1.1037031 -3.4475665
-9.0836267 -1.0935247 -3.4836252
-9.1323357 -1.0940492 -3.5041497
-9.1624451 -1.0974253 -3.5168815
-4.3921003 1.2921946 -1.4721606
-4.4564471 1.2882637 -1.4993221
-4.4899116 1.2883048 -1.5134168
-4.5079203 1.2890828 -1.5209907
-4.5747919 1.2841666 -1.5492303
-4.608285 1.2867074 -1.5633003
-4.6237402 1.2859709 -1.569821
-4.6812968 1.2798628 -1.5941547
-4.7395601 1.282859 -1.6186513
-5.8272557 -1.0895835 -2.1119609
-5.8609161 -1.0897149 -2.1261408
-5.8795562 -1.0890961 -2.1339831
-6.0629902 -1.0830055 -2.2111564
-6.0893698 -1.0883745 -2.2223473
-6.2187672 -1.1146017 -2.2772391
-6.2569613 -1.1158315 -2.293345
-6.2719812 -1.1165817 -2.2996826
-6.7441168 -1.1622639 -2.4992266
-9.4058781 -1.110046 -3.6196043
-9.4429951 -1.1118411 -3.6352649
-9.3978167 -1.1080266 -3.616179
-9.1508522 -1.0986961 -3.5120175
-8.7878685 -1.0911685 -3.3590147
-8.7808619 -1.0927496 -3.356087
-8.8179779 -1.0945448 -3.371747
-7.4399791 1.2608578 -2.7564125
-7.4736032 1.2582399 -2.7706139
-7.5408792 1.2555039 -2.7989914
-7.6232824 1.259883 -2.8336356
-7.6569352 1.2597648 -2.8478119
-7.6723585 1.2593238 -2.854315
-7.7581301 1.2519698 -2.8905513
-7.7732258 1.254065 -2.896879
-7.8556032 1.2559872 -2.9315484
-7.82199 1.2585733 -2.917352
-7.6503139 1.3034602 -2.8443754
-7.6352711 1.3038439 -2.8380337
-7.6052146 1.3071109 -2.8253253
-7.4855347 1.2972014 -2.7750621
-7.4031882 1.2978214 -2.7403679
-7.3695354 1.2979398 -2.7261915
-7.2756791 1.2788504 -2.6869414
-7.2080388 1.2673336 -2.6586215
-7.2603002 1.2674809 -2.6806321
-7.2718043 1.2689477 -2.685456
-7.3312006 1.2703931 -2.7104526
-7.3762712 1.264243 -2.729528
-6.2688856 1.3017687 -2.2625334
-6.1829143 1.2967403 -2.2263961
-6.1544991 1.2878337 -2.2145593
-6.0436506 1.2720481 -2.1681035
-5.9913893 1.2719009 -2.1460927
-5.9506598 1.2757202 -2.1288805
-5.8870091 1.272554 -2.1021175
-5.8603196 1.2705232 -2.0909057
-5.8044047 1.262228 -2.067477
-5.9204326 1.2639892 -2.1163225
-5.9877939 1.2687521 -2.1446252
-6.0214176 1.2661343 -2.1588264
-6.066545 1.2649833 -2.1778512
-6.1223741 1.2657796 -2.2013552
-6.1524868 1.267512 -2.2140133
-6.1976151 1.2663611 -2.2330387
-6.2348337 1.266892 -2.2487075
-6.2871246 1.2695388 -2.2706935
-6.3509183 1.2736526 -2.2975028
-6.398797 1.2866446 -2.317477
-6.4048004 1.2882043 -2.3199828
-6.4894075 1.3013248 -2.3554254
-6.4557552 1.3014431 -2.341249
-6.3848557 1.2985307 -2.3114288
-6.369813 1.2989144 -2.3050871
-8.8029652 -1.0891073 -3.3653431
-8.1145191 1.2806238 -3.0402403
-8.17029 1.2865769 -3.063643
-8.2154408 1.2803642 -3.0827532
-8.227006 1.2792374 -3.0876412
-8.0622797 1.2778928 -3.0182772
-8.0993958 1.276029 -3.0339384
-8.1666775 1.2758559 -3.0622802
-8.1852493 1.2761738 -3.0700984
-5.7371583 1.2674636 -2.0390747
-5.7521152 1.259581 -2.0454915
0 0 0 1 0 0 0 1 0 0 0 1 0 0 0 0 0 586 1 0 0
