ply
format ascii 1.0
comment PCL generated
element vertex 577
property float x
property float y
property float z
element camera 1
property float view_px
property float view_py
property float view_pz
property float x_axisx
property float x_axisy
property float x_axisz
property float y_axisx
property float y_axisy
property float y_axisz
property float z_axisx
property float z_axisy
property float z_axisz
property float focal
property float scalex
property float scaley
property float centerx
property float centery
property int viewportx
property int viewporty
property float k1
property float k2
end_header
-0.87532806 -1.2273324 2.6729856
-0.71228027 -1.2294095 2.693536
-0.4510684 -1.0872972 2.725781
-0.52941275 -1.0926924 2.7159362
-0.65325308 -1.1004169 2.7003708
-0.73161077 -1.1008127 2.6905012
-0.77078342 -1.1035104 2.6855788
-0.8491416 -1.1039059 2.6757092
-0.98350382 -1.1105974 2.6588135
-1.0513535 -1.1070263 2.650249
-1.3885698 -0.85164219 2.606576
-1.227695 -0.33183187 2.6244192
-1.2305036 -0.31667173 2.6239948
-1.2599583 -0.29182166 2.6201682
-1.2764726 -0.29147977 2.6180863
-1.5030665 -0.47813797 2.5904102
-1.8826194 -0.053426355 2.5406141
-1.8147287 0.089558765 2.5485003
-1.824091 0.20945674 2.5467618
-1.8267851 0.44955206 2.5453029
-1.7308178 0.68996489 2.556272
-1.7059765 0.80989534 2.5588424
-1.7060957 0.84989285 2.558641
-1.573451 1.0846055 2.5742571
-1.2872295 1.3128047 2.6092515
-1.2088861 1.3182096 2.6190958
-1.1178803 1.3179102 2.6305621
-1.0913348 1.3138175 2.6339254
-1.0256095 1.3099272 2.6422236
-0.94094276 1.3149798 2.6528664
-0.81709623 1.3202348 2.6684442
-0.73243666 1.3277874 2.6790743
-0.65411615 1.3406916 2.6888809
-0.5303216 1.3634455 2.7043705
-0.45179605 1.3738389 2.7142146
-0.49745989 1.3615005 2.7085195
0.66168356 -1.0123761 2.8656158
0.7010808 -0.97213584 2.8703916
0.73374367 -0.85169381 2.8739448
0.7057333 -0.85228449 2.870419
0.5803194 -1.0452263 2.8555188
-4.8166933 1.3382165 2.1644914
-4.9089637 1.3461993 2.1528299
-4.9607692 1.3392017 2.1463361
-5.0719743 1.335742 2.1323426
-5.1174769 1.3358917 2.1266096
-5.149075 1.3301535 2.1226556
-5.2701864 1.3176355 2.1074562
-5.3532724 1.3098385 2.0970256
-5.4200592 1.3084786 2.088618
-5.5220213 1.3142221 2.0757461
-5.5887623 1.3053629 2.0673795
-5.6455693 1.3035855 2.0602312
-5.6907086 1.3086064 2.0545211
-5.796824 1.3194165 2.0411024
-5.836091 1.3215871 2.0361454
-5.841948 1.3219376 2.0354059
-5.853663 1.3226388 2.0339267
-5.8870564 1.3219588 2.0297229
-5.9321799 1.3244798 2.0240266
-5.9597158 1.3234494 2.0205624
-6.0341291 1.3125508 2.0112386
-6.0773597 1.3049631 2.0058279
-6.122437 1.2999849 2.0001721
-6.1892085 1.2961252 1.9917784
-6.1441002 1.296104 1.9974612
-6.1107073 1.2967839 2.0016649
-6.0714874 1.3021128 2.0065808
-5.9753976 1.2992198 2.0186999
-5.8183947 1.3005369 2.0384729
-5.745719 1.2965465 2.047647
-5.6947536 1.2961748 2.0540695
-5.6730585 1.2950559 2.0568078
-5.6279664 1.2975345 2.0624771
-5.5612102 1.3038936 2.0708573
-5.4826927 1.3020523 2.0807574
-5.4492989 1.3027322 2.0849612
-5.4159055 1.3034122 2.089165
-5.3983493 1.3048601 2.0913699
-5.3415422 1.3066375 2.0985184
-5.2238212 1.3126249 2.1133208
-5.1687326 1.312186 2.1202629
-5.0960879 1.3131952 2.12941
-5.0668483 1.3189416 2.1330667
-5.0551496 1.3207405 2.1345322
-4.9405394 1.3329613 2.1489139
-4.8230023 1.333569 2.1637182
-4.8040376 1.3350122 2.1661007
-4.7838311 1.3362715 2.1686404
-4.7054653 1.3341768 2.1785228
-4.666286 1.3343792 2.1834576
-4.5891552 1.3299685 2.1931951
-4.5879135 1.3297846 2.1933525
-4.5095553 1.3301897 2.203222
-4.4311972 1.3305948 2.2130919
-4.3932447 1.3259814 2.2178943
-4.3604121 1.3340359 2.2219932
-4.2947168 1.3401451 2.2302408
-4.2163372 1.3330507 2.2401483
-4.1316476 1.3306036 2.250829
-4.1051092 1.3290107 2.2541795
-4.0267663 1.3344154 2.264024
-3.9622905 1.333209 2.2721524
-3.8839023 1.3236146 2.2820723
-3.8447311 1.3263171 2.2869945
-3.7474082 1.3281653 2.2992468
-3.6222603 1.3132379 2.3150826
-3.5704253 1.3102362 2.3216267
-3.5312688 1.3179381 2.3265235
-3.4921048 1.3231404 2.3314333
-3.4276292 1.321934 2.3395615
-3.3416903 1.3168032 2.3504119
-3.0610695 0.88807893 2.3877635
-3.0755074 0.80300826 2.3863411
-3.1365993 0.60258126 2.3795793
-3.1353304 0.44254717 2.3804853
-3.1001036 0.44296983 2.3849211
-3.0600231 0.53810048 2.3895268
-3.0601201 0.57059848 2.3893633
-3.0480936 0.64315736 2.3905401
-3.0264969 0.72365022 2.3928854
-2.9894159 0.88385862 2.3968101
-2.9890654 0.89883566 2.3967843
-2.7425611 1.3068216 2.4259367
-2.6838074 1.3121245 2.4333138
-2.6446209 1.3098273 2.4382613
-2.5858448 1.3076315 2.4456761
-2.396749 1.2603409 2.4697189
-2.3348696 1.2468164 2.4775774
-2.010184 0.8952412 2.5201204
-2.0191331 0.84825051 2.5192122
-2.0304604 0.64803278 2.5187185
-2.0218532 0.56846589 2.5201738
-2.0216587 0.50346988 2.5205014
-2.0311697 0.40842509 2.5197463
-2.0320721 0.36803734 2.5198209
-2.0377347 0.18702924 2.5199516
-2.0317593 0.1288199 2.5209756
-2.0316396 0.088822365 2.5211773
-2.0151346 -0.012846544 2.5237305
-1.980628 -0.092668295 2.5284498
-1.8817201 -0.37340558 2.5422192
-2.0837815 -0.71145833 2.5183396
-2.1341188 -0.73381114 2.5121024
-2.2919526 -0.84420198 2.492733
-2.5775363 -0.90704852 2.4570484
-2.7338228 -0.9179135 2.4374099
-3.0993035 -0.58996195 2.3898377
-3.2552249 -1.0358498 2.3722737
-3.4181685 -1.0542762 2.3518319
-3.4965212 -1.0572104 2.3419747
-3.6000378 -1.0678761 2.3289835
-3.6455212 -1.0681512 2.3232548
-3.7504926 -1.0636873 2.3100097
-3.5534427 -1.1526639 2.3352489
-3.5370016 -1.1525843 2.3373199
-3.5118113 -1.1524332 2.3404925
-3.5079596 -1.1523888 2.3409774
-3.4663281 -1.152158 2.3462212
-3.4582427 -1.1521463 2.3472397
-3.4190602 -1.1519291 2.352175
-3.2145379 -1.0607622 2.3775156
-3.2019496 -1.0581465 2.3790894
-3.1502037 -1.0503137 2.3855717
-3.0907271 -1.0525529 2.393075
-3.0452693 -1.0472777 2.398777
-2.927784 -1.0341265 2.4135165
-2.8948889 -1.0364671 2.4176717
-2.8556941 -1.0387499 2.4226201
-2.6767728 -1.0765336 2.4453368
-2.6249454 -1.0770724 2.4518685
-2.5718839 -1.0752034 2.4585443
-2.5390289 -1.0746372 2.4626808
-2.5074151 -1.0739791 2.4666605
-2.4543538 -1.0721102 2.4733365
-2.2222657 -1.1332352 2.5028598
-2.1015103 -1.1528246 2.5181639
-1.983973 -1.1522315 2.5329685
-1.8613462 -1.1544139 2.5484271
-1.8284912 -1.1538479 2.5525637
-1.6653385 -1.1934223 2.573302
-1.563273 -1.1719325 2.58606
-1.4940987 -1.132561 2.5945911
-1.1275926 -1.2111068 2.6411297
-1.0965128 -1.2293479 2.6451302
-1.0712228 -1.2283213 2.6483114
-0.98653364 -1.230794 2.6589921
-0.89429331 -1.2287271 2.6706028
-11.082243 0.83430028 1.3775077
-11.093289 0.87461776 1.3759279
-11.09255 0.91421056 1.3758365
-11.082018 1.0347073 1.3766017
-11.067579 1.0798274 1.3782102
-11.044735 1.1146069 1.380926
-11.015518 1.1527917 1.3844285
-10.989647 1.1704817 1.3876054
-10.871535 1.1936953 1.4023769
-10.741806 1.2363331 1.4185214
-10.652275 1.3166218 1.4294261
-10.574598 1.329828 1.4391503
-10.568706 1.3294654 1.4398944
-10.511797 1.3312092 1.4470556
-10.383984 1.2868488 1.4633642
-10.321152 1.2832305 1.4712965
-10.281922 1.2860613 1.4762256
-10.215185 1.2824483 1.4846499
-10.158262 1.281692 1.4918246
-10.146477 1.2809675 1.4933128
-10.073832 1.2744923 1.5024948
-10.031577 1.2729101 1.5078254
-10.019863 1.2722769 1.509304
-9.9864693 1.2729223 1.5135081
-9.967865 1.27371 1.5158482
-9.9050484 1.2725916 1.523767
-9.8570175 1.2757752 1.529803
-9.8353233 1.2745543 1.5325419
-9.7509327 1.2698958 1.543195
-9.8411331 1.2673717 1.5318433
-9.9109097 1.2679543 1.5230502
-9.9462204 1.2626293 1.5186265
-9.9705849 1.2645185 1.5155485
-10.049087 1.2638609 1.5056617
-10.187634 1.2685053 1.488186
-10.260309 1.2799799 1.4789768
-10.266202 1.2803423 1.4782327
-10.275999 1.2806993 1.4769969
-10.309352 1.2800059 1.4727983
-10.399519 1.2625704 1.4615203
-10.456288 1.2383287 1.4544816
-10.58234 1.2356176 1.4386141
-10.824907 0.95368469 1.4093701
-10.646091 0.59675014 1.4335616
-10.646822 0.55664229 1.4336565
-10.646372 0.2467598 1.4351578
-10.6441 0.23662479 1.4354913
-10.572441 0.035742208 1.4454556
-10.58203 0.020290673 1.4443195
-10.584279 -0.40721482 1.4460294
-10.583876 -0.47220933 1.4463832
-10.699013 -0.74106658 1.4331317
-10.700169 -0.86027318 1.4335418
-10.529117 -1.0825303 1.4561272
-10.49221 -1.09972 1.4608568
-10.332504 -1.1383791 1.4811568
-10.316668 -1.1391473 1.4831555
-10.243088 -1.1360302 1.4924104
-10.236351 -1.1360984 1.4932595
-10.181343 -1.1392112 1.5002038
-10.098502 -1.1368158 1.5106292
-10.03607 -1.1346929 1.5184844
-10.02815 -1.1338222 1.5194781
-10.010592 -1.1323743 1.5216832
-9.7510834 -0.6945346 1.5523348
-9.470376 -0.80985266 1.5882359
-9.1060066 -0.4752056 1.6325788
-9.0924091 -0.44719273 1.6341614
-8.5292273 -0.3632701 1.7047197
-8.4730988 -0.31530064 1.711567
-8.4522276 -0.36302376 1.7144189
-8.430728 -0.52256358 1.7178713
-8.3349457 -0.7703265 1.731093
-8.5174341 -1.1026466 1.7096525
-8.556654 -1.1079752 1.7047365
-8.5741949 -1.1119232 1.7025452
-8.6351557 -1.108634 1.69485
-8.6685495 -1.1093137 1.6906462
-8.7429428 -1.1075397 1.6812657
-8.7980156 -1.1096005 1.6743373
-8.8273029 -1.1078477 1.6706396
-8.8941212 -1.1042078 1.6622049
-8.83144 -1.1052806 1.6701064
-8.5472698 -0.73370785 1.7041737
-8.5545216 -0.68579549 1.7030368
-8.5579472 -0.60562694 1.7022315
-9.1037321 -0.48783606 1.6329243
-9.4543858 -0.85079151 1.5904412
-9.1472912 -1.090133 1.6302449
-9.0669775 -1.1022568 1.6404194
-9.0335674 -1.1040769 1.6446368
-8.949194 -1.1062686 1.6552765
-9.011858 -1.1076953 1.6473887
-9.0393944 -1.1087258 1.6439245
-9.1237698 -1.106534 1.6332847
-9.1513062 -1.1075644 1.6298205
-9.2415371 -1.1050222 1.6184412
-9.3141346 -1.1135306 1.6093351
-9.5234585 -1.1318867 1.58305
-9.5947905 -1.1717844 1.5742497
-9.7516584 -1.1318009 1.554301
-9.8201799 -1.1328771 1.5456737
-9.8535585 -1.1360567 1.5414835
-9.9007139 -1.1397564 1.5355601
-9.9378853 -1.1413643 1.5308847
-9.9929895 -1.1384256 1.5239291
-10.051861 -1.1414242 1.5165265
-10.081131 -1.1421711 1.5128424
-10.175455 -1.1445613 1.5009707
-10.198885 -1.1431592 1.4980125
-10.304907 -1.1473477 1.4846754
-10.383423 -1.1455066 1.4747753
-10.416833 -1.1436865 1.4705579
-10.479483 -1.1476133 1.4626837
-10.512953 -1.1357942 1.4584119
-10.656973 -1.0999033 1.4401009
-10.772478 -1.0413754 1.4252768
-10.784883 -1.0189803 1.4236095
-10.806509 -0.93956381 1.4205148
-10.817522 -0.89925772 1.4189396
-10.817316 -0.77965957 1.4184078
-10.855412 -0.66078234 1.4130543
-10.881252 -0.60310119 1.40953
-10.881765 -0.52060807 1.4090807
-10.940561 -0.20241216 1.4001901
-10.936073 -0.10022748 1.400279
-10.85771 0.040375575 1.4094958
-10.793989 0.23675154 1.4166077
-10.792032 0.31676528 1.4164811
-11.028503 0.63434821 1.3852098
-11.047157 0.71460027 1.3824856
-7.1830149 -0.39727587 1.8744738
-6.605268 -0.39050448 1.9472269
-6.5220523 -0.38265437 1.9576738
-6.4424067 -0.38957375 1.9677397
-6.4287858 -0.38938344 1.9694548
-6.3699098 -0.38889688 1.9768697
-6.3653688 -0.3888334 1.9774414
-6.3478312 -0.38871437 1.9796504
-6.4132524 -0.55132419 1.9721668
-6.7608004 -0.9544149 1.930262
-6.2980666 -1.0949373 1.9892123
-8.8072567 1.2902412 1.6619843
-8.8874302 1.2796302 1.6519337
-8.9659796 1.2864718 1.642006
-9.0485716 1.2810855 1.6316261
-9.168107 1.2876441 1.6165366
-9.2231627 1.2832198 1.6096213
-9.2957439 1.2722464 1.6005286
-9.3350105 1.2744172 1.5955718
-9.3918333 1.2750385 1.5884103
-9.5547409 1.2815392 1.5678569
-9.3977385 1.2828546 1.5876299
-9.3643923 1.2909997 1.5917929
-9.246624 1.2894862 1.6066364
-9.1839752 1.2935479 1.6145101
-9.1397276 1.29353 1.6200844
-9.1047421 1.2941661 1.6244889
-9.0720806 1.2948511 1.6286004
-9.0564098 1.2946167 1.6305757
-8.975975 1.2895594 1.6407324
-8.929245 1.2967794 1.6465858
-8.9260588 1.2967603 1.6469872
-8.8699207 1.2886794 1.6540972
-1.2545466 1.370856 2.6130981
-1.2933307 1.3706315 2.6082132
-1.4895167 1.3346429 2.5836654
-1.6007142 1.3286834 2.5696845
-1.6410789 1.3285468 2.5646
-1.6501703 1.3290532 2.5634522
-1.6917205 1.3289828 2.5582182
-1.7308998 1.3287802 2.5532832
-1.776403 1.3289299 2.5475502
-1.8674164 1.3317292 2.5360713
-1.8918958 1.3291028 2.5329995
-1.9988289 1.3270102 2.5195379
-2.0575974 1.3267064 2.5121357
-2.1618912 1.3340518 2.4989624
-2.2402496 1.3336465 2.4890928
-2.3956416 1.3051543 2.4696493
-2.4348207 1.3049519 2.4647145
-2.5725868 1.3105845 2.4473326
-2.5921841 1.3129835 2.4448524
-2.6174803 1.3143926 2.441659
-2.6762638 1.319088 2.4342318
-2.7742114 1.3185821 2.4218946
-2.8525844 1.3231766 2.4119997
-2.8917561 1.3204744 2.4070776
-2.970129 1.325069 2.3971827
-3.0156171 1.320219 2.3914747
-3.0686939 1.3234046 2.3847733
-3.1233649 1.323916 2.3778834
-3.1533909 1.3283515 2.3740802
-3.1925774 1.3306487 2.3691325
-3.2380731 1.3282986 2.3634121
-3.3227403 1.323246 2.3527691
-3.3682511 1.3258955 2.3470235
-3.3947892 1.3274884 2.3436728
-3.4137616 1.3285451 2.3412776
-3.4402924 1.3276381 2.3379395
-3.5060098 1.3290284 2.329654
-3.5515203 1.3316779 2.3239083
-3.5831482 1.3359389 2.3199039
-3.6298709 1.328773 2.3140512
-3.6753743 1.3289227 2.3083179
-3.7335253 1.3297768 2.3009882
-3.7537396 1.3310175 2.2984357
-3.7866096 1.3354623 2.2942741
-3.9718823 1.3998864 2.270633
-3.9747357 1.4006417 2.2702701
-4.0409021 1.4177988 2.2618544
-4.1249151 1.4014051 2.2513468
-4.1524682 1.4001076 2.2478819
-4.1872892 1.3989172 2.2435007
-4.2070522 1.4000182 2.2410059
-4.2234802 1.3997407 2.2389376
-4.2715764 1.3988423 2.2328825
-4.4716334 1.3355758 2.2079744
-4.4906054 1.3366325 2.2055793
-4.5234752 1.3410773 2.2014177
-4.6018333 1.3406723 2.1915479
-4.667551 1.3420627 2.1832623
-4.7522402 1.3445096 2.1725819
-6.9192724 -1.2579799 1.911713
-7.4810133 -1.1767948 1.8405665
-7.7820964 -1.239373 1.8029277
-7.884881 -1.2802339 1.7901695
-7.8262582 -1.1759446 1.7970686
-7.7454748 -1.0766215 1.8067826
-7.633214 -0.71681446 1.8192477
-7.5911779 -0.39929652 1.8230629
-7.5899162 -0.36688685 1.8230709
-7.5691032 -0.3581751 1.8256522
-7.466228 -0.37874854 1.8387084
-7.4072809 -0.38621444 1.8461692
-7.3680153 -0.38838995 1.8511262
-7.2895579 -0.38024193 1.8609722
-6.2136765 -1.0996549 1.9998658
-6.4337683 -1.1893954 1.9725571
-6.4760237 -1.1905746 1.9672391
-6.5032649 -1.1909552 1.9638091
-6.8457899 -1.274509 1.9210474
-6.8857884 -1.2722876 1.915998
-6.6560807 1.289607 1.9329922
-6.6502237 1.2892563 1.9337318
-6.5775638 1.2877657 1.9428923
-6.5266132 1.2898936 1.9493011
-6.4539385 1.2859035 1.9584754
-6.3362007 1.2893908 1.9732916
-6.3069301 1.2901378 1.9769757
-6.2910924 1.2893696 1.9789745
-6.261838 1.2926164 1.9826448
-6.3128037 1.2929883 1.9762225
-6.3462124 1.2948081 1.9720051
-6.4639959 1.2988198 1.9571481
-6.5817327 1.2953324 1.9423318
-6.6051464 1.2942348 1.9393873
-6.6385398 1.2935548 1.9351836
-8.6051455 1.291569 1.6874402
-8.6736822 1.2928233 1.6788
-8.7521687 1.2896659 1.668927
-8.7638836 1.2902992 1.6674482
-8.5558348 1.278811 1.6937118
-8.6619043 1.2821908 1.6803334
-8.7462959 1.2868493 1.6696801
-6.2313237 -1.0860562 1.9975791
-6.0743361 -1.0822589 2.0173388
-5.9565372 -1.0887854 2.0322094
-5.8604636 -1.0892365 2.0443149
-5.7878041 -1.0907211 2.0534754
-5.7192068 -1.1022289 2.062171
-5.6407347 -1.0965805 2.0720305
-5.5798049 -1.0948319 2.0796983
-5.4778285 -1.1031492 2.0925841
-5.4169288 -1.096401 2.1002247
-5.2705832 -0.54219323 2.1160774
-5.2692242 -0.52478641 2.1161675
-5.1662364 -0.54350972 2.1292293
-5.1605978 -0.54351497 2.1299396
-4.7438722 -0.54687709 2.1824543
-4.7437105 -0.57937628 2.1826262
-4.9448447 -1.0753772 2.1595998
-7.3350139 1.277211 1.8475181
-7.2723494 1.2786376 1.8554059
-7.2272563 1.2811162 1.8610752
-7.2665071 1.280787 1.8561319
-7.2840791 1.2818387 1.8539133
-7.2899365 1.2821894 1.8531737
-7.3508663 1.280479 1.8455057
-7.4134998 1.2740526 1.8376452
-7.4527507 1.2737234 1.8327019
-7.5117736 1.2685957 1.8252901
-7.564631 1.2698853 1.8186251
-7.5980234 1.2692053 1.8144214
-7.6097383 1.2699065 1.8129424
-7.6295576 1.2726088 1.8104329
-7.6688404 1.2772794 1.8054624
-7.7531834 1.2744386 1.7948501
-7.7807193 1.2734764 1.7913855
-7.8258276 1.2734642 1.7857029
-7.9260712 1.281527 1.7730366
-7.8024621 1.2821968 1.7886057
-7.7632113 1.2825255 1.7935491
-7.6454425 1.2810123 1.8083926
-7.6003504 1.2835243 1.8140616
-7.5176787 1.2764118 1.8245097
-7.4825659 1.2795112 1.8289187
-6.9466743 1.2880704 1.8963904
-6.8740144 1.2865796 1.9055511
-6.8523355 1.2879605 1.9082757
-6.840621 1.2872596 1.9097548
-6.8581619 1.2833116 1.9075634
-6.8681412 1.2837293 1.9063042
-6.924964 1.2844517 1.8991424
-6.9817872 1.2851741 1.8919804
-7.0210381 1.2848449 1.8870372
-6.9700875 1.2869728 1.893446
-4.1738076 -1.0686488 2.2567036
-4.1801081 -1.0687065 2.2559102
-4.1486187 -1.0659173 2.2598643
-4.1423178 -1.0658593 2.2606578
-4.1549058 -1.068475 2.259084
-4.1612072 -1.0685329 2.2582905
-5.0752645 -1.112747 2.1433439
-5.0342784 -1.1128135 2.1485076
-4.8979568 -1.0802319 2.1655295
-4.8258791 -1.0823555 2.1746197
-4.7788343 -1.0795658 2.1805334
-4.7349386 -1.0768054 2.1860504
-4.6110659 -1.0810957 2.2016759
-4.5781841 -1.0809364 2.2058177
-4.5453143 -1.0782771 2.2099462
-4.5201125 -1.0780456 2.21312
-4.4620533 -1.0726547 2.2204092
-4.3445187 -1.0695033 2.2352014
-4.2521849 -1.0665832 2.24682
-4.2976308 -1.0743582 2.2411311
-4.3368006 -1.0770752 2.2362092
-4.372488 -1.077296 2.2317142
-4.3830705 -1.0773575 2.2303813
-4.4214535 -1.0800674 2.2255585
-4.4746294 -1.0777705 2.2188487
-4.4809303 -1.0778284 2.2180552
-4.4872303 -1.0778861 2.2172618
-1.1855783 1.3704426 2.6217885
-1.1433187 1.366816 2.6271293
-0.8798008 1.3714461 2.6603057
-0.72020769 1.3328502 2.6805911
-0.66043997 1.3410439 2.6880827
-7.2114196 1.2803483 1.8630738
-7.1780257 1.281028 1.8672776
-7.0761256 1.2852838 1.8800951
-7.0602889 1.2845156 1.8820938
-7.1938787 1.284296 1.8652653
-3.8162694 -1.061506 2.301713
-3.8477588 -1.0642953 2.2977591
-3.8540466 -1.066853 2.2969787
-3.7896752 -1.0639045 2.3050745
-5.130383 -1.1073627 2.136375
-5.1696339 -1.107687 2.1314316
-5.2815742 -1.1015275 2.1173007
-5.3149672 -1.1022184 2.113097
-5.3706727 -1.1022735 2.1060796
-5.3915439 -1.1027052 2.1034522
-5.5988874 -1.1849864 2.0777147
-5.8034906 -1.1150098 2.0516126
-5.8397818 -1.1069798 2.047003
-5.9154763 -1.1013508 2.0374408
-5.9271913 -1.1006174 2.0359616
-5.9664569 -1.0984421 2.0310047
-6.0841789 -1.1044147 2.016202
-9.7175388 1.2705412 1.5473989
-9.6548748 1.2721031 1.5552862
-9.6390533 1.2736988 1.5572718
-9.6999989 1.2745907 1.5495898
-9.7117138 1.2752242 1.548111
-1.2359791 1.3705671 2.6154385
-7.0427322 1.2859638 1.8842989
-8.493187 1.2828727 1.7015852
-8.5717354 1.2897146 1.6916577
-8.275238 1.2832961 1.7290404
-8.2417812 1.2739425 1.7332989
-8.3145046 1.2854669 1.7240834
-8.4047365 1.2879426 1.7127045
-8.4381142 1.2847972 1.7085142
-8.4146538 1.2785308 1.711499
-8.3812914 1.2841761 1.7156756
-9.5822458 1.2755773 1.5644196
-9.5998344 1.2790272 1.5621878
0 0 0 1 0 0 0 1 0 0 0 1 0 0 0 0 0 577 1 0 0
