ply
format ascii 1.0
comment PCL generated
element vertex 909
property float x
property float y
property float z
element camera 1
property float view_px
property float view_py
property float view_pz
property float x_axisx
property float x_axisy
property float x_axisz
property float y_axisx
property float y_axisy
property float y_axisz
property float z_axisx
property float z_axisy
property float z_axisz
property float focal
property float scalex
property float scaley
property float centerx
property float centery
property int viewportx
property int viewporty
property float k1
property float k2
end_header
-0.5615201 -1.2047334 -4.4216928
-0.46406269 -1.2018018 -4.4445639
-0.61010408 -1.2363026 -4.3904781
-0.52156544 -1.2019386 -4.4231267
-0.45028782 -1.2272933 -4.3962903
-0.3840251 -1.2013576 -4.4448447
-0.64148235 -1.2028236 -4.4187503
-0.64591837 -1.214314 -4.2690692
-0.44162083 -1.2013485 -4.4260445
-0.6014924 -1.2050285 -4.4202337
-0.74060154 -1.1978235 -4.1855488
-0.92574406 -1.2144563 -4.2588754
-0.88354683 -1.1991515 -4.1953526
-0.58978701 1.3364719 -4.2900782
-0.71116352 1.3358424 -4.3256779
-0.62657833 1.3359033 -4.3938808
-0.70828438 1.3399491 -4.2456789
-0.66837692 1.3478072 -4.2470498
-10.957419 -1.1166706 -4.0170584
-11.037414 -1.1146715 -4.0152707
-11.078232 -1.1248059 -4.0544014
-10.959216 -1.1139393 -4.0970302
-10.715611 -1.130399 -3.9424634
-10.676558 -1.1225331 -3.9833202
-0.67131996 1.3511996 -4.3269629
-1.2351165 1.3250198 -4.4267344
-0.48814297 1.3707433 -4.4554
-0.41768646 1.3953114 -4.4958591
-0.31519461 1.3887312 -4.4996791
-7.5642843 -1.197422 -4.2996073
-7.5234499 -1.1968164 -4.2604642
-7.4043036 -1.1985052 -4.3029795
-0.80333042 -1.198405 -4.1907692
-0.84302902 -1.1987908 -4.181818
-7.4826384 -1.193711 -4.2213359
-7.4034815 -1.1957538 -4.2630048
-0.64730453 -1.2217693 -4.3090534
-0.96435356 -1.2048786 -4.2174315
-1.0443439 -1.2006335 -4.2145128
-10.917461 -1.1114202 -4.0179329
-10.96229 -0.56399608 -4.080368
-7.4031076 0.76293498 -4.0997262
-7.4159966 0.80283391 -4.1018319
-7.3357048 0.84342831 -4.0734534
-0.40681219 1.3682442 -4.4181805
-0.45318985 1.3836148 -4.3746047
-0.44679832 1.3705766 -4.4167919
-7.4599953 1.2824658 -4.0969939
-7.638772 1.2823423 -4.0943913
-0.68728256 1.343097 -4.2864404
-0.37627506 1.3977234 -4.4573169
-0.49311876 1.3782566 -4.3732047
-0.67278099 1.3516459 -4.3669333
-0.54940701 1.3764627 -4.3962917
-1.1965632 1.3208253 -4.4682198
-6.0778551 0.89436889 -4.1681714
-6.1780329 0.85358948 -4.1911168
-6.4203215 1.2963369 -4.1195588
-7.0790596 -1.1289155 -4.0302196
-0.7300663 -1.2324352 -4.3861036
-1.2600331 1.3217189 -4.4108882
-1.22295 1.3178196 -4.4923415
-1.2365561 1.3229665 -4.4667339
-1.3150601 1.3243026 -4.4238205
-1.3550534 1.3264437 -4.4223347
-11.134759 1.1987244 -4.0696893
-11.310218 0.76980013 -4.1028562
-11.435416 1.3308679 -4.1250019
-11.355429 1.3288022 -4.1269813
-10.97437 1.2650514 -4.0336213
-11.307768 0.83405417 -4.1286464
-11.317981 0.87399924 -4.1283545
-10.836561 -1.116035 -3.9797378
-7.3461561 1.2892948 -4.3795166
-7.3861246 1.2864537 -4.3786559
-7.1061802 1.2863423 -4.3847427
-7.2661991 1.2924771 -4.3812461
-7.1045046 1.2936118 -4.304739
-6.9712162 1.2874938 -4.3876739
-7.4158335 0.80281234 -4.0943336
-7.7591267 0.75439471 -4.2904739
-7.7399607 1.2850772 -4.0908995
-0.40821981 1.3785779 -4.4580708
-6.2630157 1.3030468 -4.2429886
-6.5065317 1.3713925 -4.3750305
-6.4845266 1.371649 -4.3980136
-6.3421249 1.3022493 -4.2012615
-6.4611588 1.2936109 -4.1586885
-7.1362295 1.295597 -4.2757607
-7.3810129 1.2982627 -4.1386757
-7.8708134 1.3539026 -4.2834587
-7.2552137 1.2917851 -4.2329292
-7.1010685 1.2981513 -4.1447625
-1.0037351 -1.2002757 -4.1984801
-2.6265147 -1.1754556 -4.2368989
-2.6072569 -1.1752446 -4.2576132
-2.804203 -1.1772206 -4.1703877
-6.1192904 -1.122915 -4.0505295
-6.6196566 -1.1708236 -4.199698
-6.0729294 -1.1636269 -4.3301539
-6.3192158 -1.1271858 -4.0462799
-6.5038767 -1.1702859 -4.2821665
-0.58527851 1.3449311 -4.3702068
-0.51536322 1.3862467 -4.4323449
-0.49500942 1.3863137 -4.4230824
-7.090661 -0.77571887 -4.3122625
-7.2220316 -1.1768904 -4.3069654
-6.8999767 -1.1340373 -4.3140373
-6.3047647 1.3054357 -4.322093
-6.2265043 1.3038484 -4.4038186
-6.2664728 1.3010073 -4.4029579
-3.0334218 1.3361486 -4.3018312
-3.0691898 1.3254669 -4.1805611
-2.9092982 1.3286592 -4.1861014
-3.0705888 1.3281364 -4.2205253
-3.1505504 1.3302903 -4.2177386
-2.9546192 1.2791654 -4.3448348
-5.1543045 0.75227582 -4.4108758
-5.2667036 1.3045377 -4.4246845
-5.2266512 1.2973791 -4.4255762
-6.0584707 0.93457383 -4.1809802
-5.9985542 0.97504801 -4.1696634
-6.1786308 0.85366857 -4.2186103
-8.6453447 -1.1760244 -4.2107534
-8.5263958 -1.170083 -4.2536602
-8.6853304 -1.1764331 -4.2097917
-7.9586229 1.2723632 -4.0872107
-8.3255835 -1.1602578 -4.218533
-8.1656389 -1.1586239 -4.2223802
-8.2184258 -1.1119523 -4.0063567
-8.4454908 -1.1664829 -4.2156134
-8.565424 -1.170208 -4.2127113
-8.2456369 -1.1569412 -4.2204738
-8.206584 -1.1593161 -4.2614059
-6.0723219 -1.0813358 -4.2723589
-6.3243732 -1.1186953 -4.2862821
-6.2034702 -1.1273806 -4.2487717
-2.9506624 1.3286557 -4.224689
-6.6425724 -1.1711483 -4.2192168
-8.0057192 -1.1544902 -4.2262444
-7.979414 -1.1075351 -4.051743
-7.71978 -1.1298342 -4.0566897
-1.8332334 1.319194 -4.3649077
-1.9087086 1.3071387 -4.2421961
-1.5890193 1.3200067 -4.2537374
-2.1485398 1.3049868 -4.2334533
-2.5555205 1.2986326 -4.4187942
-2.8321137 1.3268446 -4.2688389
-2.7033699 1.3049843 -4.478363
-2.4356477 1.304708 -4.4231081
-2.9126875 1.3345081 -4.3252797
-1.3828907 1.3241578 -4.4864283
-1.3014498 1.3193338 -4.4494267
-1.5712104 -1.2103183 -4.395462
-1.6025767 -1.1670177 -4.4232845
-1.4911261 -1.2245629 -4.3983955
-1.852891 -1.1679182 -4.42518
-1.2614775 1.3196241 -4.4508853
-11.355685 0.91379505 -4.1273832
-11.311901 0.67402947 -4.1287017
-11.301382 0.56985873 -4.1016278
-7.7042294 0.5556317 -4.3392491
-7.5689583 0.36161172 -4.3486743
-7.645154 0.435377 -4.3363028
-7.3852549 1.2863387 -4.3386655
-7.4651909 1.2806565 -4.3369441
-7.4260921 1.2836127 -4.3777952
-7.2653303 1.2923621 -4.3412557
-7.065321 1.2865684 -4.3456211
-7.1461267 1.2810013 -4.3838897
-7.0261593 1.282025 -4.3864951
-7.0180283 1.2820464 -4.3586445
-7.2188435 1.2852072 -4.3888621
-6.9410915 1.2970161 -4.1482439
-7.0152931 1.2941355 -4.2386336
-6.9027987 1.2925878 -4.2291083
-6.8980436 1.2807218 -4.3615055
-7.4754248 1.2825656 -4.3477521
-0.43968534 1.3866959 -4.4150915
-6.3412132 1.2971344 -4.1612864
-6.190855 0.853526 -4.2058415
-5.1561508 1.2973616 -4.4185758
-4.9947262 1.3454646 -4.3037076
-5.1553316 1.2995119 -4.3785639
-4.9962082 1.3053564 -4.421813
-5.0105572 0.86544001 -4.3152003
-7.2952003 1.2913933 -4.2319784
-7.2961531 1.2915301 -4.2719669
-7.9046602 1.3533902 -4.3282967
-7.8841591 1.3534923 -4.3062525
-11.136493 1.2106824 -4.1460061
-11.195318 1.2996713 -4.1309681
-5.2692327 1.3161175 -4.1442051
-4.9929037 1.345242 -4.2512398
-5.189292 1.3189636 -4.1469698
-5.4410472 -1.1298962 -4.1448307
-5.281889 -1.1337306 -4.1881781
-5.3594685 -1.1186857 -4.0666051
-5.4793921 -1.1247478 -4.064034
-2.5228739 -1.1046481 -4.1205163
-2.6042533 -1.1753361 -4.175168
-2.7820327 -1.1770983 -4.1111555
-2.8208179 -1.0643847 -4.2396002
-2.5657346 -1.1074367 -4.1990108
-4.0563402 -1.1100779 -4.0943317
-3.9974365 -1.109339 -4.1989374
-4.0424089 -1.1095283 -4.1973758
-3.8246965 -0.98803741 -4.3244481
-5.3603134 -1.118937 -4.1065955
-4.5839386 -1.0637343 -4.2984262
-5.8322849 -1.0915768 -4.278142
-5.7523117 -1.0908241 -4.2800541
-5.7252188 -1.1311328 -4.3388691
-0.6140871 1.335994 -4.3943367
-4.6362047 1.3139262 -4.424181
-4.6761446 1.3137805 -4.420856
-4.6837978 1.3138229 -4.4281988
-4.6754513 1.3059969 -4.3884301
-4.3555717 1.3244863 -4.3948827
-4.4353218 1.3254304 -4.33323
-4.6323805 1.314226 -4.2463837
-4.4738979 1.3225877 -4.2918777
-4.7109747 1.3212101 -4.2035995
-3.9514184 1.3194985 -4.2299905
-3.8728766 1.3250142 -4.2727199
-3.8342795 1.3228569 -4.3140941
-3.7557483 1.3308725 -4.3568125
-6.0665693 1.3077132 -4.4072847
-6.0265598 1.3055544 -4.4081607
-5.9065924 1.306578 -4.4107661
-6.9265013 -0.68103117 -4.1962962
-6.9930897 -0.9749983 -4.2499371
-7.5556793 0.12158595 -4.3098001
-7.536725 0.28251499 -4.3382616
-6.9062557 1.2905482 -4.3890777
-6.7087879 1.2897331 -4.3933735
-6.3782406 1.2883142 -4.3738565
-6.4562368 1.2797576 -4.2920055
-6.4629402 1.2988409 -4.2386541
-6.058835 1.0544826 -4.15062
-6.1060247 0.97413105 -4.1673293
-6.0198116 1.0149981 -4.2115965
-5.786561 1.300102 -4.4133945
-3.516531 1.3099356 -4.4523692
-4.8362722 1.315851 -4.4250283
-4.9687004 1.3454455 -4.2745934
-5.3866916 1.3060139 -4.4220715
-5.706605 1.3032843 -4.4151239
-5.7413979 1.3047525 -4.1743054
-5.9727211 -1.1258249 -4.3336749
-5.9923973 -1.0818241 -4.2767749
-6.0323591 -1.0784595 -4.2733054
-6.3484373 -0.68642014 -4.2643433
-5.2249756 1.3046486 -4.3455725
-7.5260201 -0.81658763 -4.2227907
-7.5258913 -0.81905597 -4.2177768
-8.0856915 -1.1553073 -4.2243209
-7.9841232 -1.1097188 -4.2616935
-8.0645733 -1.1104927 -4.1698599
-6.1617918 -1.1265235 -4.1696382
-6.1226473 -1.1264207 -4.210475
-6.2409258 -1.1269803 -4.127954
-2.9534497 1.3314948 -4.3046288
-2.2284837 1.3042696 -4.2305393
-1.9160991 1.3193693 -4.4419351
-2.8975909 1.3319106 -4.3108726
-2.8721101 1.3316714 -4.2674294
-6.4843569 -1.1702504 -4.3050842
-7.9659653 -1.1491354 -4.2347379
-7.7670202 -1.1273251 -4.2721734
-7.6021662 -1.1495247 -4.1790795
-7.9257984 -1.1486738 -4.2282019
-7.8459044 -1.1403575 -4.2301769
-7.2738447 -1.0149531 -4.2933726
-7.3208656 -1.1115446 -4.1052403
-7.2807865 -1.1211898 -4.1060262
-7.3190641 -1.1235409 -4.0251837
-1.8687367 1.3074973 -4.2436528
-1.8701763 1.3054439 -4.2836523
-1.9486377 1.3017805 -4.2407961
-1.8980596 1.3066702 -4.3476801
-1.7902968 1.3136604 -4.2864804
-1.6289485 1.3146486 -4.2523379
-2.5004988 1.2931267 -4.4058442
-2.583384 1.2958559 -4.4828429
-2.5034394 1.2964365 -4.4857607
-2.6603191 1.2819663 -4.4001126
-4.6624708 -1.0717564 -4.2557106
-4.6402855 -0.79108912 -4.3752513
-2.0886812 -1.1353173 -4.296474
-1.9628472 -1.144362 -4.1409621
-1.9242849 -1.1489398 -4.1823988
-1.3165002 1.3222492 -4.46382
-1.3964863 1.3265314 -4.4608483
-1.6318276 1.3105417 -4.3323369
-1.4983881 1.3170724 -4.3621902
-1.4410856 -1.1862252 -4.3893485
-1.5211005 -1.176816 -4.3863306
-1.5427799 1.3229967 -4.4805932
-1.6197495 1.3141068 -4.3978109
-7.5058527 1.282197 -4.1360073
-7.7137432 1.320792 -4.2514052
-7.6608524 1.2858746 -4.132627
-7.4218082 1.2905369 -4.1778202
-7.4968929 1.274709 -4.3072562
-7.3751497 1.28811 -4.2300858
-7.4550991 1.2848266 -4.2281938
-7.1861372 1.28316 -4.3830137
-7.0171251 1.2869095 -4.3186378
-6.7810717 1.2908813 -4.1517406
-6.8552246 1.2832031 -4.2424822
-0.46466541 1.386471 -4.4141822
-6.4553576 1.2871205 -4.2519898
-6.5769758 1.2902452 -4.1961899
-7.2152023 1.2896769 -4.2338891
-7.1427546 1.2930404 -4.2238898
-7.1752157 1.2900686 -4.2348399
-7.7431917 1.3204641 -4.22576
-7.6656227 1.3364481 -4.3324256
-7.9205132 1.2828611 -4.1680646
-11.312347 0.7565282 -4.1286097
-11.235291 1.2969542 -4.1299825
-2.8738101 -0.53770477 -4.2672086
-2.8491647 -0.45758468 -4.1879644
-2.8529549 -0.47506315 -4.2278724
-2.8514085 -1.1049018 -4.3487072
-2.491616 -1.1065044 -4.3618164
-2.5626309 -1.0716052 -4.3872485
-2.8026557 -1.1772676 -4.1279159
-1.8812718 -1.1194754 -4.372602
-1.8412471 -1.1266799 -4.3741355
-1.7011387 1.3114314 -4.4348907
-2.1499794 1.3029333 -4.2734528
-2.1378417 1.2974291 -4.339005
-2.0579145 1.3005095 -4.3418965
-2.0744188 1.3049897 -4.3962793
-1.9145954 1.3139235 -4.4020219
-1.9779871 1.3035898 -4.3447886
-1.9395108 1.3092847 -4.3861666
-1.9409552 1.3071899 -4.4261637
-2.6250584 -1.1754999 -4.1969252
-4.0173578 -1.0573061 -4.1179543
-3.9388056 -1.0542839 -4.1606936
-5.1188784 -0.3138718 -4.1963115
-5.1404972 -0.67422527 -4.1422009
-4.7781296 -0.67199367 -4.1280942
-5.0166655 -1.0815139 -4.0833545
-6.1412888 1.3013403 -4.1656208
-6.5991869 -1.1246653 -4.0403819
-6.0401564 -1.1224582 -4.0922136
-6.0184526 1.0148182 -4.1491117
-2.4029586 -1.1035159 -4.1248837
-5.2802896 -1.1232283 -4.1082587
-5.2427216 -1.1361279 -4.2290001
-4.7095861 1.3210405 -4.1636238
-4.5138321 1.3124149 -4.2905335
-5.2207336 1.3165727 -4.1455822
-5.3490691 1.2882719 -4.1415501
-1.6869445 -1.1915846 -4.2711453
-3.8216057 -1.0659072 -4.2448678
-4.701108 -1.0596106 -4.2142878
-5.9623356 -1.0828006 -4.2749972
-5.8044205 -1.1240902 -4.2972307
-4.4365749 1.2931006 -4.3733482
-4.5954752 1.3087443 -4.3900595
-3.712985 1.3282064 -4.2782602
-6.1465902 1.3120306 -4.4055324
-5.9466028 1.3087368 -4.4098902
-5.9457121 1.3061217 -4.3699074
-6.4858818 -0.72955352 -4.1927953
-6.7145061 -0.92972797 -4.2952065
-6.7557125 -0.93012053 -4.2929716
-7.5545359 -0.80527645 -4.2358918
-7.5198431 0.16253279 -4.2989645
-7.5693407 0.24145703 -4.3090649
-7.5305176 0.2424442 -4.2985024
-6.7863522 1.2990716 -4.3916602
-6.3857183 1.3173679 -4.3603082
-6.5354042 1.2938366 -4.250061
-6.0197144 1.009991 -4.2091122
-5.6984415 1.2924739 -4.390028
-5.6265631 1.2964671 -4.4168839
-3.5557284 1.3173213 -4.4523277
-3.7231622 -1.1074181 -4.3685541
-3.2564135 -1.0592935 -4.1043715
-4.9130049 1.0257635 -4.2953949
-4.7554331 1.3057494 -4.3867784
-5.6665945 1.3011256 -4.4159999
-5.1535063 1.3046564 -4.2708483
-5.1953297 1.3018881 -4.3777161
-5.4240842 1.3003348 -4.3037467
-5.3160782 1.2992928 -4.3427715
-5.2640743 1.3016925 -4.3047214
-5.3152962 1.299017 -4.3752604
-5.2753201 1.3041404 -4.3760424
-5.1952305 1.2247392 -4.3297749
-8.7917709 1.2647455 -4.2434816
-8.7103577 1.2731451 -4.2854795
-8.6811781 1.2745668 -4.1909614
-8.7373829 -0.01443252 -4.2167845
-8.7926626 0.051538974 -4.2317314
-8.7068787 0.066835493 -4.1932259
-8.6999626 0.1231284 -4.2661719
-7.7182207 0.51480961 -4.3332195
-7.7392702 0.60078144 -4.3279405
-7.7386475 0.52079195 -4.3306851
-8.2992649 -1.117511 -4.0445542
-8.3401546 -1.1177602 -4.0836439
-7.3750715 0.76309758 -4.0753293
-7.8985739 -1.1019766 -4.0135455
-7.861249 -1.1064863 -4.1344233
-7.9803143 -1.107475 -4.091733
-6.2009363 -1.1266263 -4.1288009
-2.3898535 1.305781 -4.2646532
-2.5097475 1.3022053 -4.2603106
-2.7482889 1.3196051 -4.2113681
-2.3542645 1.3074787 -4.3860226
-6.6730328 -0.9894864 -4.2576509
-6.5372353 1.2866105 -4.3300648
-7.7206249 -1.1300855 -4.0966802
-7.8640089 -1.0988059 -4.2543802
-7.7660351 -1.1295414 -4.2321687
-7.9682846 -1.1491077 -4.22718
-7.5242949 -1.197068 -4.3004541
-7.0046844 -1.1348884 -4.2993174
-7.2840405 -1.1773024 -4.2831478
-7.0036287 -1.1345742 -4.2493296
-7.0808392 -1.1194191 -4.110261
-7.1599283 -1.1248755 -4.0685463
-1.8581216 1.3119601 -4.3490868
-2.5819395 1.2979507 -4.4428458
-2.4741158 1.2989036 -4.3817377
-2.7939336 1.301034 -4.3700237
-2.5111871 1.3001519 -4.3003101
-1.7103531 1.3143777 -4.2893949
-1.4199395 1.3230577 -4.4050269
-1.3135991 1.3238562 -4.3838496
-1.7211723 -1.1482933 -4.378737
-1.6011503 -1.1624072 -4.3832631
-1.3784885 1.3204432 -4.3665404
-1.4349759 1.3232267 -4.4194493
-1.516402 1.3254554 -4.4564772
-7.6405926 1.2850305 -4.1743646
-7.4243746 1.2858824 -4.2978067
-7.5426025 1.2846286 -4.2152205
-7.3435907 1.2939494 -4.2595305
-7.335187 1.2910016 -4.2310276
-7.3418303 1.2912194 -4.1795573
-7.1780233 1.2854792 -4.3548231
-7.0161972 1.2892725 -4.2786403
-7.056159 1.2863809 -4.2776985
-6.918622 1.2875751 -4.2687883
-6.8152142 1.281095 -4.2434421
-6.7445183 1.2866831 -4.3125858
-6.7046585 1.2895385 -4.3184457
-0.39624214 1.395045 -4.4566154
-7.7442789 1.320608 -4.2757478
-8.2040358 1.2810681 -4.3217235
-8.1895323 1.2757046 -4.258276
-8.1240396 1.279188 -4.3235297
-8.2030964 1.2759742 -4.2817464
-9.5482912 1.2846676 -4.1848145
-9.5210552 1.2830579 -4.1720243
-9.4801464 1.2807739 -4.1329408
-9.5882273 1.2792723 -4.1838436
-2.6410787 -1.0775838 -4.3444095
-2.8828835 -1.138027 -4.122448
-2.2516215 -1.1217391 -4.3705764
-2.2024133 -1.0965211 -4.393158
-2.0426579 -1.1152668 -4.4066877
-2.4176481 1.2953972 -4.3287935
-1.9300628 -1.1537623 -4.3422999
-1.6362534 1.3168803 -4.4521918
-1.7425554 1.3090463 -4.4734287
-2.3157752 1.3107835 -4.427422
-2.3421056 1.2996924 -4.4515986
-2.3791718 1.301092 -4.3701715
-2.3806162 1.2989972 -4.4101686
-2.3377378 1.3009772 -4.3316593
-1.990092 1.3043679 -4.2792811
-2.0179422 1.3007997 -4.3433557
-1.954546 1.3110651 -4.4005933
-2.0359292 1.3082944 -4.4376788
-1.8624723 1.3081754 -4.4690523
-2.3513212 1.3040863 -4.3061099
-5.3219233 -1.1290853 -4.1873617
-5.3378587 -1.0826747 -4.112227
-4.912837 0.98576432 -4.2955704
-5.5163956 1.299172 -4.1792135
-6.3600492 -1.1277914 -4.085423
-7.4485455 0.12264982 -4.1405911
-6.0801239 -1.1253123 -4.0913515
-5.975996 -1.124634 -4.1335645
-5.9593334 -1.1214983 -4.0539169
-5.9193439 -1.1211443 -4.0547638
-5.5993156 -1.13081 -4.0614629
-5.7635641 -1.1259844 -4.2580724
-2.3244481 -1.1052165 -4.1677723
-2.2429779 -1.1120055 -4.1307211
-4.8694773 1.3178483 -4.1580834
-4.8307104 1.0258235 -4.2307119
-4.8758631 0.98567194 -4.2393203
-4.9686403 1.0652702 -4.2357597
-1.5486164 -1.172019 -4.3852777
-2.9034591 -0.39973444 -4.2336421
-2.8232965 -0.34445691 -4.2236619
-2.8246961 -0.30440706 -4.2351012
-2.9197373 -0.42461139 -4.2732167
-2.9056895 -0.38444465 -4.296032
-4.8581419 -1.0831549 -4.1288929
-4.8595304 -1.0829692 -4.1688685
-5.2052889 -1.1340282 -4.349833
-4.516757 1.3139877 -4.3916416
-6.1856461 1.3040745 -4.3646965
-6.1115541 0.93420511 -4.2073336
-5.6621618 1.2905506 -4.2160788
-5.6639223 1.2932806 -4.296052
-5.6955614 1.2895638 -4.270072
-5.7384529 1.294582 -4.3890681
-5.7784634 1.2966902 -4.3881083
-6.0514193 -0.2460162 -4.257525
-6.2816191 -0.24552917 -4.3293929
-6.0392637 -0.36346048 -4.2805986
-6.0489206 -0.24599403 -4.2575779
-6.0391407 -0.35099667 -4.2705541
-4.9107885 0.64069635 -4.2795949
-4.9101191 0.62562245 -4.2621717
-5.1098461 -0.21306795 -4.3562551
-5.1053267 -0.30112326 -4.2367477
-6.9636393 -1.1342199 -4.2501764
-7.6658878 -1.1460187 -4.2344532
-6.2925739 -0.30114102 -4.3321037
-6.2927761 -0.27864236 -4.3322411
-6.7463417 1.2969129 -4.3925362
-6.6971579 1.2825438 -4.3262711
-6.825387 1.2886157 -4.350832
-6.7835951 1.281227 -4.2717423
-6.3848066 1.312253 -4.3203335
-6.6235962 1.2775919 -4.2752318
-6.5437241 1.2907739 -4.2769303
-6.5653696 1.2910429 -4.2493567
-5.8231153 1.3043002 -4.2525492
-5.9105873 1.2974577 -4.2649255
-6.015625 1.303929 -4.2624021
-2.9062262 -0.40186304 -4.3136048
-2.7816978 1.2815005 -4.4357076
-2.2222404 1.3080627 -4.4558973
-1.8827159 -1.1215863 -4.4125981
-1.5827522 1.3227065 -4.4791346
-4.7154417 1.3058732 -4.3876042
-5.6415796 1.298839 -4.4165506
-5.5865946 1.2993081 -4.4177446
-5.2262583 1.3023214 -4.4055657
-5.1531591 1.3046141 -4.2608547
-5.3161306 1.3018663 -4.4152284
-5.386106 1.3009422 -4.3970928
-5.3448792 1.2961254 -4.3429899
-5.3532348 1.2887807 -4.2614765
-5.2234869 1.3019545 -4.2780962
-5.3385124 1.2909999 -4.398603
-5.4666061 1.2978318 -4.4203577
-8.5221624 1.2809005 -4.2345381
-8.5084848 1.2774552 -4.210413
-8.4439487 1.2767087 -4.31633
-8.4421663 1.2790203 -4.2363443
-8.108552 1.273912 -4.2202601
-8.0822496 1.2793097 -4.2444506
-8.7890253 1.2647493 -4.2335463
-8.7942524 0.30636692 -4.2707143
-8.3265686 -1.1580417 -4.2585378
-8.7200708 0.0032448173 -4.2173247
-7.7386599 0.51579934 -4.3331995
-7.7185946 0.55981112 -4.3343558
-7.7865009 0.79482269 -4.3342218
-8.4854774 -1.1668913 -4.2146516
-7.8195171 -1.0987976 -4.0553312
-8.1793375 -1.1115825 -4.0472465
-8.0611734 -1.1105337 -4.1299267
-8.1402493 -1.111213 -4.0881367
-8.1011229 -1.1158431 -4.129035
-2.8277273 1.32372 -4.1934071
-6.4413481 -1.1288927 -4.146214
-6.6161842 1.2781907 -4.2882023
-7.5669155 -0.81789333 -4.2356405
-7.0340958 -1.1349812 -4.2711887
-7.2407293 -1.1283352 -4.1068277
-1.7561903 1.3183042 -4.4477921
-1.7961409 1.3154458 -4.4463639
-1.8346517 1.3146408 -4.4049358
-2.7773643 1.2877849 -4.3157163
-2.6296632 1.3011295 -4.2559395
-2.4576375 1.2976066 -4.3273087
-2.5375993 1.2995259 -4.3243651
-5.6043835 -1.1323187 -4.3014045
-5.4852824 -1.1290078 -4.3439503
-5.4827256 -1.1307533 -4.2239642
-5.5602379 -1.1232078 -4.1023455
-5.4044137 -1.1330478 -4.3056235
-5.2444563 -1.1316311 -4.309011
-5.2453012 -1.1318824 -4.3490014
-5.6452627 -1.1279247 -4.3405781
-1.6582944 1.3184111 -4.356329
-1.5934024 1.3213458 -4.3736501
-1.6747856 1.3185751 -4.4107356
-1.5549128 1.3246505 -4.4150491
-1.8471599 -1.1580958 -4.2652717
-1.8020978 -1.167671 -4.2669239
-1.6112289 -1.2056961 -4.3939991
-1.3000054 1.3214287 -4.4094296
-1.4584329 1.3198625 -4.3636231
-1.4364583 1.3261727 -4.4593911
-7.4594784 1.2825758 -4.3081203
-7.1860495 1.2856455 -4.3780069
-7.2061529 1.2854893 -4.3825717
-7.2261467 1.2853187 -4.3821373
-7.0952663 1.293352 -4.236732
-6.9436359 1.2898618 -4.2682381
-6.6961813 1.2799071 -4.2862916
-2.7210581 -1.0731742 -4.3414416
-2.3613076 -1.0705192 -4.3545713
-3.0992682 -1.0632486 -4.189898
-3.0606813 -1.0628946 -4.2312613
-2.8870115 -1.1054122 -4.2273312
-2.2713773 1.3048036 -4.3090239
-2.5896912 1.301488 -4.2573967
-2.6325424 1.2970227 -4.3359385
-2.8839724 -0.34426951 -4.3141103
-2.8270283 -0.3439579 -4.3310962
-2.866554 -0.32669622 -4.3146338
-2.8265684 -0.32902783 -4.3160334
-2.8252301 -0.31671375 -4.2759981
-1.6212285 1.3170116 -4.4377561
-1.7946799 1.3149995 -4.4063931
-2.4755342 1.2943504 -4.4217658
-1.8760631 1.3122288 -4.4434781
-5.2418232 -1.1183145 -4.1791191
-4.8969049 0.90575641 -4.2789526
-5.0071716 0.98527902 -4.274785
-5.1568899 -0.59345657 -4.3163638
-5.1508503 -0.71419686 -4.1570358
-5.1412106 -0.62665653 -4.1569643
-5.6802063 -1.1242704 -4.0998049
-5.1403475 -0.7542004 -4.1475806
-5.1480284 -0.79418474 -4.1575055
-5.0580502 -1.0764966 -4.1219182
-5.4810815 -1.1252508 -4.1440144
-5.5831165 1.2988477 -4.2577829
-5.581357 1.2961177 -4.1778102
-7.5179214 -0.13851425 -4.1472058
-7.5303278 -0.14862433 -4.1468801
-6.251852 -0.28803611 -4.2930365
-7.4911423 0.12230168 -4.1446671
-6.000145 -1.124604 -4.0930452
-5.8435202 -1.1291926 -4.2563629
-5.8801537 -1.1260412 -4.0955706
-5.810195 -1.1229215 -4.0970678
-5.7777376 -1.1233661 -4.2177796
-2.6011238 -1.074789 -4.3458433
-2.5611691 -1.0719943 -4.3472772
-2.4502351 -1.1011717 -4.3232913
-4.9367352 -1.0761774 -4.0861063
-4.9134636 1.0255036 -4.2365942
-4.7963963 1.3015428 -4.3608136
-2.1272438 -1.1307395 -4.2550378
-2.0829501 -1.1254952 -4.1365662
-2.0543807 -1.1301675 -4.1776385
-2.1212459 -1.1012468 -4.3636489
-2.0812738 -1.1009519 -4.365108
-4.7428331 -0.62728757 -4.2108302
-4.6557627 -0.67115468 -4.3741565
-4.7040644 -0.67193264 -4.2524085
-4.6676474 -0.67128843 -4.3562336
-4.7397051 -1.0574646 -4.1729126
-5.9523153 -1.0852065 -4.2752457
-5.9122591 -1.0923297 -4.2762303
-5.8722486 -1.0944531 -4.2771955
-4.3967142 1.3207731 -4.3746152
-4.5165567 1.3002542 -4.3705392
-5.978898 1.0152169 -4.1699753
-5.5775051 1.2910125 -4.352901
-5.6974649 1.2898374 -4.350049
-5.1669064 -0.31330794 -4.3547387
-5.1615858 -0.39328533 -4.3552952
-5.0772858 -0.23293078 -4.3574786
-6.8966322 -1.1337638 -4.2741003
-6.8026476 -1.112443 -4.1961999
-6.8409252 -1.114794 -4.1153574
-6.9646425 -1.1345186 -4.2976651
-6.9600258 -1.1181049 -4.0728111
-7.7223597 -1.1255887 -4.1766911
-6.3963776 -0.64436036 -4.2655468
-6.3870173 -0.72899812 -4.2473993
-6.3561449 -0.66399187 -4.2640791
-6.368804 -0.64661038 -4.2637138
-6.8561773 1.2833399 -4.2824707
-6.6152802 1.2830538 -4.2481956
-5.8657122 1.3043042 -4.3716521
-5.9755898 1.2993209 -4.2633715
-4.6682854 -0.66370744 -4.3736868
-4.706912 -0.65406162 -4.3322759
-4.6853037 -0.71166199 -4.2932696
-4.7037106 -0.75943094 -4.2528276
-2.8552125 -0.45750022 -4.2853088
-2.894433 -0.5378741 -4.2839689
-2.6618154 1.2873709 -4.440032
-2.075901 1.3079358 -4.4362216
-2.8018217 -0.37695992 -4.3096795
-5.2258663 1.3072636 -4.3855553
-5.3546128 1.2864504 -4.3014631
-5.2305412 1.2914608 -4.185678
-5.3560224 1.2916199 -4.3414168
-8.2004328 1.2806916 -4.1617651
-8.0054111 1.2722028 -4.1661773
-8.7149668 0.2344795 -4.2726693
-8.5484457 1.2745597 -4.2094359
-8.7369499 0.26524264 -4.2469301
-8.40553 -1.1635745 -4.2165923
-8.2202272 -1.1118319 -4.0863361
-7.7187071 0.52096975 -4.3336186
-7.5750589 1.2836515 -4.2253413
-8.139349 -1.1112731 -4.0481467
-6.3566656 -0.7687301 -4.2477908
-7.6995506 -1.0978689 -4.058032
-7.8586245 -1.0966673 -4.0144372
-7.1616621 -1.1203787 -4.1485572
-1.7825623 1.3137556 -4.4719181
-2.5940101 1.2953279 -4.3773952
-2.6574991 1.2961552 -4.3200145
-2.7952449 1.283982 -4.4101954
-2.8291883 1.3241663 -4.2333779
-2.5390439 1.2974311 -4.3643622
-5.512321 -1.0960655 -4.2858181
-5.4444032 -1.1334019 -4.3047767
-5.6723146 -1.0925713 -4.2819753
-1.6182878 1.3137017 -4.3578396
-1.5783498 1.3189917 -4.3592467
-1.5519695 1.3212581 -4.3351364
-1.8500724 -1.1580071 -4.3452187
-7.0552797 1.2937437 -4.2376828
-6.9752579 1.2895275 -4.2396026
-6.7351923 1.2768787 -4.2453618
-6.7827473 1.2836118 -4.2317443
-2.7610304 -1.0734692 -4.339983
-2.8936083 -0.55789256 -4.2665095
-2.5212142 -1.0691993 -4.348711
-2.8899004 -1.1078234 -4.3072815
-2.2299232 1.3022162 -4.2705388
-2.8501875 1.2805876 -4.3931837
-1.6762681 1.3215212 -4.4506774
-1.5813076 1.3248013 -4.439137
-1.778177 1.3125407 -4.3520045
-1.9010518 1.3174794 -4.4275188
-5.3406157 -1.0873034 -4.1922021
-4.9115553 0.86567104 -4.2736106
-4.9521379 0.86557215 -4.2897124
-4.9879847 -0.34774595 -4.3210893
-5.0269737 -0.31306583 -4.2870541
-5.1481895 -0.75418562 -4.1573143
-5.2678375 -1.118118 -4.1085539
-5.5857258 1.299193 -4.3777542
-5.4614105 1.2996411 -4.180408
-5.4765158 1.2998798 -4.3001075
-5.5022478 1.2969152 -4.2195373
-5.4630861 1.2923716 -4.2604117
-6.52003 -1.1267083 -4.0820508
-6.7600565 -1.118834 -4.0770302
-6.64011 -1.1152716 -4.0795865
-6.4865055 -0.6896345 -4.2055359
-7.5728378 0.060820431 -4.1773062
-5.7922754 -1.0937004 -4.2791076
-5.8001976 -1.122833 -4.0972795
-5.7227077 -1.1278787 -4.2189136
-2.3688118 -1.1029611 -4.2862329
-4.93822 -1.0734801 -4.1285682
-4.99158 0.9452917 -4.2629886
-4.7136784 1.3040496 -4.283627
-4.7858658 1.3058859 -4.2010632
-2.2012608 -1.0918376 -4.3606315
-2.0880911 -1.130337 -4.2789783
-1.9212792 -1.1147707 -4.3710933
-4.7225018 -0.71220165 -4.2119308
-4.5554695 1.3038683 -4.3909297
-4.5964975 1.2974082 -4.3677745
-5.6555748 1.2899556 -4.2710228
-5.0667601 -0.29576933 -4.2780871
-6.8809595 -1.1101487 -4.1145411
-7.0000153 -1.1184592 -4.0719643
-6.8652945 1.2882636 -4.3462143
-6.5829077 1.2978173 -4.2360487
-6.6552181 1.2776623 -4.2472634
-6.1421585 1.3014555 -4.2056112
-6.0648308 1.307483 -4.3273039
-6.1447878 1.3043007 -4.3255749
-4.6652641 -0.8315174 -4.3070302
-4.6859274 -0.83185583 -4.2537818
-2.9051921 -0.46446627 -4.2914176
-2.1008275 1.3035289 -4.4203544
-2.1943557 1.3064135 -4.3918796
-2.2207615 1.3051579 -4.4159522
-2.8240657 -0.30437648 -4.2409601
-2.2192826 1.3022531 -4.3760066
-2.0012941 -1.1053615 -4.3680754
-2.3212829 -1.0777237 -4.3561053
-2.4012976 -1.0683143 -4.3530874
-5.455616 1.2894144 -4.2757859
-5.2228889 1.3018755 -4.2506032
-8.468523 1.2803507 -4.21139
-8.4285126 1.2782465 -4.212379
-8.3630896 1.2797344 -4.2781339
-8.3239632 1.2751385 -4.3190365
-8.2439861 1.2757584 -4.3208365
-8.1613264 1.2785958 -4.202661
-8.1885233 1.2731208 -4.2182941
-7.8553648 0.79375738 -4.3307242
-8.5894403 1.2767479 -4.2484345
-8.7440538 0.22517054 -4.246839
-8.0602722 -1.1105938 -4.0899367
-2.5954926 1.298274 -4.4173369
-2.617475 1.288946 -4.3215513
-2.7139256 1.294252 -4.373024
-5.4836154 -1.1260052 -4.2639852
-5.4723344 -1.0956891 -4.2867742
-5.6323051 -1.0946949 -4.2829409
-5.1573973 -0.67403299 -4.1966467
-1.5383775 1.3192819 -4.3607054
-6.9352713 1.2899193 -4.2405534
-6.7823 1.2885468 -4.2092347
-8.2780371 1.2703933 -4.2800717
-8.2701921 1.2699765 -4.2863126
-8.2830353 1.2703545 -4.2799592
-2.1778486 1.3021384 -4.3374944
-2.2757604 1.3061426 -4.4289365
-2.8587363 1.2826098 -4.3528218
-1.5563953 1.3275965 -4.4549913
-1.7382219 1.3153307 -4.3534374
-4.9851074 -0.39435482 -4.2438583
-5.5457149 1.2970344 -4.3786302
-6.5600414 -1.1245627 -4.0812192
-6.0490208 -0.36359012 -4.2703624
-6.2518301 -0.29053599 -4.2930217
-7.5727949 0.020728528 -4.1920586
-7.4923897 0.17990004 -4.1794825
-5.0180645 -1.0788283 -4.1233177
-5.0018406 0.90530211 -4.2753096
-4.8135681 1.0259416 -4.241313
-2.1696727 -1.131042 -4.3210373
-5.1024532 -0.63399333 -4.1583447
-5.82479 1.2970307 -4.3325529
-5.7839317 1.2972568 -4.2934313
-5.7756071 1.2962799 -4.2681432
-6.9055824 1.287962 -4.3590922
-6.06394 1.304868 -4.2873211
-6.1830168 1.3012294 -4.2447333
-6.1438971 1.3016857 -4.2855921
-2.9220741 -0.46462113 -4.2733212
-2.1957953 1.3043602 -4.431879
-2.8751702 1.2804061 -4.3922715
-2.2578104 1.3040576 -4.3345509
-2.2412856 -1.0846331 -4.3590975
-2.4812422 -1.0689044 -4.3501697
-5.4657369 1.2977167 -4.3803673
-5.4156294 1.2898061 -4.2767367
-5.5355897 1.288631 -4.2738843
-5.2733259 1.2991267 -4.2642083
-8.3884773 1.2736424 -4.2133737
-8.2413034 1.2779759 -4.200861
-8.2685442 1.2773292 -4.2163167
-8.277936 1.2699233 -4.2961254
-7.771945 0.77199394 -4.3024263
-7.7717266 0.74949515 -4.3025084
-8.628418 1.2737684 -4.2074699
-2.5775373 1.2942359 -4.322958
-2.7788949 1.2981892 -4.3555837
-5.1423435 -0.75393349 -4.2050452
-5.5523076 -1.096442 -4.284862
-6.895236 1.2853112 -4.2415223
-6.7027264 1.2792944 -4.2334967
-6.7410402 1.2862227 -4.1526246
-2.8723094 1.2873716 -4.327282
-4.9731579 -0.51325768 -4.2022996
-5.4975314 1.291796 -4.3548026
-5.5065956 1.2974906 -4.4194894
-5.5384946 1.2940409 -4.3938313
-5.5465846 1.2971494 -4.4186206
-7.509737 0.16225146 -4.1791563
-4.9923744 0.86543089 -4.2958198
-4.7564211 1.3017159 -4.3622012
-2.1649921 -1.0978198 -4.3620157
-5.1500635 -0.63400227 -4.1967154
-5.744812 1.297713 -4.33429
-5.7598085 1.2975851 -4.3339643
-5.7856922 1.2999868 -4.373404
-6.1030598 1.3044116 -4.2464623
-6.1048193 1.3071418 -4.3264356
-2.1558449 1.3072186 -4.4333076
-5.5062904 1.2999474 -4.4044852
-5.3104925 1.2911146 -4.1829023
-8.3084812 1.2719338 -4.2153454
-8.2430658 1.2731643 -4.2808528
-7.7998991 0.73168558 -4.3321199
-7.7857141 0.77727109 -4.3092704
-8.5621319 1.2780906 -4.2336445
-8.6683788 1.270873 -4.2064929
-6.6610622 1.2869051 -4.1543617
-5.5039659 1.2946454 -4.2995257
-5.0651894 -0.34095412 -4.238327
-8.2285337 1.2752249 -4.2173052
-8.5903997 1.274332 -4.2884283
-5.4966035 1.2941592 -4.314805
0 0 0 1 0 0 0 1 0 0 0 1 0 0 0 0 0 909 1 0 0
