ply
format ascii 1.0
comment PCL generated
element vertex 663
property float x
property float y
property float z
element camera 1
property float view_px
property float view_py
property float view_pz
property float x_axisx
property float x_axisy
property float x_axisz
property float y_axisx
property float y_axisy
property float y_axisz
property float z_axisx
property float z_axisy
property float z_axisz
property float focal
property float scalex
property float scaley
property float centerx
property float centery
property int viewportx
property int viewporty
property float k1
property float k2
end_header
-11.138159 1.3375962 -3.1560259
-11.359278 1.1798637 -3.2558646
-11.35919 1.1698644 -3.2558432
-11.27891 0.93542999 -3.2201343
-11.478132 0.61413771 -3.3104167
-11.539282 0.53312045 -3.3380957
-11.571079 0.49266177 -3.3524852
-11.59868 0.41418415 -3.3650568
-11.644964 0.11005652 -3.3864548
-11.679001 0.069987565 -3.4018521
-11.642304 0.024421884 -3.3854153
-11.609462 -0.37030306 -3.3713584
-11.666267 -0.4499338 -3.397079
-11.70311 -0.49018216 -3.4137399
-11.613372 -0.88993508 -3.374078
-11.654749 -0.97012413 -3.3928537
-11.630154 -1.0100194 -3.381855
-11.582495 -1.0821998 -3.3605318
-11.54953 -1.0919784 -3.3457096
-11.477724 -1.0894768 -3.3133783
-11.473422 -1.0894077 -3.3114414
-11.436579 -1.0892001 -3.2948539
-11.381079 -1.0890576 -3.2698679
-11.353525 -1.090981 -3.2574668
-11.304922 -1.0858146 -3.2355766
-11.273502 -1.0859243 -3.2214317
-11.077026 -1.1849252 -3.1331618
-11.011836 -1.2071475 -3.1038542
-10.913739 -1.2266484 -3.0597272
-10.847906 -1.2262057 -3.0300882
-10.816486 -1.2263153 -3.0159433
-10.750652 -1.2258725 -2.9863045
-10.684818 -1.2254297 -2.9566653
-10.669107 -1.2254846 -2.9495928
-10.618984 -1.2249869 -2.9270265
-10.456108 -1.1792119 -2.8536158
-10.329237 -1.1143208 -2.7963791
-10.341942 -1.1161038 -2.8021019
-10.443675 -1.11993 -2.8479087
-10.475096 -1.1198204 -2.8620539
-10.513971 -1.1246003 -2.8795648
-10.589556 -1.1204298 -2.9135847
-10.669579 -1.1254865 -2.9496202
-10.694126 -1.1254008 -2.9606709
-10.751111 -1.1283743 -2.986331
-10.788154 -1.1261234 -3.0030034
-10.8843 -1.1245911 -3.0462852
-10.92992 -1.1265954 -3.0668271
-11.047541 -1.0928677 -3.1197171
-11.2404 -0.72867835 -3.2058694
-11.254618 -0.60861188 -3.2120483
-11.122728 -0.24797069 -3.1520066
-11.013742 -0.08730571 -3.1026452
-11.124231 0.14292131 -3.1519616
-11.107858 0.29827186 -3.1443036
-11.098858 0.37851137 -3.1401033
-11.088697 0.45840818 -3.1353817
-11.08905 0.49840596 -3.1354671
-11.105803 0.61805433 -3.1427879
-11.113038 0.65073735 -3.1459849
-11.123682 0.77792907 -3.150542
-11.129989 0.79288465 -3.1533537
-11.150743 0.85792851 -3.1625772
-11.168669 0.97761256 -3.1704264
-10.952862 1.2996067 -3.0726759
-10.839901 1.3254048 -3.0217741
-10.677926 1.2774843 -2.9489417
-10.596408 1.280794 -2.9122365
-10.56346 1.2785268 -2.8974078
-10.651105 1.3025861 -2.9368205
-10.77124 1.3409337 -2.9908345
-10.786516 1.341089 -2.9977112
-10.792194 1.3412097 -3.000267
-10.806618 1.3406473 -3.006762
-10.835131 1.3405117 -3.0195985
-10.866096 1.340322 -3.0335391
-10.923166 1.3450506 -3.0592234
-11.051308 1.3779761 -3.1168518
-11.100697 1.3776273 -3.139087
0.66867828 1.4202875 2.1595283
0.68529606 1.4105517 2.1669917
0.58756018 1.4122368 2.1229942
0.52287388 1.4169493 2.0938814
0.47360039 1.4213496 2.0717068
0.54208326 1.4290828 2.1025517
0.54929352 1.4291861 2.105798
0.56141472 1.42924 2.1112552
0.58300018 1.4295262 2.1209733
0.59317112 1.4296072 2.1255524
0.63692045 1.4299622 2.1452489
0.25724077 -1.1502101 1.9695547
0.43637514 -1.1496814 2.0502014
0.45312691 -1.1514024 2.05774
0.6638484 -1.1321889 2.1526415
0.69516706 -1.0635089 2.166868
0.44959307 -0.62760109 2.057116
0.51869154 -0.49305928 2.0884721
0.50782299 -0.41187969 2.0837293
0.48140383 -0.44970867 2.0717654
0.44067717 -0.49271637 2.0533512
0.22066355 -0.61547959 1.9540749
0.18761301 -0.65587354 1.9391212
-0.13243198 -1.0629497 1.7942863
-0.16465807 -1.0676991 1.7797697
-0.18077087 -1.0700736 1.7725112
-0.22960329 -1.072587 1.7505224
-0.2940836 -1.0695859 1.7214992
-0.32680273 -1.0697244 1.7067688
-0.37661028 -1.0680159 1.6843486
-0.40885305 -1.0652654 1.6698382
-0.49041033 -1.0654173 1.633121
-0.40834284 -1.0773762 1.6700456
-0.31065559 -1.0823495 1.7140148
-0.28197765 -1.0816003 1.726927
-0.24919939 -1.0836905 1.7416799
-0.21297979 -1.082323 1.7579882
-0.16764498 -1.0832416 1.7783961
-0.10614491 -1.0949727 1.8060615
0.08724165 -1.1734446 1.8929787
0.11063528 -1.1734015 1.9035106
-6.2383518 -0.24055679 -0.95306158
-6.082273 -0.21694905 -0.88275194
-6.0257707 -0.25651884 -0.85738778
-5.9992514 -0.29641688 -0.8455224
-5.9764051 -0.37629142 -0.83538473
-5.896172 -0.49577188 -0.79948437
-5.8928666 -0.69574547 -0.79836559
-5.5933714 -1.0776831 -0.66423893
-5.514894 -1.0806249 -0.628914
-5.4777751 -1.0927739 -0.61222565
-5.0012641 -1.0885198 -0.39769399
-4.968605 -1.078362 -0.38297233
-4.9208245 -1.0795151 -0.36146384
-4.8554034 -1.0741991 -0.33200163
-4.8232069 -1.0735972 -0.31750572
-4.7894154 -1.0743266 -0.30229405
-4.741138 -1.0709238 -0.28055361
-4.6912131 -1.0763524 -0.25808764
-4.5935946 -1.0704343 -0.21412912
-4.5122194 -1.0514113 -0.17745921
-4.176569 -0.73009771 -0.025757074
-4.1799984 -0.6900447 -0.027227163
-4.2886033 -0.33079386 -0.075457335
-4.2398458 -0.32033512 -0.053487539
-4.1754007 -0.32663089 -0.024486303
-4.1493235 -0.32855844 -0.01274991
-4.0777831 -0.32071286 0.019471824
-4.0611529 -0.32085574 0.026958406
-3.9910212 -0.32846338 0.058517396
-3.7202759 0.041012991 0.18108833
-3.6714666 0.043971993 0.20306748
-3.7041428 0.036314171 0.18834269
-3.9784479 -0.33362579 0.064168453
-4.1119232 -0.6893391 0.0034216046
-4.1116443 -0.72933763 0.0034731627
-3.7594824 -1.0866723 0.16135573
-3.7287996 -1.0865242 0.17516929
-3.7204845 -1.0865957 0.17891258
-3.8599663 -1.1267112 0.11604428
-3.8760643 -1.1270123 0.10879636
-3.8994713 -1.127223 0.098258197
-3.9248908 -1.1274713 0.086814046
-4.0808873 -1.1692572 0.016507804
-4.1523457 -1.1746862 -0.015672624
-4.2093892 -1.1701849 -0.04134506
-4.2142873 -1.1703899 -0.043550551
-4.2877922 -1.1708567 -0.076643169
-4.5077438 -1.2514029 -0.17581338
-4.7069912 -1.198705 -0.26541659
-4.8321948 -1.2138633 -0.32181087
-4.8544302 -1.2141941 -0.3318218
-4.9294162 -1.2151423 -0.36558205
-5.0339084 -1.252784 -0.41269353
-5.0666885 -1.2454425 -0.42743772
-5.3980756 -1.2092855 -0.5765602
-5.4132342 -1.212166 -0.58339
-5.4935832 -1.2392426 -0.61961275
-5.5924826 -1.2201781 -0.66410184
-5.6927352 -1.2316012 -0.70925623
-5.7743392 -1.2221365 -0.74597681
-6.1307745 -1.1561134 -0.90632099
-6.1480069 -1.1565135 -0.91407973
-6.1966395 -1.1542368 -0.93596977
-6.2452569 -1.1544601 -0.95785749
-6.2953987 -1.1576717 -0.98043722
-6.3126316 -1.1580718 -0.98819596
-6.3440161 -1.1578951 -1.0023249
-6.392633 -1.1581184 -1.0242126
-6.4098654 -1.1585184 -1.0319713
-6.458499 -1.1562417 -1.0538617
-6.4914079 -1.1590532 -1.0686824
-6.5384855 -1.1587881 -1.0898759
-6.5557179 -1.1591882 -1.0976348
-6.7223501 -1.0862374 -1.1725175
-6.7349782 -1.0826722 -1.178196
-6.6408386 -1.0807027 -1.1358111
-6.6048188 -1.0819141 -1.1195972
-6.4605217 -1.0792328 -1.0546303
-6.274076 -0.65816832 -0.96991551
-6.2673664 -0.62036699 -0.96682501
-6.2537632 -0.57695234 -0.96062088
-6.2448592 -0.29801616 -0.95609725
-9.171711 -0.52222109 -2.2741706
-9.1071396 -0.44180197 -2.2449527
-9.0957947 -0.40183756 -2.2397711
-9.0557518 -0.32122722 -2.2215955
-8.9853306 -0.21615778 -2.189698
-8.985508 -0.18865851 -2.1897273
-9.0313692 -0.16144015 -2.2103233
-9.1827679 0.004932832 -2.2781756
-9.2157125 0.0096522179 -2.2929983
-9.5438623 -0.0051109549 -2.4407575
-9.5554667 -0.0050764326 -2.4459817
-9.5575237 -0.0050939564 -2.4469078
-9.5901775 -0.045373373 -2.4616828
-9.6695499 -0.15315259 -2.4976149
-9.6993275 -0.20577444 -2.5111179
-9.7098331 -0.28599966 -2.5159957
-9.3372259 -0.12295315 -2.3479481
-9.2104053 -0.58255255 -2.2917023
-9.0596104 -1.111416 -2.2247913
-8.9279118 -1.1177939 -2.1655128
-8.7412081 -1.1994474 -2.0816102
-8.7315369 -1.1992898 -2.0772557
-8.4543161 -1.2370619 -1.9525218
-8.4309826 -1.2369213 -1.9420168
-8.0120115 -1.3788303 -1.7536592
-7.9717193 -1.3508667 -1.7354681
-7.6036377 -1.0897102 -1.5692767
-7.5706968 -1.0918984 -1.554451
-7.5198898 -1.0936791 -1.5315809
-7.504847 -1.0912752 -1.5248045
-7.4061041 -1.0853404 -1.4803398
-7.3230381 -1.081817 -1.4429371
-7.4076443 -1.0858288 -1.4810338
0.26191521 1.426124 1.9764156
0.20160294 1.426499 1.9492638
0.16402149 1.4061419 1.9323072
0.047143459 1.3846593 1.8796494
0.035069466 1.3846292 1.8742137
0.015854836 1.384532 1.8655632
-0.026943207 1.3841515 1.8462949
-0.043693066 1.3842911 1.8387544
-0.049799919 1.3842402 1.836005
-0.1579442 1.3832124 1.7873168
-0.22730017 1.3674998 1.7560639
-0.27613735 1.3645926 1.7340724
-0.32491302 1.3541855 1.7120945
-0.44948959 1.3379623 1.6559806
-0.51286888 1.3180386 1.6274107
-0.59488916 1.3099996 1.5904706
-0.65886879 1.3057981 1.5616593
-0.62711334 1.3052181 1.5759544
-0.54459906 1.3086188 1.6131084
-0.49626207 1.3157911 1.6348827
-0.46403122 1.3180727 1.6493971
-0.41470528 1.3159686 1.6715999
-0.33269119 1.3265076 1.7085416
-0.26724052 1.3217942 1.7379987
-0.20326042 1.3259957 1.7668099
-0.15443516 1.3310298 1.7888002
-0.064524174 1.3637941 1.8293386
0.082007408 1.3700163 1.895318
0.1143508 1.36766 1.9098747
0.16356277 1.3707594 1.9320352
0.25279284 1.3863937 1.9722352
0.3098464 1.4069803 1.9979587
0.40789461 1.4129869 2.0421107
-6.492125 1.2743682 -1.0645127
-6.5235176 1.2770752 -1.0786407
-6.5909052 1.2734215 -1.1089849
-6.5062494 1.2724942 -1.070875
-6.4403968 1.2731254 -1.0412271
-6.3917809 1.2733375 -1.01934
-6.3133364 1.2728199 -0.98402536
-6.2631721 1.2735544 -0.96144032
-6.2286968 1.2743926 -0.94591808
-6.1299009 1.2728392 -0.90144348
-6.0828652 1.2775285 -0.88025928
-6.1142435 1.2777356 -0.89438534
-6.1330452 1.2792939 -0.90284693
-6.1502829 1.278875 -0.91060817
-8.0574255 -0.91425437 -1.7732468
-8.4525175 -1.1970454 -1.9516382
-8.6375875 -1.1188872 -2.0348117
-8.7191954 -1.1094489 -2.0715337
-8.7678423 -1.1072299 -2.0934305
-8.783576 -1.1047306 -2.1005092
-8.7992945 -1.1047311 -2.1075857
-8.8808212 -1.1077925 -2.1442943
-8.9294529 -1.1080736 -2.1661885
-8.9466305 -1.1108534 -2.1739268
-7.866828 -0.75256073 -1.6871419
-7.5864048 -1.0893102 -1.561518
-7.5356236 -1.0911456 -1.5386596
-4.0236263 1.3045446 0.046853602
-4.1217937 1.3015703 0.0026533604
-4.1700706 1.2981675 -0.019087076
-4.1861687 1.2978663 -0.026334882
-4.3486252 1.2786888 -0.09950763
-4.3813534 1.2785306 -0.11424205
-4.4710264 1.2877625 -0.15459552
-4.5930977 1.2493382 -0.20962274
-4.6655798 1.2463903 -0.24225926
-4.8556581 1.2851092 -0.32776046
-4.8718491 1.2907145 -0.3350392
-4.8884959 1.2933574 -0.3425287
-4.9534039 1.2900972 -0.37175608
-5.0001831 1.2846761 -0.39282602
-5.0901732 1.2757337 -0.43335575
-5.3802247 1.2599845 -0.56396526
-5.4445601 1.2648758 -0.59291971
-5.3975401 1.272065 -0.57173812
0.30262947 1.4274714 1.9947474
0.31446981 1.4273813 2.0000777
0.32623672 1.4247434 2.0053704
0.3924408 1.4182987 2.0351634
0.42438936 1.4182504 2.0495462
-5.5292616 1.2733029 -0.63103658
-5.5794268 1.2725683 -0.65362197
-5.6938791 1.2692252 -0.70515436
-5.7080197 1.2698513 -0.71151912
-5.739397 1.2700583 -0.72564489
-5.7095838 1.2718287 -0.71221977
-5.6923461 1.2722477 -0.70445848
-5.5763283 1.2736135 -0.65222532
-5.9024663 1.2665032 -0.79906464
-5.7738571 1.2667204 -0.74116486
-5.9056101 1.2729579 -0.80046809
-5.9871831 1.2774301 -0.83718371
-6.0358138 1.279718 -0.85907292
-6.0671763 1.2774252 -0.87319636
-6.0342503 1.2777406 -0.85837263
-5.984055 1.2734753 -0.83578277
-6.377656 1.2752113 -1.0129775
-6.3462934 1.2775042 -0.99885392
-6.2789073 1.2811577 -0.96851015
-6.2474985 1.2759509 -0.95437968
-8.8111982 1.2788025 -2.1085441
-8.7984324 1.278074 -2.1027982
-8.7640438 1.2787025 -2.0873156
-8.7969408 1.2759217 -2.1021309
-8.8627815 1.2778598 -2.1317685
-8.8956938 1.2775788 -2.1465859
-8.9615345 1.2795171 -2.1762238
-9.0071983 1.2774647 -2.1967852
-9.0573502 1.2843695 -2.2193508
-9.0760365 1.2862074 -2.2277598
-9.1403856 1.2859933 -2.2567301
-9.1575794 1.2856791 -2.2644715
-9.251874 1.2833793 -2.3069265
-9.3662996 1.27757 -2.3584514
-9.4149456 1.2798225 -2.3803475
-9.4665594 1.2838795 -2.4035764
-9.5166359 1.2782845 -2.4261308
-9.693964 1.2776086 -2.505965
-9.7598362 1.2845466 -2.5356073
-9.8428249 1.2786708 -2.5729795
-9.9071579 1.2759565 -2.6019473
-9.9729681 1.2728949 -2.6315804
-10.037348 1.2776805 -2.6605554
-10.070214 1.2698998 -2.6753659
-10.140919 1.2679002 -2.7072003
-10.176207 1.2674319 -2.7230875
-10.221413 1.2596123 -2.7434535
-10.122414 1.2353115 -2.6989295
-10.080029 1.2277598 -2.6798618
-9.9198341 1.1330138 -2.607918
-9.2000046 -1.1223459 -2.2880168
-9.1876631 -1.1222408 -2.28246
-9.1253872 -1.1194768 -2.2544186
-9.5331516 -1.1147845 -2.4379845
-9.6607475 -1.1265886 -2.4954498
-9.7448692 -1.1161885 -2.5333016
-9.8249855 -1.1089706 -2.5693562
-9.9394073 -1.1148126 -2.6208799
-9.9723206 -1.1150931 -2.6356974
-10.036654 -1.1178745 -2.664665
-10.088252 -1.1162144 -2.6878917
-10.118196 -1.1184361 -2.7013767
-10.135374 -1.1212159 -2.7091153
-10.199055 -1.1162664 -2.7377748
-9.7292318 -1.1036884 -2.5262384
-9.793581 -1.1039697 -2.5552084
-9.9544468 -1.1101024 -2.6276419
-9.991024 -1.1106526 -2.6441095
-10.023952 -1.1084331 -2.6589296
-10.065914 -1.1100496 -2.6778235
-10.150488 -1.1035999 -2.7158868
-10.196096 -1.1081042 -2.736428
-2.795965 1.3059325 0.59954554
-2.8943696 1.307822 0.55524749
-2.9109702 1.3075696 0.54777354
-2.9432013 1.305288 0.53325897
-3.0252399 1.3047489 0.49632436
-3.0086334 1.3025016 0.50379652
-4.4803929 1.2489451 -0.15888396
-4.4964905 1.2486441 -0.16613173
-4.5120568 1.2478993 -0.17314103
-4.5452824 1.2431853 -0.1881077
-4.6096754 1.2419814 -0.21709952
-4.6429176 1.2397672 -0.2320691
-4.7244549 1.23665 -0.26878273
-4.7405539 1.236349 -0.27603087
-4.7571831 1.2364919 -0.28351709
-4.8060098 1.2360328 -0.30549961
-4.8870673 1.2399715 -0.34198424
-4.984755 1.2440531 -0.38595542
-5.0014372 1.2516956 -0.39345145
-8.8613052 1.2782074 -2.1311033
-8.9286528 1.2847978 -2.1614106
-8.9458475 1.2844836 -2.1691523
-9.0401878 1.2896836 -2.2116144
-9.0588732 1.2915217 -2.2200232
-9.0903091 1.2915883 -2.2341757
-9.1232376 1.2938074 -2.2489955
-9.2330284 1.2977029 -2.2984161
-9.2547617 1.2981875 -2.3081992
-9.2794456 1.2979769 -2.3193123
-9.3133736 1.297457 -2.3345873
-9.3629866 1.2972114 -2.3569236
-9.4351387 1.2863127 -2.3894262
-9.4995337 1.2935984 -2.4184034
-9.5248146 1.2962178 -2.42978
-9.5339317 1.2961712 -2.4338849
-9.5810776 1.29307 -2.4551151
-8.4692287 1.2683834 -1.9546101
-8.4868813 1.2634211 -1.9625661
-8.5350542 1.2678216 -1.9842453
-8.5665073 1.2703881 -1.9984004
-8.6323471 1.2723264 -2.0280378
-8.6981869 1.2742645 -2.0576754
-8.6667671 1.2766976 -2.0435255
-8.5711927 1.2785839 -2.0004947
-8.4879618 1.2777212 -1.963026
-7.2730398 1.2649306 -1.4160955
-7.3561153 1.2613806 -1.4535027
-7.3874931 1.2615875 -1.4676282
-7.4705839 1.2605375 -1.5050375
-7.5267334 1.2615116 -1.530314
-7.453393 1.2684562 -1.4972836
-7.3718357 1.2664839 -1.4605702
-7.3232198 1.266696 -1.4386832
-9.2727385 -1.1230991 -2.3207626
-9.3700171 -1.1211612 -2.3645532
-9.4343987 -1.1164429 -2.3935289
-9.4673271 -1.1142235 -2.4083493
-9.4359226 -1.1092225 -2.394202
-9.4044704 -1.1117215 -2.3800468
-4.4471498 1.2511593 -0.14391401
-4.3661447 1.2547203 -0.10743919
-4.3168383 1.2622353 -0.085227668
-4.2518969 1.2604954 -0.055994511
-4.2352839 1.2628525 -0.048511147
-4.1207123 1.2981825 0.0031339526
-4.0225453 1.3011569 0.047333956
-3.9898171 1.3013149 0.062068462
-3.9409561 1.2967743 0.084057093
-3.908742 1.2948763 0.098556221
-3.8105748 1.2978506 0.14275634
-3.859488 1.3098911 0.12075794
-3.941505 1.299718 0.083815396
-6.6724162 1.2678941 -1.1456913
-6.6865559 1.2685202 -1.1520557
-6.7523937 1.2653891 -1.1817014
-6.7351713 1.2683082 -1.1739427
-6.6881204 1.2704976 -1.1527563
-2.6339281 -0.31255472 0.66950589
-2.6178124 -0.31475362 0.67675716
-2.5305369 -0.32633317 0.71602696
-2.4489965 -0.31868142 0.75275034
-2.4162605 -0.32604274 0.76747435
-2.4135256 -0.3671923 0.76862961
-2.4336944 -0.38458413 0.75951761
-2.457942 -0.40699327 0.74856001
-2.5307016 -0.46672064 0.71569353
-2.612226 -0.69475895 0.67857057
-2.349663 -1.0511461 0.7961176
-2.2842302 -1.0483692 0.82558042
-2.3013015 -1.054022 0.8178845
-2.3506157 -1.0569245 0.79567808
-2.4155719 -1.0568124 0.76643521
-2.4805343 -1.0542005 0.73719412
-2.5298595 -1.0521028 0.71499187
-2.7408338 -1.1180683 0.61989015
-2.7564001 -1.1188132 0.612881
-2.7657547 -1.1187328 0.6086697
-2.7828588 -1.1190526 0.60096878
-2.7911739 -1.1189812 0.59722561
-2.8218565 -1.1191293 0.58341199
-2.8384867 -1.1189866 0.57592553
-2.8483152 -1.1193688 0.5715
-2.8810434 -1.1195269 0.5567655
-2.8948312 -1.1200397 0.55055743
-2.9109294 -1.1203406 0.54330951
-2.9288638 -1.1199673 0.53523618
-2.953012 -1.1204184 0.52436382
-3.0364964 -1.1401663 0.48674291
-3.052063 -1.1409111 0.47973365
-2.9602876 -1.1203558 0.52108866
-2.6845052 -0.80669385 0.64582402
-2.8533301 -0.32234204 0.57071382
-2.9259033 -0.3193838 0.5380469
-3.2076199 0.011056487 0.41182911
-3.0937252 -0.0011300948 0.46308166
-2.8131011 -0.31908992 0.58883077
-2.7964711 -0.31923285 0.59631735
-2.7809045 -0.31848797 0.60332662
-2.7551627 -0.31936777 0.614914
-2.7320781 -0.31802887 0.62530905
-2.6983039 -0.31625858 0.64051729
-2.6661072 -0.3156566 0.65501326
-2.4858491 1.3042514 0.73915559
-2.5683765 1.3058506 0.70200497
-2.469743 1.3091422 0.74641544
-2.4536245 1.3090332 0.75367182
-2.437506 1.3089237 0.76092821
-2.4052751 1.3112054 0.77544266
-2.339361 1.3143536 0.80512279
-2.3066416 1.314497 0.81985313
-2.3398366 1.3114921 0.80490333
-2.356437 1.3112395 0.79742938
-2.4218695 1.3084528 0.76796681
-2.4531362 1.3068947 0.75388771
-2.7637341 1.3082141 0.61405998
-2.7471271 1.3059666 0.62153214
-2.6987715 1.3056391 0.64330119
-2.665082 1.3040057 0.65846509
-2.617455 1.305636 0.67990953
-2.5845015 1.3084596 0.69475037
-2.0458646 1.3199199 0.93726414
-2.0785837 1.3197767 0.92253381
-2.1435342 1.3173518 0.89328891
-2.0951908 1.3220241 0.91506165
-1.8173249 1.3255614 1.0401626
-1.7528563 1.3276246 1.0691898
-1.6703229 1.3235254 1.1063385
-1.6385612 1.3204454 1.1206319
-1.7039998 1.3201587 1.091171
-1.7689691 1.3252338 1.0619314
-1.8011997 1.3229523 1.0474172
-1.8334305 1.3206706 1.0329027
-1.86712 1.322304 1.0177388
-1.9311063 1.3206024 0.98892921
-1.9965508 1.3228158 0.95947033
-7.6352787 1.2689594 -1.5791671
-7.6179943 1.2618788 -1.5713987
-7.5850687 1.2621943 -1.5565751
-7.6023369 1.2667751 -1.5643407
-7.5693951 1.2645907 -1.5495144
-2.8948517 1.3074604 0.55502981
-2.804018 1.3034878 0.5959155
-2.779599 1.3035047 0.60690898
-2.7644441 1.302672 0.61373001
-2.7058539 1.3014177 0.64010483
-2.6980355 1.3011822 0.64362425
-2.681917 1.301073 0.65088052
-2.6655576 1.301144 0.65824562
-2.6335676 1.3032452 0.67265135
-2.6001318 1.3064306 0.68770999
-1.148706 1.3093718 1.3411429
-1.2141504 1.3115852 1.3116839
-1.165801 1.3137577 1.3334548
-1.132587 1.3092626 1.3483992
-1.0832615 1.3071584 1.3706017
-1.0505419 1.3073018 1.3853321
-1.035387 1.3064691 1.3921533
-1.0178223 1.307445 1.4000626
-1.0515122 1.3090782 1.3848987
-1.0842314 1.3089349 1.3701682
-1.1003494 1.3090441 1.3629119
-0.70916557 1.3096789 1.5390229
-0.72431374 1.3080114 1.5322003
-0.94755507 -1.0490792 1.4273462
-0.89921045 -1.0444552 1.4491191
-0.80056 -1.0486501 1.4935236
-0.75121689 -1.0582477 1.5157199
-0.66966581 -1.0555959 1.552439
-0.60421038 -1.0628188 1.5818934
-0.52264738 -1.0651667 1.6186085
-0.50749826 -1.0635703 1.6254315
-1.9975085 1.3195924 0.95903331
-1.5995471 -1.0424049 1.1338336
-1.6488671 -1.0428075 1.1116292
-1.6851885 -1.045074 1.0952733
-1.7147875 -1.0434736 1.0819509
-1.7465372 -1.045334 1.0676539
-1.7631376 -1.0455977 1.0601797
-1.8094788 -1.0452375 1.0393178
-1.8114936 -1.0452219 1.0384107
-1.8285763 -1.0458748 1.030719
-1.8769379 -1.042999 1.0089521
-1.9101388 -1.0435266 0.99400407
-1.9262576 -1.0434015 0.9867478
-1.958971 -1.0460401 0.97201532
-1.9856896 -1.0454395 0.95998794
-2.0175519 -1.0457075 0.94564313
-2.0501206 -1.0457244 0.93098074
-2.0893607 -1.0487051 0.91330951
-2.0410044 -1.0490808 0.93507868
-2.0082855 -1.0489423 0.94980878
-1.9091356 -1.0602483 0.994425
-1.8930056 -1.0653735 1.0016773
-1.7953582 -1.0528471 1.0456607
-1.7470191 -1.0457231 1.0674362
-1.6649575 -1.0551819 1.1043625
-1.5560341 1.3188463 1.1577823
-1.523315 1.3189895 1.1725128
-1.425633 1.3165578 1.2164843
-1.3440757 1.3167353 1.2532015
-1.3289275 1.3184026 1.2600243
-1.3938966 1.3234776 1.2307849
-1.4105034 1.3257252 1.2233126
-1.4432354 1.3305819 1.2085857
-1.524323 1.335766 1.1720898
-1.556535 1.3259845 1.1575701
-9.5144653 -1.116725 -2.4295757
-2.9270825 1.3051789 0.54051536
-0.85518456 1.3049382 1.4732771
-0.75751495 1.3075064 1.5172522
-0.82245255 1.3000816 1.488004
-0.8546958 1.3027999 1.4734931
-0.92063522 1.3096516 1.44382
-0.8708272 1.307909 1.4662402
-1.0186582 -1.0439931 1.3953452
-1.0623422 -1.0372589 1.3756912
-1.1106863 -1.0418829 1.3539183
-1.1590366 -1.0440072 1.3321471
-1.1263118 -1.0463686 1.3468754
-1.0447435 -1.0512166 1.3835883
-1.0120187 -1.053578 1.3983164
-0.94706774 -1.05119 1.4275615
-0.89871168 -1.0515658 1.4493308
-0.84889269 -1.0582741 1.4717464
-0.78490019 -1.0591644 1.5005543
-0.70283842 -1.0686234 1.5374806
-0.65448284 -1.0689993 1.5592496
-0.60467529 -1.0707077 1.5816696
-0.55632496 -1.0685836 1.6034408
-0.50652885 -1.065292 1.6258647
-1.8495557 1.3232799 1.0256481
-1.8993635 1.3250222 1.0032279
-1.3589602 -1.0444667 1.2421412
-1.3885641 -1.0403662 1.2288213
-1.4530337 -1.0423651 1.1997936
-1.4706795 -1.044335 1.1918459
-1.5516789 -1.0406699 1.1553869
-1.3709826 -1.0468241 1.2367244
-1.4037023 -1.0469626 1.2219939
-1.4707096 -1.0443593 1.1918323
-1.5341029 -1.0446277 1.1632924
-2.1386802 -1.0491074 0.89110523
-2.1225617 -1.0492327 0.8983615
-2.1054792 -1.0485798 0.90605313
-2.1377165 -1.0483292 0.89154047
-2.1049974 -1.0481907 0.9062708
-3.1255693 -1.1413776 0.44664043
-3.1422169 -1.1387348 0.43915063
-3.1094711 -1.1410766 0.45388836
-3.1175194 -1.1412272 0.45026475
-1.1917562 -1.0441457 1.3174167
-1.2083621 -1.0419096 1.3099449
-1.1874247 -1.0439337 1.3193669
0 0 0 1 0 0 0 1 0 0 0 1 0 0 0 0 0 663 1 0 0
