ply
format ascii 1.0
comment PCL generated
element vertex 855
property float x
property float y
property float z
element camera 1
property float view_px
property float view_py
property float view_pz
property float x_axisx
property float x_axisy
property float x_axisz
property float y_axisx
property float y_axisy
property float y_axisz
property float z_axisx
property float z_axisy
property float z_axisz
property float focal
property float scalex
property float scaley
property float centerx
property float centery
property int viewportx
property int viewporty
property float k1
property float k2
end_header
0.40251493 1.3547488 0.26264304
0.39617872 1.3613045 0.26299518
0.35618353 1.363439 0.26443201
0.32257128 1.364784 0.26563054
0.27625608 1.3602115 0.26715332
0.23628092 1.3598469 0.2685394
0.16262102 1.3700687 0.27131164
0.12261868 1.3644658 0.27259374
-0.037289143 1.3895333 0.27866954
-0.11717939 1.3741648 0.28114644
-0.19709206 1.3702487 0.28385347
-0.34471369 1.3922485 0.28943959
-0.35721827 1.392645 0.28988338
-0.53234291 1.3195499 0.29452366
-0.57230949 1.3168776 0.29586321
-0.61227846 1.3145214 0.29720917
-0.69220257 1.309153 0.29988751
-0.73219347 1.3099493 0.30129737
-0.77214003 1.3056767 0.3026042
-0.81212616 1.3058424 0.30400127
-0.89208221 1.306127 0.30679393
-0.93205738 1.3059539 0.30818385
-0.97203732 1.3076491 0.30961138
-1.012022 1.3099751 0.31105167
-1.0919456 1.3021315 0.31368041
-1.1319351 1.3050884 0.31513351
-1.1719213 1.3077303 0.31658018
-1.2118974 1.3087949 0.31799489
-1.2918596 1.3112626 0.32083151
-1.3318439 1.3123511 0.322247
-1.37184 1.3187299 0.32376885
-1.4118409 1.3257383 0.32530349
-1.4518089 1.3246197 0.32667422
-1.4917846 1.3232089 0.32803935
-1.5317488 1.3202207 0.32937253
-1.6116886 1.3170605 0.33209562
-1.6516724 1.3181489 0.33351111
-1.6916595 1.3207897 0.33495778
-1.731626 1.3193551 0.33632213
-1.771606 1.3198128 0.33772486
-1.8115904 1.3221389 0.33916515
-1.89153 1.3189785 0.34188825
-1.9315078 1.3191203 0.34328455
-2.011457 1.3184593 0.34605804
-2.0514345 1.318601 0.34745434
-2.0914032 1.3174824 0.3488251
-2.1313899 1.3188857 0.35024697
-2.1713567 1.317451 0.35161135
-2.2113364 1.3179086 0.35301405
-2.2912831 1.3169316 0.35578111
-2.331254 1.3148901 0.35713345
-2.3712142 1.3137475 0.35850343
-2.3312385 1.3139206 0.35711351
-2.2912674 1.3147246 0.35573637
-2.2113321 1.3172779 0.35300127
-2.1713409 1.315244 0.35156658
-2.131361 1.3147862 0.35016388
-2.0913901 1.3155901 0.34878674
-2.05141 1.3151324 0.34738404
-2.0114346 1.3153055 0.34599409
-1.9714501 1.3129795 0.3445538
-1.9315033 1.3184896 0.34327176
-1.8915281 1.3186628 0.34188184
-1.8515279 1.3141295 0.34039682
-1.7715633 1.3101082 0.337529
-1.7315698 1.3065206 0.33606315
-1.6516104 1.3043677 0.33323294
-1.5716581 1.3034762 0.33042827
-1.5316563 1.2973894 0.32891205
-1.4917006 1.2991629 0.32755488
-1.4517045 1.2976173 0.32612979
-1.4192252 1.2978764 0.32500291
-1.4017363 1.2979521 0.32439479
-1.3717523 1.2978455 0.32334754
-1.331779 1.2970173 0.32193762
-1.291801 1.2980733 0.32056531
-1.2518501 1.3017551 0.3192465
-1.2118745 1.3019282 0.31785658
-1.1718736 1.298435 0.31639233
-1.0919261 1.2992936 0.31362289
-1.0519552 1.3000976 0.31224573
-0.97199011 1.2973138 0.3094027
-0.93202114 1.2995919 0.30805516
-0.89204454 1.2996861 0.30666363
-0.85207462 1.2981718 0.30524009
-0.81210518 1.3016092 0.30391577
-0.77214861 1.3044631 0.30258018
-0.73215532 1.3021131 0.30113912
-0.69218922 1.3060229 0.29982436
-0.61227131 1.312337 0.29716516
-0.57228518 1.3121713 0.29576808
-0.5323143 1.3142129 0.29441574
-0.49236584 1.3194082 0.29312736
-0.45239019 1.3208189 0.29176223
-0.37245798 1.3274012 0.28910792
-0.3324914 1.3300735 0.28776833
-0.25255394 1.3335496 0.28505164
-0.19714165 1.3400546 0.28325045
-0.077035904 1.3383317 0.27902955
-0.037106514 1.3316478 0.27750388
0.0029244423 1.3362095 0.27619994
0.12266159 1.3415612 0.27213353
0.20258093 1.3558888 0.26963478
0.23637104 1.355661 0.26845244
0.28269243 1.3525196 0.26677492
0.31942225 1.3560989 0.26556635
0.36263371 1.3553948 0.26404607
0.40261889 1.3530846 0.26260608
-11.171649 0.99532998 0.6588757
-11.162045 1.1147449 0.66093254
-11.129845 1.1549845 0.66061604
-11.035632 1.1963331 0.65816027
-10.986624 1.2079617 0.65668494
-10.935097 1.2145346 0.65502053
-10.864317 1.2345359 0.65295398
-10.825716 1.2523322 0.6519649
-10.787092 1.2570064 0.65071231
-10.747154 1.2623169 0.64942658
-10.666956 1.2898109 0.64718181
-10.626593 1.2969996 0.64591885
-10.588379 1.2972963 0.64459282
-10.546666 1.3001231 0.64319545
-10.508043 1.3047974 0.64194286
-10.443932 1.3202953 0.64001852
-10.42646 1.3229312 0.63946235
-10.375247 1.3225219 0.63766909
-10.346535 1.3260548 0.63673902
-10.335291 1.3253253 0.63633251
-10.267034 1.3273003 0.63399285
-10.249067 1.3218179 0.63325679
-10.095242 1.2946608 0.62735116
-10.048201 1.2991391 0.62580121
-9.9284229 1.3200649 0.62204528
-9.8488388 1.3038601 0.61894673
-9.7564564 1.300979 0.61566889
-9.7545748 1.3010129 0.61560404
-9.728426 1.3016278 0.61470491
-9.6913185 1.3034394 0.61344779
-9.6351166 1.300042 0.61142075
-9.5685215 1.3003728 0.60910612
-9.4890404 1.2991625 0.60631144
-9.4485722 1.2963079 0.60484374
-9.4195356 1.2953753 0.60381293
-9.4095421 1.2954532 0.60346615
-9.3710117 1.2977641 0.60216939
-9.3286219 1.2922429 0.60058129
-9.2510281 1.2887009 0.59780574
-9.2110386 1.286513 0.59636801
-9.1302032 1.2957982 0.59373641
-9.0952454 1.2985694 0.5925734
-9.0877504 1.2986277 0.59231329
-9.0768824 1.2986505 0.59193492
-9.0107336 1.2923999 0.58950406
-8.9292507 1.2983111 0.58678228
-8.9169092 1.2986166 0.58635819
-8.8104277 1.2982867 0.58264005
-8.7704563 1.2985978 0.58125305
-8.7470798 1.2961606 0.58038944
-8.6495285 1.2907006 0.5768798
-8.5690527 1.2831588 0.57392371
-8.5290985 1.285969 0.57258731
-8.4771519 1.2807189 0.5706715
-8.5171242 1.2804149 0.57205868
-8.5951538 1.2748423 0.57466692
-8.6889 1.2722293 0.57788223
-8.7159843 1.2701645 0.57878494
-8.7554817 1.2692442 0.58014321
-8.8087988 1.268797 0.58199269
-8.8487873 1.270985 0.58343035
-8.8887768 1.2731731 0.58486807
-8.9154034 1.2730262 0.5857932
-8.9692173 1.2757167 0.58772284
-8.9953642 1.2749174 0.58861822
-9.0748663 1.2786911 0.59146494
-9.1162453 1.277737 0.59288812
-9.1966629 1.2777454 0.59569138
-9.2357035 1.2787077 0.59707141
-9.3146648 1.2718686 0.59968674
-9.3556194 1.2777956 0.60123301
-9.4513321 1.2828139 0.60466969
-9.5143127 1.290881 0.60702646
-9.5309877 1.2919177 0.60762846
-9.5689507 1.2935423 0.60898423
-9.6108084 1.2908995 0.61039031
-9.6755123 1.2928572 0.61268485
-9.7164497 1.2962849 0.61418045
-9.7702503 1.2939867 0.61600971
-9.8748055 1.2856451 0.61948705
-9.9342709 1.2746512 0.62133956
-9.9747334 1.2774626 0.62280625
-10.034718 1.2795078 0.62493801
-10.325126 1.1212832 0.63189173
-10.385442 1.10894 0.63374686
-10.615759 1.120132 0.64199901
-10.719215 0.59887958 0.63516569
-10.841913 0.3604975 0.63466823
-10.841644 0.32051143 0.63385803
-10.848932 0.27744111 0.63324946
-10.858648 0.19777927 0.6319927
-10.404493 -0.098835498 0.6102221
-10.800819 -0.4148154 0.61770821
-10.776407 -0.62519813 0.61264384
-10.615425 -0.77397776 0.60405296
-10.279841 -1.1172936 0.58547997
-10.238514 -1.1088423 0.58420873
-10.119513 -1.1116955 0.58000368
-9.8046722 -0.69014537 0.57747221
-9.8054714 -0.61597514 0.57898545
-9.8795128 -0.39164183 0.58605909
-9.8596687 -0.29367438 0.58732945
-10.612573 -1.1269058 0.5968852
-10.853498 -0.98167932 0.60819149
-10.853973 -0.98106301 0.6082204
-10.879833 -0.92065752 0.61033154
-10.893536 -0.85763252 0.61207139
-10.893951 -0.76298273 0.61398149
-10.898056 -0.74146974 0.61455542
-10.894609 -0.69772899 0.61531126
-10.881728 -0.66055548 0.61560678
-10.897411 -0.39934644 0.62138486
-10.897602 -0.337185 0.62263644
-10.980823 -0.09575811 0.63037241
-11.02095 -0.056242079 0.63256252
-11.080403 -0.017751724 0.63540566
-11.020206 0.017070323 0.63400483
-10.870251 0.27914771 0.63402671
-11.063226 0.59879363 0.64715481
-11.108749 0.63530409 0.64947283
-11.141783 0.6754244 0.65142775
-11.159548 0.75487155 0.65363812
-11.178035 0.83532774 0.6558938
-11.182743 0.85715985 0.65649515
-11.183142 0.91463959 0.65766025
-11.178423 0.95466459 0.65829742
0.25587082 -1.0716325 0.21915995
0.4276886 -0.91153073 0.21637748
0.21569014 -1.0124409 0.22174595
0.055961609 -1.0643305 0.22627427
-0.2454958 -0.61222315 0.24583651
0.081017971 -0.39382777 0.23882943
0.17302132 -0.27159908 0.23807049
0.21144867 -0.19081539 0.23834896
0.25394058 -0.1937733 0.23680863
0.13099623 -0.39487299 0.23706645
-9.1616497 -0.15597713 0.56575692
-9.4025517 0.097647533 0.57923335
-9.4162865 -0.044766217 0.57685989
-9.8369751 -0.25421628 0.58732873
-9.84447 -0.25427619 0.58758879
-6.5022283 0.016194493 0.4765079
-6.2698312 0.11346653 0.47035554
-5.8643374 0.072778136 0.45540673
-5.4228611 -0.11689892 0.43621975
-5.3828897 -0.11659238 0.43483266
-5.3029456 -0.11597919 0.43205839
-5.1884513 -0.075324446 0.42888176
-5.1484656 -0.077634752 0.42744175
-5.0684538 -0.077361077 0.42465833
-5.02841 -0.092489749 0.42295957
-5.0284071 -0.10111827 0.42278665
-5.0282803 -0.12069014 0.42239025
-5.0282788 -0.12714526 0.42226094
-5.0282555 -0.1322726 0.42215741
-4.5475583 -0.37111673 0.4006187
-4.4278226 -0.31879619 0.397493
-4.3878851 -0.31506845 0.39617562
-4.2280121 -0.31327441 0.39063898
-3.9243603 -0.0090875924 0.38614696
-3.9094296 0.0059747994 0.38592821
-3.5722363 0.032550067 0.37470716
-3.9881668 -0.32255605 0.38209301
-4.0280995 -0.34564921 0.3830224
-4.2262993 -0.76425159 0.3815473
-4.0252228 -1.0568204 0.36867911
-3.9851079 -1.0702689 0.36701149
-3.785182 -1.0860372 0.35972705
-3.6027157 -1.08804 0.35332686
-3.5852141 -1.0884128 0.35270935
-3.505347 -1.0849791 0.34999427
-3.425369 -1.1005316 0.34689507
-3.1065276 -0.84407341 0.34091771
-3.031714 -0.80445766 0.3391034
-2.4689112 -0.68244934 0.32192981
-2.765029 -0.3226749 0.33945674
-8.7548065 -1.4047775 0.52656555
-8.6745863 -1.4045353 0.52377421
-8.4741249 -1.3246452 0.5183869
-8.3763866 -1.3243073 0.51498687
-8.2745924 -1.3027898 0.51186967
-8.2336721 -1.2988843 0.51052153
-8.1363096 -1.2795602 0.50751489
-8.0553827 -1.2803332 0.50467861
-8.0351505 -1.2805264 0.50396955
-7.9951487 -1.2802508 0.5025807
-7.9547462 -1.2805492 0.50116646
-7.9132185 -1.28581 0.49961361
-7.8732123 -1.2904967 0.49812528
-7.6544728 -1.2392704 0.49152681
-7.539547 -1.2729229 0.48684695
-7.4943371 -1.2443354 0.48584366
-7.4669571 -1.22913 0.48519382
-7.4545169 -1.2215368 0.48491228
-7.4147658 -1.1887416 0.48418352
-7.1742058 -1.0837889 0.47790045
-7.1413884 -1.0843594 0.47674513
-7.1337538 -1.0840989 0.47648424
-7.1008949 -1.0846595 0.47532767
-7.0537763 -1.088484 0.4736087
-7.0138211 -1.0856785 0.47227222
-6.9804573 -1.0842576 0.47113776
-6.9399638 -1.0845578 0.4697203
-6.8989453 -1.0855089 0.46827149
-6.8539343 -1.0844522 0.46672374
-6.7795954 -1.0788066 0.46424562
-6.7401285 -1.0803035 0.46283999
-6.654108 -1.077921 0.45988935
-6.5803022 -1.0714023 0.45744732
-6.3598719 -1.1444439 0.44830114
-6.2937679 -1.1626313 0.44563276
-6.259788 -1.163559 0.44442976
-6.2208633 -1.1619059 0.44310611
-6.180892 -1.1615548 0.44171989
-6.0194578 -1.159605 0.43613195
-5.9815602 -1.1591486 0.43482012
-5.9394956 -1.161402 0.43330878
-5.8990011 -1.1617022 0.43189129
-5.814106 -1.1589525 0.42898723
-5.7801347 -1.1593469 0.42779523
-5.7341619 -1.1583391 0.426213
-5.7746139 -1.158029 0.4276292
-6.0631022 -0.89060199 0.4430407
-5.9829016 -0.59326696 0.44620013
-5.9018693 -0.07682699 0.45371869
-5.5196953 -0.21799973 0.43757021
-5.4262986 -0.37676242 0.43113515
-5.14609 -0.65321267 0.41583151
-5.1382904 -0.69188249 0.41478521
-5.3749113 -1.1524642 0.41380855
-5.4209189 -1.1555368 0.41535068
-5.3793778 -1.1571391 0.4138706
-5.2989125 -1.1570882 0.41106692
-5.2544985 -1.1546602 0.40956745
-5.2200165 -1.1550839 0.40835705
-5.1789989 -1.1560351 0.40690827
-5.1395516 -1.1550329 0.40555337
-5.1001043 -1.1540308 0.40419847
-5.0946121 -1.1534339 0.40401897
-5.0641923 -1.1507294 0.40301281
-4.8645849 -1.0758699 0.39755455
-4.824563 -1.0752645 0.39617166
-4.7845778 -1.0775747 0.39473164
-4.7447395 -1.0766599 0.39336136
-4.7046552 -1.0761573 0.39197424
-4.6647177 -1.0724295 0.39065683
-4.7047544 -1.072515 0.39205065
-4.7447348 -1.0746813 0.39340082
-4.8246913 -1.0705813 0.39626992
-5.0561366 -0.65303874 0.41269958
-5.0537405 -0.61513042 0.41337526
0.21589947 -1.0730554 0.2205247
-0.023788929 -1.1162608 0.22801401
-0.063764572 -1.116434 0.22940394
-0.10374928 -1.115306 0.23082025
-0.123734 -1.1157476 0.231508
-0.1837039 -1.1150608 0.23361208
-0.2411623 -1.1162559 0.2355909
-0.26881027 -1.1195276 0.2364891
-0.28613472 -1.1164508 0.23715457
-0.48378897 -1.0645958 0.24508259
-0.52368784 -1.0664368 0.24643643
-0.5637188 -1.0705457 0.24774946
-0.59867954 -1.0756913 0.24886499
-0.64357853 -1.07695 0.2504048
-0.68361044 -1.0810474 0.2517181
-0.72351599 -1.0792884 0.25314429
-0.76356983 -1.0788851 0.25454849
-0.80354977 -1.0784388 0.25595099
-0.84352064 -1.0792217 0.25732851
-0.88342714 -1.0774784 0.25875443
-0.92348051 -1.0770594 0.26015893
-0.96338224 -1.0783281 0.26152432
-1.0034318 -1.077396 0.26293898
-1.0434074 -1.0775645 0.26432902
-1.1233759 -1.0729027 0.26720977
-1.1632915 -1.0710274 0.26863861
-1.2032719 -1.0681953 0.27008891
-1.2432513 -1.0665331 0.27151573
-1.2833128 -1.0635796 0.27297127
-1.3232388 -1.0568811 0.27449709
-1.3632236 -1.0545542 0.27593738
-1.4032073 -1.0533972 0.27735424
-1.4432011 -1.0474013 0.27886838
-1.4831858 -1.0450745 0.28030866
-1.5231652 -1.0445821 0.28171206
-1.6032 -1.041819 0.2845571
-1.6331291 -1.0380636 0.28567553
-1.6431193 -1.0376015 0.286033
-1.6831589 -1.0398103 0.28738439
-1.7230725 -1.0387836 0.28879619
-1.7630498 -1.0374537 0.2902163
-1.803025 -1.0387957 0.29158279
-1.8430002 -1.0389681 0.29297274
-1.883033 -1.041113 0.29432517
-1.9230084 -1.0412815 0.29571518
-1.9629841 -1.0414498 0.29710519
-2.2440946 -0.66664493 0.31441009
-2.2441764 -0.64406967 0.31486505
-2.269305 -0.60427439 0.31653795
-2.4452436 -0.3162078 0.32843977
-2.5251894 -0.3208172 0.33113405
-2.537677 -0.32153574 0.33155492
-2.5651526 -0.32171121 0.3325091
-2.6451206 -0.31715986 0.33538765
-2.668992 -0.31582132 0.33624652
-2.7089677 -0.31600967 0.33763614
-2.7489429 -0.31619796 0.33902574
-2.7889183 -0.31638625 0.34041536
-3.0115943 -0.2057223 0.35039333
-3.1100476 0.0079692304 0.35810477
-3.1903255 0.098482475 0.36271569
-3.2304201 0.12827611 0.36470994
-3.3102856 0.1247772 0.36742365
-3.3901484 0.1083696 0.36987877
-3.5497618 0.041609734 0.37410524
-9.0307865 -0.28988573 0.5585137
-9.0354843 -0.28302214 0.55881488
-9.409853 -1.0926521 0.55564904
-9.5939302 -1.0933338 0.56205165
-9.7132797 -1.1073966 0.56593001
-9.8331089 -1.1208267 0.56983787
-9.8762989 -1.121033 0.57133913
-9.9152679 -1.1252638 0.57261276
-9.9315767 -1.1285064 0.57311624
-9.9581013 -1.1273233 0.57406449
-9.9952106 -1.1259032 0.57538646
-10.032009 -1.1236497 0.57671416
-10.078052 -1.1232371 0.57832736
-10.131522 -1.1175686 0.58030462
-10.159452 -1.1169978 0.58128959
-10.172455 -1.1166145 0.58175051
-10.212889 -1.1187924 0.58311623
-10.291855 -1.12318 0.58578086
-10.33181 -1.1259907 0.5871172
-10.371284 -1.129434 0.58842421
-10.41177 -1.1241146 0.58994192
-10.533538 -1.1325146 0.59401804
-10.572018 -1.1422216 0.5951649
-2.4822299 -1.1443481 0.31314331
-2.4422588 -1.1435113 0.31176686
-2.4022791 -1.1440036 0.31036344
-2.3622992 -1.144496 0.30896002
-2.282357 -1.1428221 0.30620706
-2.2423813 -1.14265 0.30481714
-2.1224549 -1.1421331 0.30064732
-2.0425041 -1.1417886 0.29786742
-2.0025287 -1.1416163 0.2964775
-1.9625533 -1.141444 0.29508755
-1.9225688 -1.1426011 0.29367065
-1.6430836 -1.0464283 0.285855
-1.5632029 -1.0472637 0.28305393
-1.5232182 -1.0495946 0.28161353
-1.4832344 -1.0519254 0.28017318
-1.443192 -1.0510703 0.27879459
-1.4032745 -1.0540878 0.2773428
-1.3632903 -1.0564185 0.27590239
-4.8741999 1.3069867 0.44561252
-4.8342333 1.3032186 0.44414398
-4.754302 1.3085924 0.4414655
-4.7143269 1.3087808 0.44007587
-4.6743417 1.3064704 0.43863589
-4.6343765 1.3091575 0.43729666
-4.5943537 1.3097627 0.43591374
-4.5544248 1.3095341 0.43451738
-4.5144496 1.3097224 0.43312779
-4.4744644 1.307412 0.43168777
-4.4344893 1.3076004 0.43029818
-4.3545384 1.3079771 0.42751893
-4.3145633 1.3081653 0.42612931
-4.2745776 1.305855 0.42468932
-4.2346015 1.3060434 0.42329967
-4.1946363 1.3087304 0.42196044
-4.1146655 1.3041097 0.41908044
-4.0746903 1.3042982 0.41769081
-3.9947395 1.3046746 0.4149116
-3.9147601 1.3040105 0.41211051
-3.8748133 1.3052397 0.41074273
-3.8348377 1.305428 0.40935311
-3.79474 1.3054098 0.40795511
-3.7548869 1.3058046 0.40657389
-3.7149115 1.305993 0.40518427
-3.6748788 1.3040997 0.40375096
-3.5949566 1.3055172 0.40099356
-3.5150242 1.3044358 0.39818579
-3.4750488 1.3046243 0.39679617
-3.435045 1.3037719 0.3953847
-3.3551228 1.3051893 0.3926273
-3.3151572 1.3078762 0.39128807
-3.2751532 1.3070238 0.3898766
-3.2352064 1.3082528 0.38850886
-3.1952307 1.3084412 0.38711923
-3.1551983 1.306548 0.38568592
-3.1152802 1.3088179 0.38433999
-3.0753148 1.3115047 0.38300076
-2.9953637 1.3118814 0.38022152
-2.9553514 1.3149854 0.37888902
-2.9154329 1.3172553 0.37754306
-2.8354723 1.3151332 0.37471345
-2.7954783 1.3167795 0.37335238
-2.7155261 1.310701 0.37044382
-2.6754751 1.3102657 0.36903906
-2.6110673 1.312709 0.36684299
-2.5710917 1.3128821 0.36545306
-2.4911556 1.3141978 0.36269316
-2.4511805 1.3143708 0.36130324
-2.4111936 1.3129675 0.35988134
-9.7975082 -0.28021351 0.58543241
-9.7970028 -0.49137232 0.58118576
-9.7163563 -0.68730903 0.57445061
-9.131588 -0.68299031 0.55415434
-9.1225319 -0.80973685 0.55130023
-9.3566494 -1.0839869 0.55396813
-9.3913441 -1.0903738 0.55504948
-9.2416096 -0.1714341 0.56823444
-9.133173 -0.52241468 0.5574255
-9.1373405 -0.64241087 0.55516756
-6.418663 -0.70132208 0.459225
-6.8070979 -0.46491542 0.47749901
-6.8720522 -0.4654136 0.47975311
-6.9386802 -0.44717136 0.48244083
-7.2259178 -0.43595389 0.49267751
-7.2585573 -0.43462911 0.49384174
-7.2989917 -0.43681815 0.49520728
-7.3388057 -0.39025804 0.49752754
-7.3391061 -0.38987264 0.49754572
-7.2998276 -0.38371983 0.49629986
-7.2668443 -0.38067427 0.49521115
-7.0531645 -0.35077402 0.48836192
-7.0273128 -0.34108213 0.48765495
-7.0188727 -0.34093872 0.48736364
-6.9868183 -0.34138224 0.48623747
-6.939889 -0.33909217 0.48464754
-6.9074202 -0.33752999 0.48354709
-6.8590016 -0.33721325 0.48186576
-6.587595 -0.10712698 0.47701362
-6.5535488 -0.064950824 0.47667161
-4.2512951 -0.76397896 0.38242403
-4.5447369 -1.0674911 0.38657367
-4.5848389 -1.0694513 0.38793218
-4.6248035 -1.0721383 0.38927141
-4.5847106 -1.0741346 0.38783395
-4.5047598 -1.0737579 0.38505471
-4.4648213 -1.0764853 0.38360798
-4.4247704 -1.0769206 0.38220325
-4.3847752 -1.0817294 0.38071284
-4.2648768 -1.0801237 0.37656581
-4.1849265 -1.0797472 0.3737866
-4.1049953 -1.0743734 0.37110811
-4.0650301 -1.0716863 0.36976892
-3.9850693 -1.0738083 0.36693928
-3.7850494 -1.1421016 0.3585996
-3.5452099 -1.1042188 0.3509984
-3.5052245 -1.1065291 0.34955841
-3.4652772 -1.1053001 0.34819061
-3.3653445 -1.1216961 0.34437898
-3.3052447 -1.1434841 0.34184778
-3.2653403 -1.1406941 0.34051272
-3.2253792 -1.1399852 0.33913404
-3.1054385 -1.139941 0.33495426
-2.9056556 -1.1184899 0.32842019
-2.8831699 -1.1183836 0.32763857
-2.5621765 -1.1453574 0.31590974
-9.196393 -1.1013105 0.54803526
-8.9152298 -1.3693135 0.53286749
-8.9114809 -1.3692836 0.53273743
-8.3144341 -1.1408451 0.51650178
-8.4338179 -1.1499096 0.52048147
-8.474287 -1.1470892 0.52194858
-8.7138796 -1.1146034 0.53095043
-8.7538519 -1.114915 0.53233749
-8.8370705 -1.1077236 0.53538215
-9.110775 -0.80279195 0.5510295
-9.1167965 -0.76757407 0.55194473
-9.1166611 -0.64903307 0.55431414
-9.1191692 -0.60355425 0.55531234
-9.1194954 -0.60157144 0.55536348
-9.1168976 -0.48436841 0.55762017
-9.0376291 -0.33427331 0.55786324
-9.0302029 -0.32421854 0.55780578
-9.2768116 -1.1037427 0.55078959
-9.3547859 -1.1072066 0.55343813
-2.4111915 1.3114141 0.35985017
-2.4511559 1.3109022 0.36123291
-2.4911423 1.3110678 0.36263001
-2.5710933 1.3107216 0.36540985
-2.6110642 1.3086802 0.36676219
-2.6510198 1.3056691 0.36809459
-2.6710186 1.3059218 0.36879674
-2.6910017 1.3052039 0.36947888
-2.7309618 1.3028237 0.37082407
-2.7709417 1.3045191 0.37225157
-2.8352625 1.3053492 0.37451017
-2.8752379 1.305161 0.37589979
-2.9152234 1.3074714 0.37733981
-2.9508517 1.3065784 0.37856379
-2.9908273 1.3064053 0.37995371
-3.0307939 1.3037331 0.3812933
-3.1107357 1.3008877 0.38402277
-3.1551032 1.300927 0.38557005
-3.1950214 1.2986572 0.38691598
-3.2306619 1.3003684 0.38819253
-3.2749724 1.2982806 0.38969523
-3.3149762 1.2991329 0.39110667
-3.3505886 1.299849 0.39236233
-3.3948884 1.295217 0.39381367
-3.434911 1.2946116 0.39519659
-3.4705062 1.2968305 0.39648172
-3.559777 1.2919416 0.39949545
-3.6304123 1.2967689 0.40205422
-3.6703925 1.2984642 0.40348172
-3.7103634 1.2964227 0.40483406
-3.7903099 1.2954457 0.40760112
-3.8302946 1.2977717 0.40904143
-3.9102366 1.2949264 0.41177091
-3.950212 1.2947533 0.41316083
-3.9901967 1.2970793 0.41460112
-4.070147 1.2967331 0.41738096
-4.234272 1.266276 0.42249176
-4.4341497 1.2653342 0.42943984
-4.4741249 1.2651461 0.43082947
-4.5940514 1.2645811 0.43499833
-4.7941155 1.2982031 0.44264516
-4.8297 1.2984425 0.44389027
-4.9096417 1.2955972 0.44661978
-4.989593 1.2952509 0.44939962
-5.0339289 1.2935338 0.45091063
-5.1118097 1.2814906 0.45338404
-5.1512837 1.2780473 0.45469099
-5.1917357 1.2783685 0.45610744
-5.2726226 1.2765118 0.45888966
-5.3116512 1.2774339 0.46026853
-5.3911147 1.2761784 0.46301317
-5.4310699 1.2733676 0.46434954
-5.4710412 1.273056 0.46573657
-5.5514479 1.2705666 0.46848938
-5.5909395 1.2696224 0.46984699
-5.6709013 1.2714986 0.47267172
-5.7190437 1.2697721 0.4743152
-5.759542 1.2700531 0.47573245
-5.8307881 1.2702525 0.47821981
-5.881566 1.2715323 0.48001537
-5.9116921 1.2708949 0.4810527
-5.9526248 1.2718489 0.48249853
-5.9906926 1.2715056 0.48381856
-5.9999161 1.2710584 0.4841311
-6.0393386 1.2675685 0.48543534
-6.0710998 1.2690161 0.4865714
-6.1106086 1.270571 0.48797965
-6.1997509 1.2667847 0.49101099
-6.2704959 1.2693249 0.49352777
-6.3191357 1.2650837 0.49513823
-6.3593645 1.2724645 0.49668828
-6.417944 1.2756736 0.49879438
-6.4391289 1.2740152 0.49949959
-6.5116277 1.2749435 0.50204521
-6.5595489 1.2710873 0.50363833
-6.5903053 1.2718312 0.50472528
-6.6030731 1.2719821 0.50517333
-6.6321812 1.2715514 0.50617933
-6.6794825 1.2725215 0.50784749
-6.7102208 1.2708966 0.50888634
-6.7901649 1.2702736 0.5116604
-6.7999024 1.2695936 0.51198626
-6.8338919 1.2711823 0.51320279
-6.8798852 1.2738817 0.51485997
-6.9100971 1.2718382 0.51587212
-6.919836 1.2710277 0.51619536
-6.9500694 1.2715265 0.51725918
-6.9987226 1.2690457 0.51890534
-7.0008135 1.2690907 0.51897913
-7.0282936 1.2688466 0.51993209
-7.0807357 1.2658817 0.52170062
-7.1206861 1.2630277 0.523036
-7.1990647 1.2629088 0.5257656
-7.2712679 1.2684336 0.52839297
-7.2801023 1.2684691 0.5287016
-7.3205805 1.266251 0.53006816
-7.349771 1.2659123 0.53107882
-7.3897429 1.2656008 0.53246582
-7.4297314 1.2677884 0.53390348
-7.449717 1.2676327 0.53459698
-7.4005632 1.2705393 0.53294194
-7.3521886 1.271575 0.53127646
-7.3200932 1.2706132 0.53013849
-7.279067 1.2696961 0.5286901
-7.2406588 1.2694601 0.52734661
-7.2322559 1.2700105 0.52706474
-7.1909208 1.2710021 0.52564383
-7.1518497 1.2724999 0.52431196
-7.0792117 1.271471 0.52175945
-6.991962 1.2737459 0.51876384
-6.9603739 1.2763069 0.51771408
-6.9120526 1.2793672 0.51609111
-6.7917604 1.2946637 0.51220453
-6.7611465 1.2912132 0.51106834
-6.711319 1.2921548 0.50935042
-6.6708498 1.2893345 0.50788331
-6.6411738 1.2847809 0.50675774
-6.5518603 1.2865362 0.50367975
-6.4316196 1.30933 0.4999451
-6.2416239 1.3083231 0.49330243
-6.1516962 1.294017 0.48988137
-6.1215305 1.2868961 0.48868731
-6.1121354 1.2849648 0.48832116
-6.0388708 1.2744297 0.48555642
-6.0014987 1.2729665 0.48422447
-5.9615283 1.2733214 0.48283836
-5.9194856 1.2761306 0.48142919
-5.8416543 1.2793846 0.47878146
-5.8016834 1.2797395 0.47739533
-5.7692075 1.280028 0.47626913
-5.7206664 1.2766783 0.47451007
-5.6812034 1.2751702 0.47310436
-5.6328502 1.2743409 0.47140232
-5.5914545 1.2752534 0.46997771
-5.5618382 1.2793701 0.46902785
-5.519248 1.2790442 0.46753681
-5.4818759 1.277581 0.46620485
-5.3993549 1.2826082 0.46342915
-5.3204684 1.28459 0.46071917
-5.2670717 1.284487 0.4588559
-5.2421098 1.287208 0.45804033
-5.1939449 1.2969435 0.45655647
-5.1540165 1.2967147 0.45516011
-5.1140513 1.2994016 0.45382088
-5.0341105 1.3022768 0.45109206
-4.9941344 1.3024653 0.44970241
-4.9541025 1.3005722 0.44826913
-4.9141841 1.3028419 0.4469232
-8.1541357 -1.1302352 0.51112688
-8.1972933 -1.1350961 0.51253378
-8.0774317 -1.12664 0.50852525
-8.0337563 -1.1274343 0.50698698
-7.9938025 -1.1246237 0.50565064
-7.9534025 -1.1174475 0.50438619
-7.874042 -1.1011972 0.50194544
-7.8336077 -1.0990192 0.50057966
-7.7931557 -1.0993404 0.49916321
-7.7532015 -1.0965297 0.49782684
-7.7132463 -1.0937192 0.49649045
-7.6333199 -1.090597 0.49376708
-7.6153197 -1.0878103 0.49319547
-7.5753479 -1.0875038 0.49180833
-7.5148449 -1.0877645 0.48969421
-7.4535289 -1.0865518 0.48758125
-7.4135571 -1.0862451 0.48619413
-7.3812151 -1.0864655 0.48506239
-7.2955618 -1.0828586 0.48214909
-7.2536693 -1.0850188 0.48064563
-7.2213311 -1.0850614 0.47951758
-7.1737599 -1.0794073 0.47797269
-7.1014376 -1.0815094 0.47540969
-7.0214958 -1.0808073 0.4726373
-6.974844 -1.0791402 0.47104457
-6.9415536 -1.0801053 0.46986488
-6.8549614 -1.0732222 0.46698445
-6.8217187 -1.069056 0.46590918
-6.7417374 -1.0733521 0.46303529
-6.6600227 -1.0674317 0.4603056
-3.5098233 0.038882285 0.37265852
-3.3501737 0.09577778 0.36823323
-3.1100214 0.00060373545 0.35795635
-5.5797567 -1.1582431 0.42083293
-5.6996698 -1.159296 0.42499158
-2.8687882 -0.3218632 0.34308964
-1.2433286 -1.0659103 0.27153087
-8.3952942 1.2763624 0.56773102
-8.3691254 1.2747179 0.56678593
-8.3153324 1.2744714 0.564906
-8.2901421 1.2766732 0.56407207
-8.2772589 1.2772409 0.56363434
-8.1972809 1.2728508 0.56075871
-8.1696777 1.2669436 0.55967826
-8.1301861 1.2679212 0.5583213
-8.1154232 1.2684942 0.55781817
-8.0768576 1.2681483 0.55646706
-8.0093269 1.2700204 0.5541507
-7.9560099 1.2703269 0.55229837
-7.929863 1.271309 0.55140668
-7.8774891 1.272784 0.54961067
-7.8104277 1.2729089 0.54727566
-7.7961221 1.2715429 0.54674965
-7.7694955 1.2718867 0.54582846
-7.7175679 1.2690018 0.54396069
-7.6757154 1.2693396 0.5425086
-7.6398611 1.2677735 0.54122752
-7.5976348 1.2674149 0.53974849
-7.549664 1.269353 0.5381152
-7.51581 1.2680566 0.53690922
-7.4698834 1.2677141 0.53530157
-8.4371624 1.2785239 0.56923372
-8.4091139 1.2769059 0.5682236
-8.449584 1.2797606 0.56969142
-5.5008607 -1.1562388 0.41812307
-5.4593196 -1.1578411 0.41664302
-5.4608898 -1.1558877 0.41673687
-5.5403085 -1.1572407 0.419478
-5.638824 -1.1400791 0.42325556
-8.3972073 1.2813271 0.56789714
-8.4367046 1.2804066 0.56925547
-0.28787994 -0.63505781 0.24685656
-0.26547623 -0.61215222 0.24653439
-0.24550486 -0.60855412 0.24591032
-1.1633053 -1.0655239 0.2687493
-1.1233115 -1.0715197 0.26723522
-1.0433517 -1.0725045 0.26442838
-1.0033622 -1.0766659 0.2629512
-0.96345615 -1.0772276 0.26154894
-0.9234066 -1.076986 0.26015782
-0.91349125 -1.0764024 0.25982389
-0.85846043 -1.0747122 0.25793958
-0.84347343 -1.0739828 0.25743181
-0.82847452 -1.0752474 0.25688368
-0.80355597 -1.0763236 0.25599355
-0.79356003 -1.0765121 0.25564134
-0.76350927 -1.076802 0.25458807
-0.73353672 -1.0741738 0.25359601
-0.72354269 -1.0741307 0.25324851
-0.69605541 -1.0746769 0.25227946
-0.6835618 -1.0747893 0.25184172
-0.6336627 -1.075224 0.25009376
-0.60362101 -1.0717795 0.2491156
-0.56365061 -1.0686027 0.24778599
-0.52369738 -1.0627677 0.24651024
-8.3172646 1.2819352 0.56512284
-8.3696566 1.2828817 0.56696796
-8.2906389 1.279839 0.56415278
-8.2492266 1.2781502 0.56267548
-8.1711864 1.2789397 0.55997109
-8.1316776 1.2774184 0.55856353
-8.0497961 1.272875 0.55561841
-7.9974222 1.2743709 0.55382288
-7.9574666 1.2771742 0.5524863
-7.9313216 1.275808 0.55154765
-7.9294176 1.2756406 0.55147791
-7.8894291 1.2734526 0.55004025
-7.8760834 1.273434 0.54957467
-7.7966137 1.2746584 0.54682916
-7.7700109 1.2775515 0.54595983
-7.691473 1.2751755 0.54317474
-7.6500607 1.2734865 0.54169744
-7.6096087 1.273131 0.54028034
-7.5906143 1.2728062 0.53961176
-7.5301275 1.2719207 0.53748566
-7.4816175 1.2699299 0.53575492
-7.480505 1.2698294 0.53571415
0 0 0 1 0 0 0 1 0 0 0 1 0 0 0 0 0 855 1 0 0
