ply
format ascii 1.0
comment PCL generated
element vertex 568
property float x
property float y
property float z
element camera 1
property float view_px
property float view_py
property float view_pz
property float x_axisx
property float x_axisy
property float x_axisz
property float y_axisx
property float y_axisy
property float y_axisz
property float z_axisx
property float z_axisy
property float z_axisz
property float focal
property float scalex
property float scaley
property float centerx
property float centery
property int viewportx
property int viewporty
property float k1
property float k2
end_header
-10.776101 -0.78321189 2.6558874
-10.849483 -0.3763994 2.645323
-10.84672 -0.32722884 2.6446791
-10.813309 -0.28527087 2.6458192
-10.773483 0.015822992 2.643122
-10.326756 0.13580188 2.6654887
-10.218462 0.020042986 2.6732507
-9.9047585 -0.29724211 2.6954436
-9.8315601 -0.45653975 2.7019994
-9.889225 -0.29793775 2.6963
-9.8269577 -0.027488351 2.6953189
-9.6713638 0.10213032 2.7016902
-9.6740456 0.10215902 2.701544
-9.9058275 0.12253128 2.6886044
-10.008871 0.19740325 2.6817887
-10.134586 0.20298517 2.6748586
-10.443178 0.4694677 2.6537642
-10.623728 0.7084235 2.6400812
-10.624741 0.86836249 2.6374424
-10.503093 1.1144655 2.6400852
-10.29318 1.2737279 2.6489329
-10.248434 1.2807217 2.6512544
-10.190615 1.289685 2.6542554
-10.068124 1.3024189 2.6607141
-10.015863 1.3019819 2.6635644
-9.9853573 1.2998047 2.6652594
-9.9733238 1.2993577 2.6659212
-9.9393253 1.3010128 2.6677444
-9.8476219 1.2863622 2.6729703
-9.8351784 1.2864718 2.6736455
-9.7311897 1.280695 2.6793964
-9.688242 1.2727721 2.6818612
-9.571888 1.2796006 2.6880813
-9.3727503 1.2763584 2.6989679
-9.2472725 1.2983503 2.7054396
-9.161521 1.3049965 2.7099977
-9.1309195 1.3051789 2.7116597
-9.0451031 1.3018286 2.7163827
-9.0114231 1.3012342 2.7182248
-8.8857555 1.2932367 2.7251911
-8.8539906 1.2943208 2.726902
-8.8082294 1.2944732 2.7293892
-8.7325783 1.2886977 2.7335982
-8.6773491 1.282666 2.7367005
-8.6165009 1.2915916 2.739867
-8.5466843 1.295423 2.7436035
-8.5227451 1.2952323 2.744909
-8.5012951 1.2950194 2.7460794
-8.4783068 1.2944183 2.74734
-8.4116974 1.2958097 2.7509415
-8.4025116 1.2960918 2.7514367
-8.3526859 1.2939184 2.7541826
-8.2516289 1.2896359 2.7597499
-8.1710014 1.2955205 2.7640417
-8.1566572 1.2964511 2.764807
-8.077095 1.309649 2.7689226
-8.0373058 1.3149984 2.7710009
-7.9577112 1.3231978 2.7751989
-7.909759 1.31989 2.7778614
-7.8101959 1.3026216 2.7835572
-7.7832041 1.3029602 2.7850204
-7.7676802 1.3022931 2.7858756
-7.667696 1.3059478 2.7912564
-7.5901213 1.3006673 2.7955623
-7.5722265 1.2989464 2.7965636
-7.4596109 1.2863388 2.8028944
-7.4098229 1.2893436 2.8055546
-7.389204 1.289474 2.8066742
-7.3332682 1.2956254 2.8096182
-7.2922955 1.2956336 2.8118472
-7.2536116 1.2936854 2.8139834
-7.1471505 1.2832758 2.8199437
-7.0544744 1.2900851 2.8248761
-7.0146527 1.2903645 2.827038
-6.968708 1.2916949 2.8295162
-6.9337864 1.2959309 2.8313477
-6.8891096 1.3022509 2.8336763
-6.7758117 1.3120356 2.8396826
-6.732933 1.3140903 2.8419821
-6.7031331 1.3130119 2.843621
-6.6479983 1.3218057 2.8464785
-6.6081924 1.3246562 2.8485982
-6.5767455 1.3234305 2.8503289
-6.5041208 1.3297644 2.854178
-6.4275894 1.3362765 2.8582366
-6.3693595 1.3417604 2.861316
-6.3081403 1.3398304 2.8646779
-6.2183542 1.3284459 2.8697467
-6.0988278 1.3167884 2.8764381
-6.0590057 1.3170683 2.8786001
-6.0161042 1.3141243 2.8809819
-5.9793487 1.3151281 2.8829653
-5.9701605 1.3154545 2.88346
-5.9395266 1.3154075 2.8851275
-5.8996801 1.3106887 2.8873715
-5.8598347 1.30597 2.8896158
-5.8077211 1.2983541 2.8925741
-5.7709775 1.3018572 2.8945167
-5.731935 1.302403 2.896632
-5.6913199 1.2999172 2.8988819
-5.6484075 1.2944741 2.9013045
-5.5289636 1.3003113 2.9077086
-5.4094958 1.3011498 2.9141951
-5.3287239 1.3064361 2.9185042
-5.116159 1.2286463 2.9313257
-5.1085634 1.22903 2.9317329
-5.086164 1.2291873 2.9329491
-5.0171947 1.2721939 2.9360065
-4.9117532 1.3009944 2.941278
-4.8078012 1.3084109 2.9468138
-4.7954144 1.3076293 2.9475005
-4.470233 1.0309728 2.9696617
-4.4740906 0.95076305 2.9707475
-4.4908228 0.79070228 2.9724228
-4.5077267 0.670627 2.973443
-4.505065 0.63065863 2.9742334
-4.484293 0.43086767 2.978591
-4.4789701 0.3509309 2.9801719
-4.478014 0.27012292 2.9815295
-4.821856 -0.075043738 2.9683981
-4.9457316 -0.10024551 2.9620655
-5.0288181 -0.10283262 2.9575868
-5.1084738 -0.083326191 2.9529378
-5.1789937 -0.10098001 2.9493864
-5.2555861 -0.10440028 2.9452744
-5.2834144 -0.12175578 2.9440408
-5.2820296 -0.26590633 2.9464447
-5.2880468 -0.32280898 2.9470365
-5.2889056 -0.40265065 2.9482796
-5.2728014 -0.56196076 2.9517293
-5.2571635 -0.66555852 2.9542537
-5.2691326 -0.7619037 2.9551589
-5.5564904 -1.045403 2.9441044
-5.6421313 -1.0603404 2.9396863
-5.6940451 -1.0718279 2.9370475
-5.7338543 -1.0746245 2.9349267
-5.8135033 -1.0752182 2.9306028
-5.8533416 -1.0730157 2.9283998
-5.8901401 -1.0711401 2.9263675
-5.9178166 -1.0702448 2.9248471
-5.9728003 -1.0764062 2.9219553
-6.0126095 -1.0792029 2.9198346
-6.0524192 -1.0819993 2.9177139
-6.0922284 -1.084796 2.9155931
-6.1168642 -1.0842273 2.9142435
-6.1718769 -1.0853899 2.9112692
-6.2117009 -1.0856867 2.9091074
-6.2882943 -1.089107 2.9049954
-6.3281045 -1.0919034 2.9028747
-6.4384694 -1.0912755 2.8968599
-6.4475918 -1.0902951 2.8963478
-6.5609827 -1.0918396 2.8902035
-6.600822 -1.089637 2.8880005
-6.6774445 -1.0880582 2.8838062
-6.6865673 -1.0870779 2.8832939
-6.7294312 -1.0870481 2.8809614
-6.8060246 -1.0904684 2.8768494
-6.8489046 -1.087939 2.8744757
-6.8887291 -1.0882359 2.8723137
-6.9683771 -1.08883 2.86799
-7.0051603 -1.0894537 2.8659987
-7.0480404 -1.0869243 2.8636248
-7.0878801 -1.0847218 2.8614218
-7.1276894 -1.0875185 2.8593011
-7.1675282 -1.0853157 2.8570981
-7.2073374 -1.0881124 2.8549774
-7.2869854 -1.0887063 2.8506534
-7.3666348 -1.0893004 2.8463297
-7.4844079 -1.106395 2.840198
-7.5211506 -1.1075683 2.838218
-7.5640507 -1.1070881 2.8358762
-7.5807962 -1.1073186 2.8349688
-7.6481247 -1.1112645 2.8313694
-7.9388733 -0.67395782 2.8084865
-8.1874294 -1.0976655 2.8018081
-8.2551918 -1.1026802 2.7982023
-8.2949896 -1.1079926 2.7961228
-8.2179995 -1.1029482 2.8002303
-8.1352148 -1.1130519 2.8048975
-8.1015673 -1.1085799 2.8066559
-8.0157356 -1.1144962 2.8114212
-8.0095949 -1.1136184 2.8117411
-7.9330306 -1.1121047 2.8158822
-7.8135195 -1.118547 2.8224885
-7.7343383 -1.1168385 2.8267689
-7.6975613 -1.1132746 2.8287122
-7.6174912 -1.115978 2.8331122
-7.5517054 -1.1153932 2.8366821
-7.5088053 -1.1158731 2.8390238
-7.4887915 -1.1173553 2.8401368
-7.455112 -1.1178815 2.8419776
-7.4352894 -1.1185246 2.8430665
-7.3893108 -1.1198311 2.8455892
-7.3096833 -1.1166387 2.8498697
-7.2698469 -1.1187911 2.852072
-7.2361822 -1.116791 2.8538713
-7.1902037 -1.1180978 2.8563938
-7.1105766 -1.1149054 2.8606746
-7.070756 -1.1145587 2.8628354
-6.9910817 -1.1188633 2.8672397
-6.9512606 -1.1185167 2.8694007
-6.9114237 -1.1206691 2.871603
-6.8317814 -1.1199756 2.8759248
-6.7919598 -1.1196291 2.8780859
-6.6724958 -1.1185889 2.8845687
-6.6480365 -1.119107 2.8859076
-6.6388159 -1.1190882 2.886409
-6.6020732 -1.1179147 2.8883891
-6.5622368 -1.1200671 2.8905914
-6.5530162 -1.120048 2.8910925
-6.5162582 -1.1213737 2.8931139
-6.4733582 -1.1218538 2.8954558
-6.4335532 -1.1190081 2.8975754
-6.3937159 -1.1211603 2.8997777
-6.3538952 -1.1208136 2.9019384
-6.314074 -1.1204669 2.9040995
-6.2742829 -1.1151223 2.906178
-6.1946402 -1.114429 2.9104998
-6.1548185 -1.1140823 2.9126608
-6.1150126 -1.1112363 2.9147806
-6.0751915 -1.1108897 2.9169416
-5.9955802 -1.1051984 2.921181
-5.9557586 -1.1048517 2.923342
-5.928236 -1.1036973 2.9248207
-5.9190159 -1.1036785 2.9253221
-5.8761311 -1.1016593 2.9276226
-5.8393884 -1.1004858 2.9296029
-5.7566986 -1.0956211 2.9340231
-5.7168617 -1.0977736 2.9362252
-5.6464396 -1.0970993 2.9400458
-5.5269904 -1.0935602 2.9464874
-5.4779949 -1.0856974 2.9490261
-5.4045095 -1.0833507 2.9529862
-5.32793 -1.0843296 2.9571686
-5.278966 -1.0714688 2.9596248
-5.0701265 -1.0431557 2.9705296
-4.8741598 -1.0334687 2.981035
-4.635005 -1.0842869 2.9948676
-4.5828323 -1.07723 2.9975922
-4.3930192 -1.0759311 3.0078983
-4.2735925 -1.0676024 3.0142612
-4.2338171 -1.0573287 3.0162594
-4.2307401 -1.0531347 3.0163591
-4.1515574 -0.95011705 3.0190029
-3.6645379 -0.94418067 3.0454042
-3.6273594 -0.98066133 3.0480163
-3.5906427 -1.0220146 3.0506818
-3.5538549 -1.035928 3.0529082
-3.5047145 -1.0430615 3.055697
-3.3117127 -1.0625596 3.0665126
-3.2687488 -1.0730829 3.06902
-3.4693666 -0.73459011 3.0526369
-3.7043147 -0.542579 3.0367525
-4.1770158 -0.78687423 3.0149808
-4.2249022 -0.28082395 3.0042005
-4.1441503 -0.03106609 3.0045593
-3.7400761 0.27685004 3.0215695
-3.5621486 0.52071846 3.0273104
-3.0439215 0.64451206 3.0535057
-3.5647571 0.56068993 3.0265226
-3.7030077 0.76003057 3.0157807
-3.7457061 0.84288019 3.0121193
-3.7921855 1.0015154 3.0070279
-3.368041 1.2815886 3.0255797
-3.8714507 1.1208601 3.0007875
-4.0913525 1.3190515 2.9856217
-4.1088033 1.3339455 2.9844315
-4.1522374 1.3670156 2.9815342
-4.304606 1.4769304 2.9714689
-4.3481631 1.4775629 2.9690888
-4.3633246 1.4744482 2.9683142
-4.4121108 1.4388189 2.9662354
-4.5828476 1.397845 2.9576082
-4.597403 1.3969266 2.9568312
-4.6176486 1.3951442 2.9557583
-4.6780338 1.3972924 2.9524384
-4.6915321 1.3980467 2.9516916
-4.7782307 1.4033782 2.9468887
-4.8215728 1.4064591 2.9444809
-4.8578024 1.4054167 2.9425266
-4.9373598 1.4024568 2.9382458
-4.9913368 1.4004762 2.9353411
-5.0708632 1.3875198 2.9312236
-5.1141901 1.3856025 2.9288974
-5.2237935 1.3568883 2.923398
-5.2543631 1.3516057 2.9218202
-5.2972479 1.3495655 2.9195199
-5.3064671 1.3494985 2.9190195
-5.3401003 1.3425274 2.9173021
-5.4625316 1.3247898 2.9109278
-5.5881052 1.3178592 2.9042075
-5.6677318 1.3146567 2.8999271
-5.7014122 1.3151832 2.8980861
-5.7442961 1.313143 2.895786
-5.8270335 1.3157494 2.8912423
-5.891315 1.3159912 2.8877411
-5.943481 1.3238802 2.8847754
-6.0907226 1.3467462 2.8763952
-6.1725397 1.3572674 2.8717737
-6.2531481 1.3711157 2.8671644
-6.2929692 1.370764 2.8650036
-6.3358531 1.3687239 2.8627033
-6.4482656 1.3620837 2.8566947
-6.4911427 1.360029 2.8543952
-6.5825272 1.3462002 2.8496466
-6.6131506 1.3454583 2.8479924
-6.6493044 1.3434634 2.8460577
-6.6592588 1.3433754 2.8455174
-6.7513466 1.3425624 2.8405204
-6.7745152 1.3425674 2.8392599
-6.8132706 1.3386588 2.8372145
-6.8226519 1.3384531 2.8367074
-6.948328 1.3300171 2.8300059
-6.9863415 1.3365581 2.8278322
-7.0101719 1.3395963 2.8264866
-7.0671177 1.3437541 2.8233211
-7.1202826 1.3401427 2.820487
-7.1363702 1.3403146 2.8196089
-7.1675706 1.339725 2.8179209
-7.2125492 1.3386996 2.8154902
-7.2795668 1.3387361 2.8118434
-7.3044558 1.3385165 2.810493
-7.4506602 1.3288901 2.8026938
-7.4921713 1.3343585 2.8003471
-7.5002127 1.3344419 2.7999084
-7.5982356 1.3397558 2.7944894
-7.6262026 1.3403132 2.7929587
-7.6369276 1.3404195 2.7923734
-7.6436243 1.3401594 2.7920134
-7.6691675 1.3391302 2.7906404
-7.7674766 1.3382633 2.7853055
-7.7944808 1.338578 2.7838314
-7.8373804 1.3390033 2.7814903
-7.8700533 1.3426907 2.7796533
-7.9484406 1.3390791 2.7754469
-7.9976277 1.3378415 2.7727907
-8.0404949 1.3332689 2.7705321
-8.198081 1.3364253 2.7619076
-8.351943 1.3726511 2.7529511
-8.357584 1.3730471 2.7526379
-8.3929052 1.3560448 2.7509909
-8.5213022 1.3098385 2.7447517
-8.6867752 1.3149855 2.7356656
-8.7143154 1.3165255 2.7341423
-8.7510738 1.3178966 2.7321203
-8.7970524 1.3190992 2.7295995
-8.8735847 1.3126218 2.7255402
-8.9562893 1.3101969 2.7210796
-9.0902243 1.3282058 2.7135017
-9.1135845 1.3282511 2.71223
-9.1921711 1.3123114 2.7082119
-9.207531 1.311197 2.7073944
-9.2810163 1.3089411 2.7034326
-9.317791 1.3128114 2.7013693
-9.3514862 1.3159049 2.699486
-9.4005604 1.3203831 2.6967437
-9.437335 1.3242533 2.6946805
-9.4771709 1.3264012 2.6924784
-9.559845 1.3189783 2.6881003
-9.6424856 1.3265176 2.6834824
-9.7972813 1.3239803 2.6751013
-9.8156528 1.3234162 2.6741109
-9.9058399 1.3234248 2.669204
-9.9918814 1.338553 2.6642785
-10.129264 1.3267655 2.6569943
-10.169098 1.3289111 2.6547925
-10.276266 1.353852 2.6485589
-10.315474 1.3560541 2.6463902
-10.426647 1.3242264 2.6408558
-10.472014 1.3159263 2.6385214
-10.631542 1.2566283 2.6308
-10.701582 1.213469 2.6276865
-10.735077 1.1964762 2.6261389
-10.748724 1.1905575 2.6254919
-10.768492 1.166988 2.6247971
-10.806576 0.99265903 2.6255412
-10.963929 0.58793992 2.6235182
-11.046268 0.52307975 2.6200862
-11.052467 0.51972651 2.6198032
-10.999262 0.47026643 2.6234968
-10.833239 0.19183214 2.6370275
-10.813919 0.087836906 2.6397586
-10.320894 -1.1256678 2.6861856
-10.253583 -1.1192229 2.6897438
-10.173861 -1.1310148 2.6942716
-10.090131 -1.1388729 2.6989541
-10.048239 -1.1315815 2.7011154
-9.9916534 -1.117743 2.7039704
-9.8294487 -1.0921564 2.7123823
-9.7963867 -0.50871241 2.704756
-9.5135784 -0.66200376 2.7226188
-9.4337912 -0.65385389 2.7268281
-9.2134056 -1.1317313 2.7465384
-9.1331425 -1.1368587 2.750988
-9.0939102 -1.1356742 2.7531035
-9.026598 -1.1292295 2.7566617
-8.8527184 -1.0799043 2.7653251
-8.8178158 -1.0896258 2.767381
-8.711153 -1.1181087 2.7736442
-8.6253052 -1.126524 2.778451
-8.6316395 -1.127351 2.7781196
-8.6691523 -1.1283107 2.7760942
-8.6875105 -1.1295726 2.7751157
-8.8609972 -1.1544349 2.7660785
-8.903944 -1.1464787 2.7636135
-9.1442537 -1.1731737 2.7509701
-9.1626253 -1.1737549 2.74998
-9.2593441 -1.1367092 2.7441194
-9.2930803 -1.1274362 2.7421341
-9.412591 -1.1209939 2.735528
-9.4554749 -1.123034 2.7332277
-9.4983425 -1.127573 2.7309687
-9.5748749 -1.1340849 2.7269101
-9.6116667 -1.1277502 2.7248061
-9.6515026 -1.1256025 2.722604
-9.7711239 -1.1016669 2.7157092
-9.8263378 -1.097965 2.7126453
-2.6097555 1.3084719 3.0664012
-2.5898874 1.3160849 3.0673592
-2.49053 1.349149 3.0722308
-2.450763 1.3543777 3.0743101
-2.5694816 1.3660302 3.0676627
-2.7505021 1.3654504 3.0578234
-2.807662 1.3570471 3.0548491
-1.2825654 -1.1676569 3.1786094
-1.3198612 -1.167872 3.1765838
-1.3562157 -1.1288934 3.1739762
-1.4654648 -1.062947 3.1669669
-1.4779434 -1.0480237 3.1660471
-1.538655 -0.83004123 3.1592226
-1.5490172 -0.8117047 3.1583624
-1.5517521 -0.7317459 3.1569221
-1.5504556 -0.69095248 3.1563337
-1.4559007 -0.57054478 3.159533
-1.2152545 -0.19747326 3.166599
-1.3451297 -0.010782182 3.156517
-1.2962661 0.27518186 3.154556
-1.219018 0.5259099 3.1547084
-1.218596 0.60572946 3.1534419
-1.2182739 0.64561391 3.1528153
-1.4619632 1.0449536 3.1331058
-1.7515833 1.422992 3.1112416
-1.6720183 1.4234526 3.1155632
-1.588901 1.4231014 3.120091
-1.4748285 1.4075167 3.126549
-1.3864439 1.4259405 3.1310601
-1.3034408 1.4630761 3.1349759
-0.8294661 1.4216685 3.1614323
-0.79679561 1.4260221 3.1631396
-0.78259444 1.4252729 3.1639242
-0.74281168 1.4255033 3.166085
-0.66324663 1.4259641 3.1704063
-0.60144281 1.430485 3.1736958
-0.43876076 1.4305947 3.1825452
-0.34292555 1.4544747 3.1873734
-0.28590155 1.4556203 3.1904573
-0.21741772 1.4143825 3.1948495
0.0076937675 1.3726313 3.2077715
0.047555447 1.3725395 3.2099419
0.088607788 1.3627429 3.2123337
0.12841082 1.3554394 3.214617
0.24957895 1.3331559 3.2215695
0.36718082 1.3316121 3.2279928
0.40793276 1.2941315 3.2308154
0.44821548 1.1743166 3.2349424
0.41012001 1.0138931 3.2354615
0.37022972 0.77391452 3.2371678
0.4953742 0.55344731 3.2475381
0.49403 0.37387687 3.2503657
0.40767765 0.12794918 3.2496405
0.36863089 -0.032285392 3.2501044
0.36882687 -0.074769855 3.2508013
0.37267923 -0.15056035 3.2522354
0.38935566 -0.212073 3.2541363
0.25387478 -0.2713958 3.2477236
0.1928277 -0.73334843 3.2518647
0.21462393 -0.81353039 3.2543459
0.17524195 -0.85386008 3.2528548
0.13545513 -0.8541531 3.2506948
0.019601345 -0.8558504 3.2444191
-0.18553305 -0.93575317 3.234549
-0.27292538 -1.0408709 3.2314925
-0.33171082 -1.0414097 3.228303
-0.35159397 -1.0440238 3.2272632
-0.39136124 -1.0492516 3.2251842
-0.51067781 -1.0599368 3.2188652
-0.75254488 -1.1829951 3.2076938
-0.78877473 -1.1840026 3.205739
-0.90812206 -1.1846914 3.1992569
-0.94435215 -1.185699 3.1973019
-0.98768711 -1.1851504 3.1949353
-1.0310216 -1.1846018 3.1925688
-1.0672517 -1.1856093 3.190614
-1.1070344 -1.1858389 3.1884532
-1.1503692 -1.1852903 3.1860867
-1.1830473 -1.1870763 3.1843376
-1.1865995 -1.1862981 3.1841319
-10.653582 -1.0224724 2.6664183
-10.632517 -1.0226007 2.6675663
-10.412884 -1.1181302 2.6810591
-10.363795 -1.1252089 2.6838441
-10.151796 -1.1016817 2.6949983
-10.477786 -0.74598426 2.6715162
-10.479834 -0.69554698 2.6705899
-10.541609 -0.46532792 2.6635101
-10.03299 -1.1131432 2.7016473
-10.106408 -1.102119 2.6974747
-2.2575638 -0.85353416 3.1204886
-2.4312122 -0.85518509 3.1110675
-2.9101672 -1.1155727 3.0892158
-2.4137454 -0.8750779 3.1123393
-3.1517534 1.3630335 3.0360317
-3.0013628 1.3645179 3.0441899
-2.9889307 1.3645899 3.0448651
-2.9691057 1.3640194 3.045953
-3.0834432 1.3868096 3.0393641
-3.1630616 1.3812668 3.0351219
-3.2698641 1.3529663 3.0297682
-3.3060489 1.3369291 3.0280585
-3.3497818 1.3226175 3.0259104
-3.1897409 1.36025 3.0340097
-8.1888208 -0.39124137 2.7903206
-8.3082848 -0.3922962 2.783838
-8.4341955 -0.40662277 2.7772191
-8.3529882 -0.40768617 2.7816544
-8.3047266 -0.40820259 2.7842886
-8.2245064 -0.40765131 2.7886441
-4.3386931 -0.46784574 3.0010307
-4.6568079 -0.8296327 2.9895675
-4.9171705 -0.66597492 2.9727583
-4.9421902 -0.42581445 2.9675174
-4.9200263 -0.37317729 2.9678731
-4.6228695 -0.18614751 2.981019
-7.3755083 -0.38897479 2.8345337
-7.3356867 -0.38862807 2.8366945
-7.2833595 -0.39816928 2.8396957
-7.2915163 -0.43934727 2.8399169
-7.3121433 -0.47924703 2.8394394
-7.348886 -0.48042041 2.8374593
-7.4056311 -0.46677285 2.8341515
-7.487545 -0.44190735 2.8292933
-7.5884609 -0.44165587 2.8237987
-7.638442 -0.44136405 2.8210745
-7.7394266 -0.40059286 2.8149216
-8.0231533 -0.40309805 2.7995255
-8.0724506 -0.38687676 2.7965813
-8.148984 -0.39338881 2.7925227
-7.7170906 -0.3903988 2.8159723
-7.5945807 -0.38515645 2.8225529
-7.5149212 -0.38695234 2.826916
-7.4751 -0.38660067 2.8290768
-7.4551659 -0.387169 2.8301706
-8.3466196 -1.1140664 2.793412
-8.386425 -1.1169171 2.7912924
-8.4201221 -1.1138918 2.7894101
-8.4966698 -1.1179049 2.7853103
-8.4660988 -1.1126223 2.7868881
-8.4144783 -1.1064365 2.7895968
-8.334815 -1.1083071 2.7939613
-8.5725956 -0.40878737 2.7697241
-8.5097847 -0.40907067 2.7731459
-8.4755316 -0.40793031 2.7749913
-8.5166264 -0.3916223 2.7724919
-8.6310186 -0.40762758 2.7665267
-8.6055393 -0.4082405 2.7679229
-8.5917482 -0.40848517 2.7686772
-8.5395527 -1.1199448 2.78301
-8.5456953 -1.1208227 2.78269
0 0 0 1 0 0 0 1 0 0 0 1 0 0 0 0 0 568 1 0 0
