ply
format ascii 1.0
comment PCL generated
element vertex 739
property float x
property float y
property float z
element camera 1
property float view_px
property float view_py
property float view_pz
property float x_axisx
property float x_axisy
property float x_axisz
property float y_axisx
property float y_axisy
property float y_axisz
property float z_axisx
property float z_axisy
property float z_axisz
property float focal
property float scalex
property float scaley
property float centerx
property float centery
property int viewportx
property int viewporty
property float k1
property float k2
end_header
-0.41381168 0.57449925 -6.0324163
-0.38978386 0.37352264 -6.0402427
-0.38917351 0.29351664 -6.0380645
-0.38774395 0.17354801 -6.0351028
-0.38795424 0.13350464 -6.0337076
-0.38708067 0.10147907 -6.0332074
-0.3839817 -0.13838205 -6.0274277
-0.38397646 -0.25842446 -6.0236216
-0.38191223 -0.37831777 -6.0210371
-0.38156557 -0.45832115 -6.018703
-0.38155985 -0.57836366 -6.0148973
-0.38258362 -0.69848073 -6.0104799
-0.38326645 -0.77855873 -6.007535
-0.41589689 -0.9383136 -5.9831753
-0.41315031 -0.97812879 -5.9835358
-0.41555023 -1.0183171 -5.9808416
-0.47464561 -1.0972942 -5.9434004
-0.58261299 -1.1508502 -5.8778758
-0.61082458 -1.1504555 -5.8612108
-0.63470697 -1.1505527 -5.8470893
-0.99266052 -1.2802433 -5.6313677
-1.1075339 -1.3040653 -5.5627031
-1.2042017 -1.319352 -5.5050726
-1.2097163 -1.319127 -5.5018196
-1.2268987 -1.3191825 -5.4916606
-1.3255773 -1.279961 -5.4345708
-1.4441543 -1.2545475 -5.3652802
-1.4744759 -1.2518237 -5.3474417
-1.5491388 -1.2442185 -5.3035455
-1.6318951 -1.2140784 -5.2555799
-1.6680083 -1.2063168 -5.234478
-1.7091227 -1.202486 -5.2102947
-1.75597 -1.1961153 -5.1828027
-1.8193426 -1.1860975 -5.1456575
-1.847111 -1.180451 -5.1294212
-1.9363489 -1.1717107 -5.0769448
-1.9678891 -1.1729457 -5.0582609
-2.0786767 -1.1506696 -4.993475
-2.0925317 -1.1490951 -4.9853344
-2.1724885 -1.1329325 -4.9385805
-2.246928 -1.128408 -4.8947186
-2.3103008 -1.1183902 -4.8575735
-2.3871305 -1.0926219 -4.812973
-2.4624374 -1.0822926 -4.7687826
-2.4953125 -1.0824914 -4.749342
-2.4371049 -1.0958569 -4.7833271
-2.3735564 -1.1133676 -4.8203387
-0.96256256 1.3942972 -5.734035
-1.0135136 1.3896918 -5.7037687
-0.84285975 1.1935537 -5.7984276
-0.80968809 1.1134858 -5.8154964
-0.8395977 0.79343092 -5.7876582
-0.83865595 0.75346977 -5.7869473
-0.83873987 0.71342337 -5.7856264
-0.87386131 0.35289577 -5.7534227
-0.87449455 0.25094107 -5.7498131
-0.87885809 0.13046607 -5.7434106
-0.87724209 -0.069595248 -5.7380171
-0.9078536 -0.22955298 -5.7148447
-0.87281084 -0.38954169 -5.7304831
-0.90377045 -0.70968336 -5.7020216
-0.83735275 -0.82976806 -5.7374744
-1.0449824 -1.2791167 -5.6004725
-1.0613317 -1.2829624 -5.5906858
-1.1517692 -1.2972695 -5.5367689
-1.3342862 -1.2559505 -5.4301844
-1.3983674 -0.7978462 -5.4068403
-1.3679299 -0.7179805 -5.4273682
-1.4098024 -0.39839762 -5.4127564
-1.4978638 -0.55765003 -5.3556447
-1.4922333 -0.79742038 -5.3513641
-1.7655392 -1.1537292 -5.1784906
-1.7982383 -1.1614208 -5.1589165
-1.9220202 -1.1559457 -5.0859156
-1.9877703 -1.1563433 -5.0470347
-2.0319467 -1.152045 -5.0210562
-2.1371188 -1.1273136 -4.9596677
-2.1596799 -1.1291673 -4.9462719
-2.2305784 -1.1245623 -4.9045057
-2.2635121 -1.1222636 -4.8851099
-1.5686555 1.3746114 -5.3751149
-1.7775073 1.4190913 -5.2530622
-1.7804241 1.4190204 -5.2513361
-1.9949927 1.3573592 -5.1225357
-2.0857821 1.358052 -5.0688868
-2.1492729 1.3730373 -5.0318298
-2.2102699 1.3934797 -4.9964199
-2.2242429 1.4000701 -4.9883685
-2.252455 1.4153147 -4.9721746
-2.3478479 1.3980343 -4.9152341
-2.3778758 1.388275 -4.8971734
-2.4898255 1.3666992 -4.8303089
-2.5257628 1.3669734 -4.809073
-2.5800261 1.3424163 -4.7762156
-2.7643929 1.3508326 -4.6674933
-2.8177953 1.3453369 -4.6357498
-2.8550646 1.3465302 -4.6137557
-2.8947372 1.3473591 -4.5903292
-2.9417267 1.3514662 -4.5626812
-2.9754517 1.3463676 -4.542583
-3.0353074 1.3396997 -4.5069876
-3.115922 1.3337131 -4.4591417
-3.1648772 1.3307419 -4.4301071
-3.1951606 1.3335896 -4.4122953
-3.2542248 1.3341761 -4.377398
-3.2859161 1.337137 -4.3587575
-3.3024306 1.3385066 -4.3490381
-3.3161049 1.3349887 -4.3408427
-3.3929496 1.329564 -4.2952433
-3.4561203 1.3276576 -4.2578392
-3.4836578 1.3306134 -4.2416544
-3.5468285 1.3287069 -4.2042499
-3.6263719 1.3206763 -4.1569724
-3.5987873 1.3152225 -4.1731062
-3.5658054 1.3149807 -4.192596
-3.4917533 1.3227953 -4.2366199
-3.4284883 1.3197057 -4.273922
-3.3449941 1.3140948 -4.323102
-3.2458415 1.2822911 -4.3807073
-3.09799 1.2825637 -4.4681191
-3.0848749 1.2808509 -4.4758177
-3.0424225 1.2815521 -4.500936
-2.9817529 1.2779005 -4.5366855
-2.9520383 1.27916 -4.5542912
-2.9180253 1.2825865 -4.5745068
-2.8453734 1.299055 -4.6179781
-2.7519138 1.2963266 -4.6731405
-2.7189212 1.2915623 -4.6924934
-2.6913288 1.293367 -4.7088618
-2.6610653 1.2931361 -4.7267451
-2.6144533 1.2967672 -4.754415
-2.5027852 1.3238652 -4.8212886
-2.4262755 1.3492161 -4.867322
-2.3961892 1.356478 -4.8853383
-2.3429079 1.3670676 -4.917172
-2.2753131 1.363047 -4.9570036
-2.2449322 1.3578209 -4.9747972
-2.1979671 1.3464664 -5.0022006
-2.1536722 1.3371476 -5.02809
-2.0766792 1.3355523 -5.073554
-2.0439224 1.3407786 -5.0930843
-1.9998624 1.34145 -5.1191521
-1.9505801 1.3430452 -5.1483364
-1.9177642 1.3457737 -5.1678219
-1.8546267 1.3457738 -5.2051463
-1.7939825 1.3403168 -5.2408233
-1.763778 1.3425834 -5.2587509
-1.7223303 1.342793 -5.2832594
-1.6754239 1.3339361 -5.3107071
-1.6451607 1.3337051 -5.3285904
-1.4950757 1.3355387 -5.4173717
-1.4293318 1.3854614 -5.4578214
-1.4733911 1.3847899 -5.4317541
-11.21137 1.0757442 0.33471584
-11.201496 1.1406026 0.32681966
-11.125399 1.17873 0.28062487
-11.108578 1.1798663 0.2706449
-11.018679 1.1891398 0.21720576
-10.966422 1.1987567 0.18600917
-10.92544 1.2134154 0.16131735
-10.895455 1.2156739 0.14352012
-10.704651 1.3229054 0.027321815
-10.57377 1.3468375 -0.050808907
-10.407425 1.3262519 -0.14849091
-10.206532 1.2654727 -0.26532149
-10.134277 1.2887969 -0.30877495
-10.124365 1.28975 -0.31466532
-10.109421 1.2909013 -0.32353592
-10.087021 1.2944906 -0.33689189
-10.060641 1.294237 -0.35247827
-10.041924 1.2916349 -0.36346078
-9.9386997 1.2945367 -0.42457414
-9.9295692 1.295819 -0.4300127
-9.8887291 1.2951773 -0.4541347
-9.8845253 1.2954614 -0.45662951
-9.8469782 1.2911919 -0.47868991
-9.7776432 1.2983772 -0.51990557
-9.7550287 1.3031056 -0.53342438
-9.7345486 1.3042557 -0.54556775
-9.6575985 1.302415 -0.59099913
-9.5973625 1.2944419 -0.62635446
-9.5673246 1.2942023 -0.64410424
-9.5169668 1.3026071 -0.67414021
-9.4401245 1.3057623 -0.71966648
-9.4233017 1.3068985 -0.72964668
-9.3595152 1.3039355 -0.76726103
-9.2900743 1.3021547 -0.80825472
-9.2815132 1.3021657 -0.81331611
-9.2788105 1.3020648 -0.81491065
-9.2260933 1.2991035 -0.84598041
-9.2111502 1.3002548 -0.85485101
-9.2017632 1.30018 -0.86039758
-9.1828403 1.2974882 -0.87149882
-9.0948286 1.2966276 -0.92349982
-9.0815363 1.2979509 -0.93139958
-9.073802 1.298048 -0.93597484
-9.0685873 1.2979341 -0.93905377
-9.0216751 1.2963327 -0.96673536
-8.987669 1.2972023 -0.98686624
-8.9847393 1.2972584 -0.98859954
-8.9531994 1.2993888 -1.0073123
-8.9468918 1.2998149 -1.0110549
-8.8844891 1.2865188 -1.0475223
-8.8280182 1.2835276 -1.0808105
-8.7775545 1.2869364 -1.1107509
-8.717639 1.2939515 -1.1463928
-8.6572962 1.2809823 -1.1816533
-8.6067247 1.2793951 -1.2114984
-8.5766344 1.2766573 -1.2291996
-8.4865742 1.2784369 -1.282496
-8.4660406 1.2770891 -1.2945914
-8.4191284 1.2754878 -1.322273
-8.3664227 1.2774787 -1.3534937
-8.3122463 1.2784035 -1.3855495
-8.2822094 1.2781639 -1.4032986
-8.2653341 1.2768023 -1.413231
-8.2256317 1.2701769 -1.4364914
-8.1582918 1.2722239 -1.4763644
-8.1151981 1.2781026 -1.502026
-8.0514641 1.2776376 -1.5396881
-8.0118685 1.2760081 -1.5630435
-7.974514 1.2757967 -1.5851192
-7.8345881 1.3114301 -1.6689681
-7.8233232 1.3133253 -1.6756874
-7.7977915 1.3139157 -1.6907995
-7.7229967 1.3144308 -1.735031
-7.7126331 1.3137131 -1.7411346
-7.6944609 1.3118212 -1.7518173
-7.6880779 1.3109764 -1.7555639
-7.571187 1.2841299 -1.8238127
-7.5564394 1.2838532 -1.8325222
-7.5364871 1.2801393 -1.8441992
-7.4866552 1.2784414 -1.8736038
-7.4529114 1.279399 -1.893582
-7.405221 1.2754546 -1.9216491
-7.3721714 1.2760088 -1.9412042
-7.3007169 1.2673937 -1.9831716
-7.238266 1.2743924 -2.0203118
-7.2189384 1.2752633 -2.0317652
-7.1468253 1.2637545 -2.0740299
-7.075686 1.2703495 -2.1162937
-6.9953108 1.2834945 -2.1642251
-6.9557815 1.2770672 -2.1873891
-6.8320141 1.2786186 -2.2606044
-6.7593422 1.282005 -2.3036723
-6.6860638 1.2953053 -2.3474131
-6.6693115 1.3013682 -2.3575087
-6.6288409 1.2839167 -2.3808794
-6.4814034 1.2860497 -2.4681056
-6.4588671 1.2847283 -2.4813862
-6.4045115 1.2867281 -2.513582
-6.3688669 1.2864977 -2.5346463
-6.2902813 1.2956885 -2.5813944
-6.2511864 1.3093927 -2.6049402
-6.1912074 1.3115025 -2.6404643
-6.0465016 1.2989613 -2.7256098
-5.9941959 1.2926729 -2.7563312
-5.9562907 1.2908844 -2.7786822
-5.9352169 1.2922179 -2.7911825
-5.9263282 1.2931883 -2.7964678
-5.903862 1.2952487 -2.8098142
-5.8288207 1.2947632 -2.8541598
-5.8194733 1.2961709 -2.8597305
-5.8025608 1.2947396 -2.869683
-5.7387714 1.2941809 -2.9073746
-5.7345567 1.2944477 -2.9098747
-5.6450744 1.2984244 -2.962899
-5.6319709 1.2996615 -2.9706843
-5.5682359 1.3016009 -3.0084231
-5.5513763 1.3026679 -3.0184238
-5.4613271 1.3020853 -3.0716383
-5.4143438 1.2979617 -3.099282
-5.3381109 1.3025168 -3.1444919
-5.2943854 1.3021815 -3.17033
-5.2557745 1.3081574 -3.1933446
-5.2255859 1.3103057 -3.2112589
-5.1815338 1.30598 -3.2371633
-5.1485991 1.3082361 -3.2567043
-5.1183634 1.3078865 -3.2745674
-5.0303531 1.3042312 -3.326479
-4.9946251 1.3040975 -3.3475957
-4.9643893 1.3037479 -3.3654585
-4.9606094 1.303704 -3.3676915
-4.9128256 1.3018327 -3.39588
-4.8636918 1.3012643 -3.4249077
-4.8578544 1.3013617 -3.4283617
-4.785955 1.314031 -3.4712675
-4.7226429 1.3084437 -3.5085175
-4.7006841 1.3097879 -3.5215414
-4.6237917 1.3127143 -3.5670896
-4.5505371 1.3081908 -3.6102507
-4.5192671 1.3076892 -3.6287203
-4.4753575 1.3108575 -3.6547782
-4.3984179 1.3112862 -3.7002752
-4.3243179 1.3166027 -3.7442484
-4.2391891 1.3198534 -3.7946761
-4.1621552 1.315286 -3.8400702
-4.0853572 1.3232086 -3.8857212
-4.024838 1.3200111 -3.9213958
-3.9781346 1.3207895 -3.9490297
-3.8873787 1.3172423 -4.0025678
-3.8408175 1.3255146 -4.0303555
-3.7802978 1.322317 -4.0660305
-3.7007546 1.3303477 -4.1133075
-3.6842403 1.3289778 -4.1230268
-10.552816 -1.0385321 0.01250267
-10.586803 -0.51118386 0.015859604
-10.458961 -0.25497347 -0.067845583
-9.9687653 -0.41516954 -0.35254455
-9.8608074 -0.46608621 -0.41474843
-9.7353992 -0.69678402 -0.48156357
-9.9457035 -1.1018292 -0.34438705
-9.9997721 -1.1077499 -0.31223607
-10.052638 -1.1022468 -0.28115845
-10.086388 -1.0995233 -0.26129365
-10.176341 -1.1062988 -0.20790243
-10.193163 -1.107435 -0.19792199
-10.247337 -1.1083598 -0.16586685
-10.277323 -1.1106182 -0.14806938
-10.286827 -1.1117264 -0.14241552
-10.390211 -1.1071341 -0.081445694
-10.841714 -0.68170065 0.17196226
-10.755846 -1.1007096 0.13449836
-10.695921 -1.0986465 0.099007368
-10.684656 -1.0987365 0.092351437
-10.561998 -1.1358647 0.02101922
-10.537592 -1.1360594 0.0065977573
-10.501923 -1.1363438 -0.014479637
-10.46828 -1.1340714 -0.034439564
-10.449581 -1.1329502 -0.045529127
-2.7388842 -0.37397206 -4.6278372
-2.7626326 -0.41506249 -4.6124945
-2.9612701 -0.38554728 -4.4960051
-2.9400671 -0.34765804 -4.5097418
-2.8152864 -0.015831083 -4.5940371
-2.7889276 0.065903649 -4.6122131
-2.7378299 0.22534052 -4.6474795
-2.7185404 0.12921523 -4.6558318
-2.7337239 0.050508022 -4.6443586
-2.7350287 0.025546104 -4.6427951
-2.7205412 -0.13291016 -4.6463308
-2.6959815 -0.29291254 -4.6557722
-2.7133427 -0.33420825 -4.6441984
-8.9235659 -1.2470056 -0.94402242
-8.843029 -1.1594733 -0.99440956
-8.8834276 -1.1117133 -0.97204351
-9.1618233 -0.80209625 -0.81729412
-9.1681776 -0.76707971 -0.81464863
-9.1707659 -0.64217126 -0.81708264
-9.0392933 -0.37721729 -0.90321136
-9.0203648 -0.36116338 -0.91491079
-9.0286331 -0.28150207 -0.91255116
-9.0416222 -0.26479959 -0.90540218
-9.0849495 -0.2583077 -0.87999487
-9.145031 -0.28246284 -0.84371138
-9.2489452 -0.3014276 -0.78167963
-9.2658329 -0.29997569 -0.77174234
-9.3356524 -0.28594553 -0.73091364
-9.4137449 -0.33082068 -0.68332481
-9.4619198 -0.34464109 -0.6544075
-9.5350714 -0.3479172 -0.61105943
-9.6250591 -0.35223955 -0.55772567
-9.6382008 -0.35346681 -0.5499177
-9.6887608 -0.35410744 -0.52000833
-9.8525124 -0.32907671 -0.42400002
-9.9139986 -0.28843242 -0.388942
-9.9296818 -0.27521247 -0.38009071
-9.9501066 -0.27886081 -0.36790013
-9.9668751 -0.28249502 -0.35787225
-9.9723473 -0.28994417 -0.35440111
-4.2370515 -0.55347198 -3.736491
-4.2469563 -0.59264547 -3.7293925
-4.2604704 -0.71303022 -3.7175832
-3.9824204 -1.0642332 -3.8708088
-3.9494386 -1.0644428 -3.8902998
-3.9027355 -1.0636531 -3.9179335
-3.8644109 -1.0558045 -3.9408383
-3.8451509 -1.0570132 -3.9521856
-3.770957 -1.056723 -3.9960549
-3.6656051 -1.0329841 -4.0590878
-3.6432829 -1.032661 -4.0722942
-3.6066658 -1.0298406 -4.0940299
-3.5100453 -1.048278 -4.1505623
-3.4494307 -1.0564809 -4.1861348
-3.364208 -1.0581088 -4.2364631
-3.3174574 -1.059817 -4.2640457
-3.2405655 -1.0568837 -4.3095942
-3.2103293 -1.0572383 -4.327457
-3.1498096 -1.0604452 -4.3631315
-3.13413 -1.0600052 -4.3724146
-3.1195736 -1.0607997 -4.3809948
-3.0591011 -1.0615088 -4.4167209
-3.0272753 -1.061945 -4.4355211
-2.9985814 -1.0647157 -4.4523954
-2.8997843 -1.0575858 -4.5110264
-2.8311701 -1.0654424 -4.5513387
-2.8173151 -1.0670168 -4.5594792
-2.7494397 -1.0709046 -4.5994806
-2.6960285 -1.0779121 -4.6308327
-2.8104918 -1.1177698 -4.561902
-2.8408058 -1.1151276 -4.544066
-2.9179051 -1.108349 -4.498703
-2.9481652 -1.108205 -4.4808192
-2.9645832 -1.1092088 -4.4710817
-3.1249218 -1.0685836 -4.3775859
-3.1551578 -1.0682291 -4.3597231
-3.1810119 -1.0635794 -4.3445868
-3.2109985 -1.0608225 -4.3269477
-3.2926171 -1.0654573 -4.2785511
-3.355787 -1.0673913 -4.2411466
-3.5029223 -1.1067846 -4.1529164
-3.5291927 -1.1072288 -4.1373725
-3.6469824 -1.0729837 -4.0688272
-3.6859066 -1.0673554 -4.0459957
-3.7418549 -1.0697082 -4.0128469
-3.7487144 -1.0702766 -4.0087738
-3.7982581 -1.0662153 -3.9796145
-3.9589238 -1.1076231 -3.8833222
-3.9675298 -1.1066864 -3.8782642
-4.0895481 -1.0668119 -3.8073978
-4.1527658 -1.0662478 -3.7700443
-4.2133327 -1.0605429 -3.7344208
-4.2325926 -1.0593343 -3.7230735
-4.2765503 -1.0599788 -3.6970673
-4.3536325 -1.0529203 -3.6517239
-4.4278259 -1.0532105 -3.6078546
-4.4609027 -1.0480051 -3.5884664
-4.521327 -1.049794 -3.5526891
-4.6125112 -1.023751 -3.4996119
-4.7551756 -1.036257 -3.4148781
-4.7640486 -1.0393289 -3.4095352
-4.7866907 -1.0409023 -3.3961
-4.8086934 -1.0399756 -3.3831227
-4.8192668 -1.0394287 -3.3768895
-4.9116573 -1.0447661 -3.322103
-4.9417982 -1.0494076 -3.3041377
-4.988502 -1.0501972 -3.2765036
-5.0325065 -1.048344 -3.2505486
-5.0517187 -1.0496333 -3.2391503
-5.1349144 -1.0746644 -3.1891744
-5.1517081 -1.0803618 -3.1790659
-5.1685014 -1.0860593 -3.1689577
-5.2190151 -1.0956558 -3.1387916
-5.2358975 -1.096356 -3.1287892
-5.2790294 -1.0952924 -3.1033254
-5.4711714 -1.1515918 -2.9879529
-5.4880543 -1.1522921 -2.9779503
-5.5387025 -1.1543926 -2.9479427
-5.5771475 -1.1537586 -2.9252357
-5.662128 -1.1744348 -2.8743429
-5.8159213 -1.1751084 -2.7834058
-5.8426585 -1.1562132 -2.7681994
-5.9475746 -1.1148515 -2.7074904
-6.0387664 -1.0936284 -2.6542554
-6.085701 -1.0916482 -2.6265726
-6.2151394 -1.0859587 -2.5502348
-6.2527084 -1.0864426 -2.5280104
-6.2958398 -1.085379 -2.5025465
-6.4502158 -1.1593046 -2.4089403
-6.4817448 -1.1799034 -2.3896484
-6.4948692 -1.1790214 -2.3819175
-6.511797 -1.177223 -2.3719678
-6.5680075 -1.1777762 -2.3387213
-6.5811319 -1.1768943 -2.3309906
-6.8531051 -1.1824691 -2.1700351
-6.8909564 -1.1590432 -2.1484025
-7.0606031 -1.1121515 -2.049603
-7.0979776 -1.1194203 -2.0272779
-7.2166262 -1.0818371 -1.9583311
-6.9499097 -0.79972088 -2.1249547
-6.6482129 -0.99321222 -2.2971642
-6.4429145 -0.83679712 -2.4234912
-6.4053478 -0.67948496 -2.4506912
-6.4035769 -0.71941972 -2.4504707
-6.4018068 -0.75935447 -2.4502499
-6.1384664 -1.0731287 -2.5959675
-6.1253419 -1.0740107 -2.6036983
-6.05198 -1.0877491 -2.6466305
-5.9749494 -1.0949085 -2.6919405
-5.6485505 -0.77736473 -2.8949702
-5.6151447 -0.6723839 -2.9180496
-5.7501526 -0.34113652 -2.8487508
-5.8791933 -0.11751556 -2.7795644
-6.1517305 0.087325364 -2.6249528
-6.4383569 -0.039296746 -2.4514935
-6.4898949 -0.15860638 -2.4172406
-6.4060621 -0.6395064 -2.4515376
-6.6671286 -0.35921872 -2.3061013
-6.7566433 -0.36257935 -2.2530775
-6.9651041 -0.60271692 -2.1222243
-6.0713263 0.099148244 -2.6728594
-5.8537822 -0.03787151 -2.7971134
-5.7784863 -0.12511903 -2.8388565
-5.7239585 -0.2370742 -2.867538
-5.5126548 -0.39092833 -2.9875689
-5.1887531 -0.20141158 -3.1850593
-5.1395893 -0.18548921 -3.2146282
-5.0605693 -0.14993778 -3.2624695
-5.0140085 -0.14165422 -3.2902572
-4.75985 -0.039920896 -3.4437327
-4.7139063 0.00083592534 -3.4721861
-4.671391 0.050285235 -3.4988885
-4.5880866 0.041157737 -3.5478446
-4.4207439 0.020406723 -3.6461117
-4.3826637 0.004975915 -3.6681335
-4.2962947 -0.020833462 -3.7183719
-4.125052 0.0063016713 -3.8204641
-4.096282 0.010802001 -3.8376143
-4.0924554 0.0082597435 -3.8397958
-4.0586748 -0.034016877 -3.8584239
-4.0511379 -0.051001877 -3.8623402
-4.1525202 -0.19325101 -3.7978933
-4.1789098 -0.23264909 -3.7810428
-4.2406783 -0.43489206 -3.7381098
-5.6524496 1.2924467 -2.9583492
-5.7516603 1.2829511 -2.899399
-5.7854862 1.2858137 -2.8794932
-5.8118 1.2883356 -2.8640177
-5.8457084 1.2895076 -2.8440099
-5.883101 1.2892351 -2.8218966
-5.89996 1.2881683 -2.8118961
-5.922411 1.2855235 -2.7985404
-5.9597239 1.2760658 -2.7761824
-6.0534754 1.2743204 -2.7207053
-6.1303139 1.2711439 -2.6751809
-6.1434717 1.2724048 -2.6674428
-6.1603842 1.2738361 -2.6574903
-6.2933922 1.2658811 -2.5786095
-6.3439703 1.2626805 -2.5486083
-6.3740401 1.265373 -2.5309176
-6.4546881 1.2648648 -2.4832263
-6.5108576 1.2600864 -2.4498696
-6.5709438 1.2629728 -2.4144406
-6.631031 1.2658594 -2.3790116
-6.6441345 1.2646221 -2.3712261
-6.6478901 1.2647924 -2.3690114
-6.7415338 1.2580509 -2.3134394
-6.7884636 1.2596763 -2.2857482
-6.8447399 1.2598944 -2.2524867
-6.9082603 1.2479622 -2.2145576
-6.9850197 1.2411113 -2.1689637
-7.0156021 1.2403538 -2.1508605
-7.0206394 1.2401659 -2.1478767
-7.1199689 1.236105 -2.0890288
-7.1614981 1.2374024 -2.0645199
-7.1763573 1.2414652 -2.0558648
-7.2534647 1.2507794 -2.0105777
-7.2621555 1.2520649 -2.0054808
-7.3135509 1.2536657 -1.9751488
-7.3472157 1.249034 -1.9551009
-7.4070339 1.2394297 -1.9194342
-7.539814 1.2539344 -1.8414009
-7.6099744 1.2529523 -1.799894
-7.6437244 1.2556758 -1.7800289
-7.6768446 1.2585785 -1.7605419
-7.7207284 1.2600147 -1.7346452
-7.7406926 1.2615337 -1.7228914
-7.7809105 1.2654898 -1.6992421
-7.794127 1.2668655 -1.6914726
-7.8710241 1.2662083 -1.6459935
-7.887845 1.265072 -1.6360137
-7.9141712 1.2628276 -1.6203796
-7.9648495 1.269411 -1.5906299
-8.0138102 1.2723422 -1.5617794
-8.0549088 1.2676315 -1.5373341
-8.0753355 1.2639832 -1.5251431
-8.1654491 1.2647018 -1.471895
-8.2039509 1.2668712 -1.4492029
-8.2292366 1.2676649 -1.4342805
-8.3458366 1.273633 -1.3655415
-8.3720131 1.2688465 -1.349915
-8.4430523 1.2643316 -1.3077762
-8.5294113 1.2650201 -1.2567466
-8.5500412 1.2664118 -1.2445953
-8.5669155 1.2677736 -1.2346629
-8.643919 1.2721124 -1.1892794
-8.7039957 1.2725916 -1.1537805
-8.7676754 1.2705586 -1.116071
-8.8110371 1.2771699 -1.0906476
-8.8746634 1.2726389 -1.0528904
-8.9774275 1.2571592 -0.99164987
-9.0616207 1.2465699 -0.94154263
-9.0747833 1.2454476 -0.93372536
-9.1385174 1.2459127 -0.8960638
-9.1818256 1.2500261 -0.87059259
-9.3195457 1.2848201 -0.79028249
-9.353241 1.2850456 -0.77037024
-9.4937124 1.2773595 -0.68708611
-9.6175747 1.2808015 -0.61397314
-9.7474451 1.2906435 -0.53751206
-9.7715826 1.2894793 -0.523206
-9.8016739 1.2922168 -0.50550413
-9.8463774 1.288964 -0.47897458
-9.8712015 1.2890896 -0.46430349
-9.8785181 1.2890615 -0.45997739
-9.8993702 1.2880855 -0.44761944
-9.9330139 1.2858129 -0.4276588
-9.9498348 1.2846767 -0.41767883
-10.115671 1.2297819 -0.31790209
-10.144691 1.2116976 -0.30017281
-10.374744 1.1506114 -0.16223693
-10.402477 1.1308519 -0.14521503
-10.5794 0.8087604 -0.030404806
-10.550722 0.60872477 -0.041009903
-10.556242 0.4492408 -0.032685995
-10.557715 0.40897357 -0.030537128
-10.547643 0.28900909 -0.032684565
-10.535692 0.16902959 -0.035941362
-10.546196 0.047958791 -0.025890112
-5.3540955 1.2875808 -3.1345685
-5.26791 1.292165 -3.1856632
-5.2341375 1.2918006 -3.2056165
-5.1372447 1.2891645 -3.2628114
-5.1098022 1.2912047 -3.2790987
-5.0439334 1.2957171 -3.318181
-4.9556866 1.279572 -3.3698361
-4.9090781 1.2853463 -3.3975723
-4.8624215 1.2886226 -3.4252574
-4.813067 1.294505 -3.4546204
-4.7773399 1.2943714 -3.4757366
-4.6756086 1.2917361 -3.5357919
-4.6263013 1.3001164 -3.5652061
-4.582438 1.3057828 -3.5913157
-4.516427 1.3028014 -3.630244
-4.4604778 1.3006258 -3.6632497
-4.4257193 1.3017521 -3.6838334
-4.3514781 1.2995746 -3.7276523
-4.2882128 1.2964852 -3.7649541
-4.2442555 1.2971555 -3.7909608
-4.2141137 1.3018017 -3.8089266
-4.1067491 1.2918887 -3.8720813
-4.0464187 1.298683 -3.9079614
-4.0084324 1.3062878 -3.9306586
-3.9367809 1.3138579 -3.9732561
-3.9202664 1.312488 -3.9829752
-3.8157892 1.3099608 -4.0446572
-3.752666 1.3143653 -4.0821128
-3.7060571 1.3201396 -4.109849
-3.7033114 1.3202477 -4.1114759
-3.6594009 1.3234159 -4.1375341
-0.42363119 1.2541866 -6.0481811
-0.43660069 1.3332235 -6.0430222
-0.48871374 1.355196 -6.0129128
-0.5360322 1.3815359 -5.9857759
-0.59345293 1.3768586 -5.951683
-0.65714312 1.3849572 -5.914289
-0.70410824 1.3963118 -5.8868856
-0.76451683 1.3917783 -5.8510308
-0.84174538 1.4033638 -5.8057442
-0.91577387 1.3904353 -5.7615719
-0.41953087 1.0543737 -6.0442638
-0.44504929 0.77491045 -6.0203104
-0.41442156 0.65450525 -6.0345945
-8.9967651 -1.2464579 -0.9007678
-9.153677 -1.1876817 -0.8098731
-9.2632046 -1.1640227 -0.74587631
-9.310071 -1.1648444 -0.71814489
-9.330575 -1.1652039 -0.70601249
-9.364769 -1.1436402 -0.68648291
-9.5629253 -1.0883787 -0.57109523
-9.6470547 -1.0961082 -0.52111626
-9.6732349 -1.103559 -0.5054028
-9.7201023 -1.1043806 -0.47767115
-9.7369909 -1.1029288 -0.46773362
-9.7707138 -1.1025231 -0.44781065
-9.796999 -1.1049775 -0.43219423
-9.8943748 -1.108938 -0.3745048
-9.9038229 -1.1103462 -0.36887455
-10.004925 -1.1413182 -0.30812478
-10.100916 -1.1268377 -0.25183892
-6.165185 0.1023992 -2.6174774
-6.4425216 0.089498386 -2.4531188
-6.4726992 0.097186968 -2.435523
-6.5665584 0.10043794 -2.380141
-6.6714172 0.092121676 -2.3178892
-6.7143631 0.082733482 -2.2922034
-6.7368345 0.080025867 -2.2788336
-6.7499666 0.079302981 -2.2710476
-7.0156603 -0.34330887 -2.1005697
-7.0306687 -0.34321147 -2.0917006
-7.0606842 -0.34301674 -2.0739627
-7.1075597 -0.34392291 -2.0462234
-7.120718 -0.34262735 -2.038486
-7.1249323 -0.34290254 -2.0359859
-7.4367628 -0.30061328 -1.8529875
-7.4521542 -0.28302926 -1.844447
-7.514843 -0.17182904 -1.8109168
-7.5315037 -0.17132658 -1.8010837
-7.5613098 -0.18785557 -1.7829391
-7.5645576 -0.20200321 -1.7805704
-7.6963749 -0.47013009 -1.694137
-7.7004342 -0.50961369 -1.6904842
-7.7683382 -0.70032853 -1.6442902
-7.7954006 -0.75125396 -1.6266761
-8.0114336 -1.0951977 -1.4880521
-8.0749292 -1.1070584 -1.4501398
-8.1687136 -1.1062033 -1.3947257
-8.2626534 -1.0978539 -1.3394576
-8.2495499 -1.1945001 -1.3441367
-8.2428112 -1.2403761 -1.3466644
-8.1325579 -1.2240231 -1.4123607
-8.0352345 -1.2175645 -1.4700987
-7.975174 -1.2180138 -1.5055896
-7.8630776 -1.1938746 -1.5726221
-7.7708216 -1.1907549 -1.6272585
-7.6942177 -1.1881289 -1.672627
-7.5088596 -1.1150541 -1.7845215
-7.4188833 -1.1131006 -1.8377734
-7.3889213 -1.1107836 -1.8555592
-7.3684134 -1.1010053 -1.8679928
-7.2445221 -1.0815678 -1.9418486
-7.3353829 -1.076702 -1.8882902
-7.6437874 -0.9152503 -1.7110984
-7.6661592 -0.67441648 -1.7055161
-7.5650988 -0.50812048 -1.7705359
-7.1388865 -0.36131793 -2.0271523
-6.9767108 -0.60319829 -2.1153476
-10.226805 -1.1097076 -0.17796183
-10.243626 -1.1108439 -0.16798234
-10.253131 -1.1119519 -0.16232824
-5.5980368 1.2918025 -2.9904952
-5.5453005 1.2817625 -3.0213518
-5.4647603 1.287267 -3.0691385
-5.387814 1.2854471 -3.114568
-10.910786 -0.089178503 0.19399142
-10.954899 0.13714007 0.21288657
-10.93441 0.3180804 0.19503284
-11.177643 0.63717031 0.3286953
-11.206583 0.67609215 0.34456778
-11.222382 0.71490908 0.35267568
-11.224646 0.81859857 0.35072327
-11.247303 0.91491479 0.36106133
-11.238095 0.95527917 0.35433698
-10.906569 -0.28652149 0.19776058
-10.911764 -0.21904522 0.19869089
-10.905513 -0.13885468 0.19245052
-10.833141 -0.56924808 0.16332626
-10.903542 -0.37887698 0.19890189
-10.906034 -0.31150162 0.19823742
0 0 0 1 0 0 0 1 0 0 0 1 0 0 0 0 0 739 1 0 0
