ply
format ascii 1.0
comment PCL generated
element vertex 709
property float x
property float y
property float z
element camera 1
property float view_px
property float view_py
property float view_pz
property float x_axisx
property float x_axisy
property float x_axisz
property float y_axisx
property float y_axisy
property float y_axisz
property float z_axisx
property float z_axisy
property float z_axisz
property float focal
property float scalex
property float scaley
property float centerx
property float centery
property int viewportx
property int viewporty
property float k1
property float k2
end_header
-11.670258 0.55408472 -4.2263212
-11.629327 0.59496582 -4.2297587
-11.599291 0.63529873 -4.2324901
-11.578245 1.1667234 -4.2445712
-11.688654 1.2055707 -4.2383113
-11.681402 1.3029548 -4.2407417
-11.681259 1.3105571 -4.2409048
-11.673974 1.3104862 -4.2413678
-11.482268 1.3488632 -4.2543755
-11.441911 1.3518118 -4.25701
-11.402121 1.3519446 -4.2595515
-11.380074 1.3518376 -4.2609563
-11.36301 1.3517076 -4.262042
-11.193331 1.3190776 -4.2722096
-11.153632 1.3254313 -4.2748709
-11.073856 1.3258024 -4.2799687
-11.037098 1.3267969 -4.2823343
-11.003448 1.3261015 -4.2844672
-10.922034 1.3148232 -4.289434
-10.882147 1.3150089 -4.2919827
-10.842276 1.3176934 -4.2945809
-10.802404 1.3203779 -4.2971792
-10.756295 1.3239435 -4.3001933
-10.678126 1.3309665 -4.3053231
-10.636649 1.3269993 -4.3078895
-10.563063 1.3189927 -4.3124228
-10.55906 1.3186591 -4.3126717
-10.475443 1.3135934 -4.3179045
-10.403444 1.3097396 -4.3224206
-10.362019 1.313269 -4.3251352
-10.320025 1.3196144 -4.3279428
-10.305652 1.3193672 -4.328855
-10.242306 1.3063293 -4.332633
-10.114915 1.3186078 -4.3410096
-9.9884014 1.2930312 -4.3485651
-9.8881712 1.2791207 -4.3546796
-9.7888317 1.282357 -4.3610835
-9.7489462 1.282721 -4.3636355
-9.7090607 1.283085 -4.366188
-9.6887541 1.2805036 -4.3674316
-9.6472054 1.2791811 -4.3700557
-9.5479851 1.2879291 -4.3765635
-9.5080709 1.2857943 -4.3790669
-9.4298601 1.2856324 -4.3840542
-9.4079285 1.2833393 -4.385407
-9.2688122 1.2929753 -4.3944783
-9.1076536 1.290323 -4.4047074
-9.010807 1.2927017 -4.4109349
-8.9692116 1.2863815 -4.4134612
-8.8910885 1.2860351 -4.4184394
-8.7915745 1.2814602 -4.4246964
-8.7314415 1.2746474 -4.4283957
-8.6898918 1.2733248 -4.4310198
-8.6500092 1.2736013 -4.4335704
-8.6319475 1.2754197 -4.4347596
-8.5873804 1.2784525 -4.4376645
-8.5702648 1.2766533 -4.4387202
-8.4280062 1.2949008 -4.4481659
-8.3881207 1.2952647 -4.4507179
-8.3082647 1.2884964 -4.4556766
-8.1917839 1.2928064 -4.4631958
-8.1565504 1.2880026 -4.4653468
-8.0736303 1.288011 -4.4706378
-7.9524412 1.2924912 -4.4784613
-7.8816552 1.3121268 -4.4833746
-7.85922 1.3123314 -4.4848099
-7.6744442 1.3340451 -4.4970388
-7.6267605 1.3339614 -4.5000796
-7.461916 1.2907507 -4.5097246
-7.4020052 1.2837937 -4.5134068
-7.3455725 1.28523 -4.5170364
-7.3071532 1.2893611 -4.5195713
-7.2656484 1.2881641 -4.5221953
-7.1852274 1.2842391 -4.5272474
-7.1411638 1.2870719 -4.5301161
-7.1363611 1.2874002 -4.5304294
-7.0790548 1.2904155 -4.5341468
-7.0184112 1.2975309 -4.5381598
-6.9833293 1.297562 -4.5403991
-6.8971934 1.30205 -4.5459857
-6.8653231 1.3026952 -4.5480323
-6.7840743 1.3143511 -4.553452
-6.6995301 1.3178968 -4.558918
-6.6613216 1.3248099 -4.5614958
-6.5383444 1.3152792 -4.5691495
-6.4571233 1.3294338 -4.5746179
-6.2974734 1.3208766 -4.5846319
-6.0584612 1.3404648 -4.6002779
-6.0571156 1.3405349 -4.6003652
-5.9032626 1.3091499 -4.6095481
-5.7786226 1.3031191 -4.6173787
-5.6240754 1.3438303 -4.6280627
-5.5829582 1.3454503 -4.6307187
-5.5679741 1.3430864 -4.6316271
-5.4580536 1.3068777 -4.6379089
-5.3256717 1.2956746 -4.6461296
-5.2823577 1.2980733 -4.6489415
-5.1991386 1.2955643 -4.654201
-5.1177301 1.3118879 -4.6597252
-5.0362754 1.3182176 -4.6650505
-4.9961786 1.318451 -4.6676135
-4.9565244 1.3208941 -4.6701932
-4.9166541 1.3234816 -4.6727891
-4.8767734 1.3235705 -4.6753359
-4.8369031 1.326158 -4.6779318
-4.7550669 1.320212 -4.6830335
-4.717247 1.3239266 -4.6855216
-4.6409168 1.3217947 -4.6903491
-4.4781246 1.3594387 -4.7014966
-4.4116006 1.3607383 -4.7057676
-4.39643 1.3609159 -4.7067389
-4.3916597 1.3607826 -4.7070408
-4.3801374 1.3585062 -4.7077303
-4.2347641 1.3142507 -4.7161117
-4.1171308 1.2889397 -4.7231059
-4.0460081 1.2958353 -4.7277832
-3.9679973 1.3023537 -4.7328925
-3.8466482 1.3062741 -4.7407146
-3.7998903 1.3084843 -4.7437425
-3.7167304 1.3184675 -4.7492504
-3.6871819 1.3191223 -4.7511492
-3.6393509 1.3220543 -4.7542601
-3.5647368 1.3187675 -4.7589545
-3.3424683 1.4030995 -4.7748408
-3.3191769 1.4037271 -4.7763395
-3.3050795 1.403183 -4.7772284
-3.1169341 1.3509384 -4.7881775
-2.9659657 1.3405231 -4.7975998
-2.926096 1.3431106 -4.8001957
-2.7994916 1.3280096 -4.8079686
-2.7129991 1.3390396 -4.8137102
-2.6332812 1.3495691 -4.8190098
-2.7538302 1.3200724 -4.8107219
-2.8410063 1.3092766 -4.8049412
-2.8791716 1.3103426 -4.8025279
-2.9207695 1.3090986 -4.7998486
-3.0056694 1.3029574 -4.7943072
-3.1286159 1.2728978 -4.7858548
-3.2004647 1.2830582 -4.781476
-3.2122841 1.2834634 -4.7807298
-3.2865558 1.3011796 -4.7763491
-3.4010162 1.296882 -4.768959
-3.4859753 1.303233 -4.7636662
-3.5623174 1.3078634 -4.7588887
-3.6039035 1.304121 -4.7561598
-3.7235596 1.3063524 -4.74857
-3.805027 1.3025211 -4.7432942
-4.0873375 1.0341036 -4.7198577
-4.0520978 0.67850345 -4.7149205
-4.1140251 0.52155674 -4.707798
-4.1925411 0.37183306 -4.6997628
-4.3944435 0.17170125 -4.6828361
-4.4375319 0.12183204 -4.6790795
-4.4424939 0.11682402 -4.6786613
-4.6923547 0.0069443434 -4.6604986
-4.7080135 0.0064060986 -4.6594887
-5.004323 -0.22920817 -4.6358213
-5.0878983 -0.2245838 -4.6305823
-5.1751924 -0.22734135 -4.6249566
-5.2924409 0.33599415 -4.6288581
-5.2365732 0.41736686 -4.6340671
-5.196321 0.47535315 -4.6378074
-5.237772 0.66970968 -4.6390896
-5.2377949 0.67470646 -4.6391892
-5.2380204 0.72217691 -4.6401339
-5.0360503 1.2707472 -4.6641054
-4.9944758 1.276988 -4.6668844
-4.9147482 1.2846613 -4.6721263
-4.835928 1.2791928 -4.6770453
-4.7975726 1.2799258 -4.6795073
-4.754662 1.2803813 -4.6822543
-4.6009636 1.306893 -4.6925969
-4.4830127 1.3010082 -4.7000041
-4.3649178 1.265142 -4.7068148
-11.695909 0.52574003 -4.2241116
-11.696646 0.51573217 -4.2238622
-11.697523 0.50269258 -4.2235427
-11.786944 0.13379079 -4.2103829
-11.796429 0.066362321 -4.2084155
-11.795746 0.026563376 -4.207655
-11.771876 0.0054112077 -4.2087507
-11.670021 -0.12969047 -4.2125196
-11.584212 -0.34407464 -4.2136626
-11.583727 -0.39404854 -4.2126842
-11.487019 -0.52894497 -4.2161288
-11.475506 -0.56755638 -4.216083
-11.466974 -0.65030444 -4.2149553
-11.479893 -0.80878222 -4.2109289
-11.343784 -1.0052173 -4.2156444
-11.343174 -1.0073137 -4.215641
-11.307684 -1.0423803 -4.2171969
-11.245777 -1.1073767 -4.2198334
-11.227255 -1.1092454 -4.2209778
-11.185727 -1.1154805 -4.2235012
-11.165915 -1.1194369 -4.2246857
-11.119305 -1.1305282 -4.2274356
-11.081131 -1.123736 -4.2300081
-10.987867 -1.1149424 -4.2361369
-10.840178 -1.1215136 -4.2454276
-10.805216 -1.1290578 -4.2475061
-10.766985 -1.1297621 -4.2499309
-10.708544 -1.125337 -4.2537494
-10.677286 -1.1242765 -4.2557654
-10.666891 -1.123956 -4.2564349
-10.620794 -1.1230571 -4.2593946
-10.540187 -1.1235311 -4.2645283
-10.509113 -1.1238377 -4.2665048
-10.469203 -1.1260366 -4.2690067
-10.429293 -1.1282353 -4.2715087
-10.389456 -1.1229382 -4.2741575
-10.359058 -1.1216339 -4.2761235
-10.309659 -1.1248372 -4.279211
-10.172443 -1.1538304 -4.2873802
-10.132418 -1.1659501 -4.2896891
-10.023569 -1.2088619 -4.2957673
-9.8823948 -1.2680234 -4.3035798
-9.8808088 -1.2675012 -4.3036914
-9.7670269 -1.248239 -4.3113408
-9.7287273 -1.248385 -4.3137813
-9.7013216 -1.2473339 -4.3155513
-9.6870584 -1.2474213 -4.3164597
-9.6655149 -1.2475033 -4.3178325
-9.6566801 -1.2453912 -4.318439
-9.5273285 -1.2007025 -4.3275952
-9.4907265 -1.1913738 -4.3301191
-9.4125986 -1.1861449 -4.3352098
-9.3678741 -1.1916997 -4.3379517
-9.2832642 -1.1968782 -4.3432455
-9.2132587 -1.1767659 -4.3481188
-9.1687574 -1.1623274 -4.3512497
-8.9295883 -1.1475736 -4.3668084
-8.8927631 -1.1582383 -4.3689427
-8.8112392 -1.1719584 -4.373867
-8.7345285 -1.1822468 -4.3785539
-8.729744 -1.1831795 -4.3788404
-8.6085052 -1.1815284 -4.3866096
-8.5718746 -1.1746988 -4.3890848
-8.4841785 -1.1713356 -4.3947482
-8.4490223 -1.1750247 -4.3969169
-8.4107218 -1.1751705 -4.3993578
-8.3661089 -1.1707287 -4.4022942
-8.2944345 -1.1575917 -4.4071326
-8.2465944 -1.1571039 -4.4101949
-8.2098808 -1.1577718 -4.4125242
-8.1284704 -1.1614954 -4.4176435
-8.0933132 -1.1651847 -4.4198122
-8.0120144 -1.1589116 -4.4251261
-7.9354434 -1.1567042 -4.4300566
-7.8283205 -1.1876423 -4.4362664
-7.8068752 -1.187757 -4.4376326
-7.7809567 -1.1871954 -4.4392977
-7.7254214 -1.1864495 -4.4428563
-7.7020946 -1.1859441 -4.4443545
-7.647337 -1.1862518 -4.4478426
-7.5706239 -1.1993978 -4.4524717
-7.4925623 -1.1993124 -4.4574542
-7.4509816 -1.1984385 -4.460125
-7.4127755 -1.201172 -4.4625072
-7.4110765 -1.200618 -4.4626269
-7.3107786 -1.1803594 -4.4694362
-7.2925873 -1.1799772 -4.4706044
-7.1911364 -1.1794002 -4.4770894
-7.172945 -1.179018 -4.4782577
-7.0800896 -1.1542091 -4.484684
-6.8328476 -1.147405 -4.500597
-6.7461576 -1.1353022 -4.5063729
-6.6424637 -1.1309674 -4.5130768
-6.558033 -1.1274947 -4.5185342
-6.5182471 -1.1272098 -4.5210781
-6.4897361 -1.1263216 -4.5229154
-6.4747934 -1.1247329 -4.523901
-6.3748674 -1.122328 -4.5303254
-6.3350115 -1.119509 -4.5329256
-6.2951307 -1.1191893 -4.5354767
-6.1354103 -1.1379036 -4.5452895
-6.0954313 -1.1475805 -4.5476451
-6.0156698 -1.1469411 -4.5527472
-5.7596679 -1.0900353 -4.5702314
-5.7198095 -1.0871927 -4.5728321
-5.5969815 -1.0842644 -4.5807285
-5.4788866 -1.0866786 -4.5882149
-5.4022627 -1.0903847 -4.593029
-5.3234043 -1.0853537 -4.5981627
-5.2759609 -1.0853372 -4.6011901
-5.2347364 -1.0892662 -4.6037407
-5.1562109 -1.0995991 -4.6085424
-5.0763779 -1.109107 -4.6134443
-4.9965663 -1.1161168 -4.6183953
-4.9566717 -1.1183723 -4.6208949
-4.8807325 -1.1152756 -4.625803
-4.8284216 -1.1124587 -4.6291976
-4.8010311 -1.1097934 -4.6309991
-4.7592974 -1.1058599 -4.6337414
-4.6745749 -1.1150659 -4.6389613
-4.648221 -1.1155698 -4.6406326
-4.6247334 -1.1147625 -4.6421475
-4.4802747 -1.0941678 -4.6517811
-4.3870153 -1.0662532 -4.6582956
-4.2887869 -1.0577515 -4.6647353
-4.2090626 -1.0547678 -4.6698823
-4.1198864 -1.0508177 -4.675652
-4.0418916 -1.0665148 -4.6803117
-4.038106 -1.066628 -4.6805506
-4.0060167 -1.0688065 -4.6825542
-3.9639611 -1.0747172 -4.6851182
-3.8784831 -1.0806472 -4.6904526
-3.8424392 -1.0752947 -4.6928606
-3.8063951 -1.0699424 -4.6952682
-3.7247458 -1.0707628 -4.7004614
-3.6805935 -1.0690407 -4.7033134
-3.97258 -0.67069399 -4.6927319
-3.9326808 -0.52472794 -4.6982274
-4.0014067 -0.4290233 -4.695776
-4.0925851 -0.26218101 -4.6933293
-3.9774919 0.03965278 -4.7067723
-3.9772265 0.049869746 -4.7069955
-4.0655346 0.35866934 -4.7076006
-4.1010265 0.52194548 -4.7086353
-4.0396819 0.68852502 -4.7159152
-2.9039345 -0.10017756 -4.7724462
-2.8836381 -0.018882915 -4.7753839
-2.8623836 0.045974866 -4.7780509
-2.8583283 0.062428504 -4.7786417
-2.8366954 0.12655765 -4.7813182
-2.7869656 0.25047308 -4.7869949
-2.8090951 0.16274658 -4.7838101
-2.7991736 -0.015930668 -4.7808332
-2.8048601 -0.094733328 -4.7788777
-2.8041477 -0.17467952 -4.777308
-2.7628205 -0.33429894 -4.7767196
-2.7790389 -0.35071191 -4.775353
-2.868741 -0.41976711 -4.7682343
-2.8821995 -0.33749005 -4.7690377
-2.8839948 -0.25873855 -4.7705145
-2.8818572 -0.21874839 -4.7714591
-1.6802478 1.3306468 -4.8794365
-1.665894 1.3300664 -4.8803411
-1.6008492 1.3307292 -4.8845043
-1.5611711 1.3332688 -4.8870873
-1.4792447 1.3412232 -4.8924756
-1.3730235 1.3332384 -4.8990917
-1.3216238 1.3198884 -4.9021015
-1.2407579 1.3241336 -4.9073472
-1.1608868 1.3171751 -4.912303
-1.1177139 1.3185775 -4.9150858
-0.99800587 1.3193821 -4.9227405
-0.91824532 1.3249152 -4.9279413
-0.87832022 1.322685 -4.9304438
-0.8028245 1.3158801 -4.9351234
-0.76190472 1.3248539 -4.9379158
-0.64213133 1.3181635 -4.9454226
-0.50444794 1.3355113 -4.9545584
-0.42239475 1.3555677 -4.9601989
-0.23384237 1.3655586 -4.9724317
-0.22495985 1.3693527 -4.9730754
-0.26415205 1.3874822 -4.9709406
-0.30647612 1.3975508 -4.9684439
-0.38858652 1.3874881 -4.9630013
-0.3962059 1.3876017 -4.9625173
-0.42634583 1.3843905 -4.9605293
-0.46309757 1.3793294 -4.9580822
-0.59608412 1.365669 -4.9493208
-0.63603067 1.3703973 -4.9468675
-0.77622414 1.3408602 -4.9373255
-0.91927004 1.379272 -4.9289742
-0.9973855 1.3730569 -4.9238644
-1.2956381 1.379751 -4.9049692
-1.436182 1.355117 -4.895504
-1.5214667 1.3560216 -4.8900805
-1.5592036 1.3581749 -4.8877163
-1.681006 1.3701656 -4.880187
-1.7177978 1.3658077 -4.8777514
-1.7964101 1.3539907 -4.8724966
-1.8740273 1.3533773 -4.8675318
-1.9580975 1.3405031 -4.8619075
-2.0379906 1.3499599 -4.8570008
-2.0778713 1.3471935 -4.8544002
-2.1177301 1.3419286 -4.8517504
-2.1910262 1.3277401 -4.846787
-2.2393579 1.3263623 -4.8436756
-2.3999839 1.3241544 -4.8333821
-2.24017 1.3254541 -4.8436055
-2.1585174 1.317965 -4.8486638
-2.1200566 1.3267128 -4.8512945
-2.000484 1.3273661 -4.8589373
-1.9201627 1.3158653 -4.8638301
-1.8005209 1.3241646 -4.8716316
-8.9468079 -0.51885772 -4.3784137
-8.6530771 -0.47859493 -4.3979692
-8.6809731 -0.43636784 -4.3970423
-8.6847582 0.0014673322 -4.4056478
-8.6852055 0.041453958 -4.4064274
-8.6844568 0.064410567 -4.406939
-8.684906 0.10439084 -4.4077182
-8.6853542 0.14437112 -4.4084973
-8.7232141 0.2244208 -4.4076991
-8.8018608 0.30484134 -4.4043059
-8.8248091 0.30440465 -4.402833
-8.8372068 0.26381412 -4.4012218
-8.8372412 0.1847204 -4.3996215
-8.8431473 0.11994553 -4.3979359
-8.8399477 0.063867211 -4.397007
-8.8336487 0.001076892 -4.3961401
-8.8286753 -0.078350753 -4.3948522
-8.9688425 -0.3977454 -4.3794551
-9.1509476 -0.65890253 -4.3625584
-9.4072914 -0.68272221 -4.3457208
-9.7105503 -1.0726777 -4.3184915
-9.7454596 -1.0753542 -4.3162103
-9.992712 -0.56398082 -4.3107667
-10.048838 -0.35783163 -4.3113513
-10.048379 -0.35004738 -4.3115377
-9.9841824 -0.092074305 -4.3208466
-9.8465452 0.17288508 -4.3349824
-9.8589182 0.25725031 -4.3358979
-9.8684034 0.29627955 -4.336081
-9.9055424 0.37259695 -4.3352537
-9.9258566 0.49291182 -4.3363886
-9.9610233 0.65637541 -4.3374476
-10.062641 1.2233706 -4.3424206
-9.8747597 1.2705745 -4.3553624
-9.8066711 1.2705784 -4.3597069
-9.7668104 1.2733538 -4.3623066
-9.7152443 1.2745289 -4.3656206
-9.710537 1.274699 -4.3659244
-9.687067 1.2764057 -4.3674564
-9.6370325 1.2743672 -4.3706074
-9.5908785 1.2757908 -4.3735814
-9.5110779 1.2740198 -4.3786373
-9.471221 1.2768826 -4.381238
-9.4095249 1.277442 -4.3851862
-9.3977184 1.2765508 -4.3859215
-9.3515644 1.2779744 -4.388895
-9.3179188 1.2747798 -4.3909774
-9.2732401 1.2678176 -4.3936872
-9.1934681 1.2685454 -4.3987923
-9.0737267 1.2621409 -4.4063029
-8.9126244 1.2644863 -4.4166298
-8.8001394 1.2628864 -4.4237747
-8.7901678 1.2629774 -4.4244127
-8.7712326 1.2643756 -4.4256492
-8.7116632 1.2696942 -4.4295573
-8.6334238 1.2670338 -4.4344959
-8.5919771 1.2682872 -4.4371657
-8.5583878 1.2700903 -4.4393454
-8.5138216 1.273123 -4.4422503
-8.4707603 1.2702687 -4.4449401
-8.4339943 1.2688533 -4.4472575
-8.3533449 1.2700816 -4.4524283
-8.3190451 1.2697752 -4.4546103
-8.2809963 1.269374 -4.4570303
-8.275816 1.2695308 -4.4573641
-7.9786744 1.0713351 -4.4723186
-7.9631934 0.83594716 -4.4685502
-7.9622955 0.75598645 -4.4669914
-7.9589038 0.6760487 -4.4655929
-7.8734264 0.55512476 -4.4686031
-7.798439 0.31590268 -4.468554
-7.7807989 0.21697807 -4.4676809
-7.7683167 0.14157319 -4.4669538
-7.7678843 0.10159404 -4.4661732
-7.7678843 0.080769971 -4.4657526
-7.7665234 0.021931976 -4.4646506
-7.7771392 -0.049411803 -4.4625316
-7.7785287 -0.067428142 -4.462079
-7.7916961 -0.22751585 -4.458004
-7.8158274 -0.30775693 -4.454843
-7.8163714 -0.34807 -4.4539933
-7.8148341 -0.38769767 -4.4532909
-8.1962833 -0.75172174 -4.4215965
-8.2805786 -0.71303332 -4.4169998
-8.3356504 -0.67324936 -4.4142895
-8.4330692 -0.65143287 -4.4085145
-1.3759184 -1.1967793 -4.847785
-1.494699 -1.1789151 -4.8405671
-1.6056476 -1.1658705 -4.8337512
-1.6157198 -1.1646779 -4.8331327
-1.65557 -1.1612151 -4.8306599
-1.6955175 -1.1564913 -4.8282065
-1.778615 -1.1556246 -4.8229218
-1.9393754 -1.150416 -4.8127699
-1.9803824 -1.1493852 -4.810174
-2.0570288 -1.1363537 -4.8055468
-2.0930705 -1.1327906 -4.803319
-2.0192027 -1.1484635 -4.8077154
-1.9381809 -1.1617129 -4.8126178
-1.8538222 -1.1813713 -4.8176031
-1.7751002 -1.1820202 -4.8226128
-1.7340698 -1.1855493 -4.8251595
-1.6209702 -1.1794071 -4.8325
-1.5378056 -1.1877688 -4.8376374
-1.4600992 -1.1971073 -4.8424072
-1.3402133 -1.2162751 -4.849669
-1.2992063 -1.2173059 -4.8522649
-1.1794763 -1.2189854 -4.8598704
-1.0597458 -1.220665 -4.867476
-0.9810462 -1.2188154 -4.8725348
-0.94222641 -1.2197373 -4.8749933
-0.85919428 -1.213109 -4.880425
-0.7826829 -1.2111505 -4.8853464
-0.73955441 -1.2047954 -4.888227
-0.69856834 -1.2033277 -4.8908715
-0.65586615 -1.2029119 -4.8936048
-0.58316946 -1.2097859 -4.8981042
-0.49814606 -1.2332473 -4.9030552
-0.4559207 -1.2311416 -4.9057922
-0.37029505 -1.2308866 -4.9112606
-0.33388519 -1.2314876 -4.9135718
-0.29049158 -1.2308396 -4.9163537
-0.25175142 -1.2318572 -4.9188051
-0.21068764 -1.2307926 -4.9214463
-0.21652937 -1.2235049 -4.9212208
-0.25693941 -1.2239839 -4.918633
-0.37607718 -1.2000587 -4.9115148
-0.37826538 -1.1999497 -4.9113774
-0.41597986 -1.2003316 -4.9089632
-0.51686382 -1.197212 -4.9025893
-0.53566456 -1.196079 -4.9014125
-0.61666489 -1.1928976 -4.8963084
-0.73639441 -1.191218 -4.8887029
-0.77735758 -1.1951839 -4.8860092
-0.81846237 -1.200462 -4.8832798
-0.85490799 -1.2033336 -4.8808961
-0.93586302 -1.1975791 -4.8758469
-0.96468449 -1.1990876 -4.8739777
-1.0943012 -1.2074695 -4.8655376
-1.1342483 -1.2027458 -4.8630843
-1.254972 -1.2122542 -4.8551893
-1.2949195 -1.2075304 -4.852736
-10.01268 -1.1723185 -4.2972007
-9.7753048 -1.0830578 -4.3141503
-6.6914949 0.653597 -4.5460076
-6.6158037 0.73238945 -4.5524292
-6.5776601 0.77196229 -4.5556626
-6.7472057 1.2978336 -4.5554705
-6.8173685 1.2977713 -4.5509925
-6.9002652 1.2901706 -4.5455494
-7.0661144 1.2799664 -4.534761
-7.1044068 1.2805493 -4.5323296
-7.1459117 1.2817463 -4.5297055
-7.259058 1.2719439 -4.5222878
-7.3453622 1.2824481 -4.5169935
-7.3852181 1.27959 -4.5143929
-7.4170322 1.2739475 -4.512249
-7.455297 1.2720318 -4.5097685
-7.4968023 1.2732288 -4.5071445
-7.5366583 1.2703707 -4.5045438
-7.5797267 1.2681266 -4.5017505
-7.769896 0.75791359 -4.4793067
-7.7549443 0.71254492 -4.4793439
-7.7111111 0.55291569 -4.4789152
-7.646338 0.43280423 -4.4806213
-7.6161036 0.39956695 -4.4818788
-7.5851431 0.37263897 -4.4833102
-7.5700641 0.36026043 -4.4840221
-7.5836563 0.22271372 -4.4803758
-7.3596544 -0.23640791 -4.4853911
-7.2198949 -0.25019562 -4.49403
-7.1997638 -0.26751444 -4.4949646
-7.1770854 -0.28980914 -4.4959612
-6.6803408 -0.3479965 -4.5264807
-6.6027861 -0.14241514 -4.5355835
-6.5850096 -0.0066890717 -4.5394602
-6.6377082 0.19090217 -4.5400901
-6.728816 0.37053168 -4.5379066
-6.7288446 0.37303036 -4.5379553
-6.6934853 0.57193077 -4.5442305
-6.0992785 1.289248 -4.5966387
-6.027679 1.295191 -4.6013274
-6.0225949 1.2952948 -4.6016541
-5.98103 1.2995553 -4.6043921
-5.8998556 1.291045 -4.6093993
-5.8583517 1.289848 -4.6120234
-5.740262 1.2874851 -4.6195107
-5.6684227 1.2809935 -4.6239634
-5.6205239 1.2810671 -4.6270208
-5.5486856 1.2745755 -4.6314735
-5.4965897 1.2656192 -4.6346164
-5.4590864 1.2559614 -4.6368146
-5.3333645 0.71482253 -4.6339016
-5.371027 0.58750075 -4.6289258
-5.413897 0.42439789 -4.6228948
-5.4514003 0.34641361 -4.618926
-5.978549 0.2546795 -4.5834374
-6.0968604 0.21415229 -4.5750694
-6.4657345 0.57160503 -4.5587559
-6.4991474 0.66126603 -4.5584354
-6.5401788 0.76335311 -4.5578804
-6.3086619 1.2916152 -4.5833268
-6.2605205 1.296863 -4.5865045
-6.2254386 1.2968941 -4.5887437
-6.2214322 1.2967513 -4.5889964
-6.139163 1.2888887 -4.5940866
-9.9977093 0.34963757 -4.3289089
-10.018152 0.13441961 -4.3232555
-9.985425 0.027918309 -4.3231916
-10.253099 -0.30891702 -4.2993064
-10.305349 -0.32169566 -4.2957144
-10.745569 -0.2818453 -4.2684307
-10.834803 -0.24098447 -4.2635627
-10.919949 -0.20164251 -4.258925
-10.963898 -0.2029222 -4.2560949
-11.067028 -0.20274818 -4.2495179
-11.434076 0.16729656 -4.2335753
-11.421151 0.23545241 -4.2357774
-11.326588 0.56729263 -4.2485161
-11.322717 0.60781634 -4.2495818
-11.320311 0.72728634 -4.2521496
-11.34507 0.87722206 -4.2535996
-11.345339 0.91720462 -4.2543902
-11.301281 1.0728164 -4.2603455
-11.139463 1.2172266 -4.2735887
-10.978462 1.24615 -4.2844458
-10.940241 1.2433567 -4.286828
-10.90032 1.2385858 -4.289279
-10.858722 1.2343365 -4.2918472
-10.820536 1.2365416 -4.2943287
-10.740828 1.2444944 -4.2995749
-10.702624 1.2442003 -4.3020067
-10.664401 1.241407 -4.304389
-10.579601 1.2434272 -4.3098407
-10.5397 1.2411554 -4.3123407
-10.499836 1.2438823 -4.3149395
-10.42175 1.2438158 -4.3199205
-10.345286 1.2357296 -4.324636
-10.194377 0.72148991 -4.323874
-10.184729 0.69194895 -4.3238926
-10.164893 0.64113605 -4.3241315
-10.148442 0.61258483 -4.3246045
-10.1434 0.60763276 -4.3248258
-10.033228 0.45019698 -4.3286743
-4.2098184 -0.38795403 -4.6833081
-4.2072825 -0.39293548 -4.6833692
-4.1316299 -0.57340968 -4.6845493
-4.1316013 -0.67136657 -4.6825719
-4.1298823 -0.77327645 -4.6806226
-4.3667383 -1.047051 -4.6599774
-4.4083843 -1.0609778 -4.6570387
-4.5164933 -1.0795336 -4.649766
-4.5619683 -1.0883508 -4.6466861
-4.7291393 -1.0766037 -4.6362572
-4.8090167 -1.0620991 -4.6314535
-4.8860435 -1.0759345 -4.6262589
-4.9246755 -1.0829269 -4.6236529
-5.0423031 -1.094954 -4.6159043
-5.0802946 -1.094004 -4.6134996
-5.1639562 -1.0793862 -4.6084566
-5.2038298 -1.0796289 -4.6059079
-5.2779565 -1.0765141 -4.6012411
-5.526042 -0.71917069 -4.5926323
-5.5690451 -0.56042778 -4.5930958
-5.1750326 -0.23510802 -4.6248097
-5.1680269 -0.23536068 -4.6252518
-5.1395335 -0.23607311 -4.6270552
-5.0420957 -0.25324157 -4.6329255
-5.0080647 -0.23409179 -4.6354837
-4.573576 -0.19383419 -4.6640205
-4.5317116 -0.20489055 -4.6664681
-11.420444 -0.77764869 -4.2153511
-10.994448 -1.0018442 -4.2380023
-10.954363 -0.44743034 -4.2517624
-10.713917 -0.48649701 -4.266315
-10.323572 -0.83877099 -4.2841034
-10.680779 -1.1031545 -4.255969
-10.739155 -1.1048778 -4.2522097
-10.249437 -0.67940807 -4.2920537
-3.1646428 -1.0661725 -4.7362924
-3.090564 -1.0667667 -4.7410069
-3.0032911 -1.0615108 -4.7466817
-2.8967776 -1.0633335 -4.7534413
-2.8836288 -1.0657794 -4.7542305
-2.8568306 -1.0680572 -4.7558947
-2.8456156 -1.0692277 -4.7565866
-2.8158009 -1.0715863 -4.758441
-2.8019357 -1.0715964 -4.7593255
-2.732636 -1.0799478 -4.7635784
-2.8000541 -1.0704038 -4.75947
-2.8536491 -1.0569781 -4.7563214
-2.8780274 -1.0572048 -4.7547612
-2.8935518 -1.0572511 -4.7537699
-3.0014315 -1.05782 -4.7468748
-3.0487804 -1.0581081 -4.7438478
-3.0830374 -1.0619961 -4.7415838
-3.1627829 -1.0624815 -4.7364855
-3.2525191 -1.0605294 -4.7307992
-3.3311172 -1.0665444 -4.7256627
-3.2899287 -1.0679802 -4.7282619
-9.1114988 -0.67894185 -4.3646708
-8.92486 -1.143508 -4.3671923
-8.8449783 -1.1527522 -4.3721023
-8.8034525 -1.1568519 -4.3746691
-8.7236824 -1.1560993 -4.3797741
-8.4729528 -0.65170908 -4.4059639
-3.5192199 -1.0668772 -4.713654
-3.4893372 -1.0641969 -4.7156148
-3.4494421 -1.0664525 -4.7181149
-3.4076438 -1.0700139 -4.7207098
-10.732052 -0.48235849 -4.2652416
-3.4039023 -1.0651304 -4.7210469
-3.3640292 -1.0648876 -4.7235961
-3.5291662 -1.0694362 -4.7129674
-3.5633502 -1.0710977 -4.710753
-3.6487854 -1.0701643 -4.7053204
-3.5595868 -1.0687125 -4.711041
-3.6108375 -1.0661175 -4.7078233
-3.6374731 -1.0655068 -4.7061362
-2.2189827 -1.1198483 -4.7955465
-2.1812901 -1.1169682 -4.7980099
-2.1379833 -1.1305993 -4.8004975
0 0 0 1 0 0 0 1 0 0 0 1 0 0 0 0 0 709 1 0 0
