ply
format ascii 1.0
comment PCL generated
element vertex 752
property float x
property float y
property float z
element camera 1
property float view_px
property float view_py
property float view_pz
property float x_axisx
property float x_axisy
property float x_axisz
property float y_axisx
property float y_axisy
property float y_axisz
property float z_axisx
property float z_axisy
property float z_axisz
property float focal
property float scalex
property float scaley
property float centerx
property float centery
property int viewportx
property int viewporty
property float k1
property float k2
end_header
0.42635059 1.3993257 0.82485306
0.54329491 1.3827944 0.87183869
0.40350342 1.0674804 0.81154048
0.36135006 0.90659177 0.79254615
-0.11000681 0.74413347 0.60033929
-0.1612525 0.62382722 0.57817686
-0.21021795 0.38277698 0.55544484
-0.21042204 0.34451637 0.55489051
-0.21393394 0.3044576 0.55297935
-0.18382072 0.14269276 0.56313527
-0.19401598 0.036919519 0.55771673
-0.19363356 -0.0030770749 0.5573777
-0.1946063 -0.12308277 0.55550492
-0.040352821 -0.51679802 0.61289322
-0.040137768 -0.53929603 0.61270273
0.056206226 -0.84119362 0.64785588
0.054234505 -0.96126872 0.64557898
0.0017118454 -1.0017854 0.62388527
-0.13687849 -1.0700139 0.56711924
-0.18545103 -1.1052538 0.54708469
-0.21173573 -1.1230123 0.53625906
-0.24473763 -1.1232673 0.52293909
-0.27012682 -1.1233879 0.51269233
-0.28509665 -1.1233766 0.50665176
-0.2979455 -1.1233492 0.50146735
-0.33400393 -1.1236194 0.4869138
-0.51038694 -1.0766802 0.41631818
-0.56253719 -1.0747031 0.39529872
-0.6270957 -1.0843595 0.36912894
-0.68325949 -1.0796541 0.34652352
-0.64936304 -1.0796676 0.36020136
-0.60726118 -1.0749733 0.37724829
-0.54772425 -1.0722091 0.40130687
-0.51386118 -1.0672232 0.41503274
-0.44611883 -1.0597512 0.44246054
-0.34472942 -1.0147959 0.48392808
-0.18121147 -0.70592105 0.55372107
-0.19212437 -0.40781307 0.55299437
-0.19429302 -0.40282941 0.55218065
-0.29926729 -0.19667555 0.51236427
-0.36199236 -0.089580938 0.48837411
-0.36489391 -0.077125534 0.48735702
-0.39387131 0.043644771 0.47715366
-0.40568542 0.10372113 0.47312725
-0.40382051 0.14371699 0.47437298
-0.39938498 0.22447082 0.4771589
-0.40293455 0.26419866 0.47621667
-0.40532541 0.34416091 0.47623813
-0.4093461 0.38395247 0.4751066
-0.40188789 0.54393584 0.48008955
-0.40427876 0.62418395 0.48011458
-0.40478706 0.70417726 0.48089612
-0.40739489 0.74392062 0.48033392
-0.40603828 0.86390978 0.48236144
-0.39103889 0.91190833 0.48900616
-0.66470242 1.3033344 0.38340485
-0.71931267 1.3035768 0.3613714
-0.67601633 1.306219 0.3788749
-0.58944035 1.3134317 0.41389918
-0.52921247 1.318282 0.43826246
-0.49533176 1.3207691 0.45196474
-0.42757177 1.3257432 0.47936881
-0.31489086 1.3240691 0.52481735
-0.28107691 1.3292474 0.53852594
-0.24360657 1.3337463 0.55370152
-0.2097621 1.3364251 0.56739151
-0.16437531 1.3327134 0.58566034
-0.11904955 1.3340013 0.60396636
-0.070035934 1.3321099 0.623721
0.0013093948 1.3367878 0.65256798
0.061713696 1.3410046 0.67699444
0.26782656 1.4279617 0.76123822
0.29520512 1.4279314 0.77228582
0.33466101 1.4284894 0.78821385
0.3516283 1.4287758 0.79506409
-11.542796 -0.96684462 -4.0341501
-11.500647 -1.0541139 -4.018218
-11.38357 -1.0760977 -3.9712462
-11.286205 -1.0972704 -3.9322186
-11.251974 -1.1146989 -3.9186206
-11.188568 -1.1190192 -3.8930879
-11.118481 -1.1261004 -3.8648939
-11.071621 -1.1260045 -3.8459835
-11.032493 -1.1245506 -3.8301764
-10.995477 -1.125299 -3.815249
-10.925432 -1.1273807 -3.7870102
-10.866665 -1.1242969 -3.7632585
-10.845175 -1.1251285 -3.7545967
-10.832785 -1.126092 -3.749609
-10.779222 -1.1312567 -3.7280593
-10.610599 -1.203131 -3.660902
-10.568901 -1.221945 -3.6443081
-10.515381 -1.2221103 -3.622714
-10.505788 -1.2231894 -3.618856
-10.457066 -1.222815 -3.5991907
-10.417937 -1.2213613 -3.5833836
-10.388905 -1.2226752 -3.5716844
-10.354824 -1.2226056 -3.5579314
-10.29146 -1.2219263 -3.5323541
-10.276818 -1.2216216 -3.5264423
-10.247556 -1.2185124 -3.514596
-10.070086 -1.1268775 -3.4418521
-10.01547 -1.1276615 -3.4198232
-9.9873085 -1.1237602 -3.4084115
-9.8850803 -1.123374 -3.3671553
-9.831604 -1.1209768 -3.3455467
-9.8169794 -1.118117 -3.3396103
-9.7147245 -1.1202304 -3.2983744
-9.6221256 -1.1111623 -3.2608967
-9.8322325 -0.5644961 -3.3389366
-9.985404 -1.1118851 -3.4074967
-10.034127 -1.1122596 -3.4271622
-10.116887 -1.1177033 -3.4606247
-10.136326 -1.1174685 -3.4684658
-10.253144 -1.1254817 -3.5157034
-10.267786 -1.1257864 -3.5216155
-10.350567 -1.1287304 -3.5550561
-10.389717 -1.1276846 -3.5708408
-10.433434 -1.1216755 -3.5884075
-10.501575 -1.1243148 -3.6159363
-10.522627 -1.1221329 -3.6244044
-10.584333 -1.1297587 -3.6493983
-10.598976 -1.1300635 -3.6553106
-10.667158 -1.1277032 -3.6827946
-10.691687 -1.1238527 -3.6926451
-10.923716 -0.76795501 -3.7818842
-11.301853 -0.6065169 -3.9324794
-11.261892 -0.24541606 -3.9119005
-11.251719 0.091243148 -3.9036427
-11.217182 0.13370286 -3.8891826
-11.228724 0.46843183 -3.8897114
-11.219868 0.49136698 -3.8858547
-11.214136 0.57362485 -3.8825274
-11.232675 0.69355744 -3.8885288
-11.216284 0.89422715 -3.8794398
-11.031544 1.2160276 -3.8009233
-10.885386 1.2529366 -3.7414899
-10.853722 1.2536815 -3.728704
-10.824516 1.2575896 -3.7168708
-10.756309 1.2552526 -3.6893764
-10.698749 1.2580259 -3.6661153
-10.680475 1.2589064 -3.6587305
-10.605335 1.2562815 -3.6284423
-10.522448 1.2496499 -3.595077
-10.493179 1.2485591 -3.5832801
-10.371349 1.2406811 -3.5342162
-10.288616 1.2465466 -3.5007591
-10.278849 1.2485784 -3.4967928
-10.191296 1.2556161 -3.4613762
-10.142588 1.2564015 -3.4417119
-10.080869 1.2612547 -3.4167471
-9.8944683 1.2557087 -3.341599
-9.8923378 1.2557167 -3.3407393
-9.7971916 1.2741175 -3.3021183
-9.7388878 1.2710267 -3.2786295
-9.694912 1.2695056 -3.2609034
-9.6707096 1.2687855 -3.2511461
-9.6267338 1.2672641 -3.2334194
-9.5732327 1.2671965 -3.2118313
-9.5538063 1.2669995 -3.2039948
-9.539156 1.2673256 -3.1980791
-9.4073772 1.243368 -3.1451988
-9.3733253 1.2459972 -3.1314259
-9.2906237 1.2565806 -3.0979233
-9.2616053 1.2600024 -3.0861716
-9.2496414 1.2606227 -3.0813363
-9.2126713 1.2651875 -3.0663614
-9.1200933 1.2766203 -3.0288634
-9.066617 1.2790524 -3.0072546
-9.0326157 1.2866807 -2.9934402
-8.9743881 1.2910893 -2.9698894
-8.8574839 1.2893033 -2.9227381
-8.8234081 1.2894323 -2.9089861
-8.7988834 1.2906078 -2.8990753
-8.7842321 1.2909342 -2.8931594
-8.7453814 1.2905401 -2.8774867
-8.6720295 1.2821718 -2.847991
-8.6525784 1.2794753 -2.8401752
-8.5843754 1.2747341 -2.8127124
-8.4967718 1.272296 -2.7773926
-8.4040451 1.2687302 -2.7400191
-8.3358679 1.2664888 -2.7125359
-8.3091164 1.2664549 -2.7017415
-8.2581387 1.2632012 -2.681211
-8.1995125 1.2620062 -2.6575687
-8.1947374 1.2614831 -2.6556482
-8.1701622 1.257659 -2.6457787
-8.1118584 1.2545683 -2.6222901
-8.0777578 1.2521979 -2.6085589
-8.0144062 1.2554791 -2.5829544
-7.9608288 1.2479119 -2.5614285
-7.8974771 1.2511933 -2.5358241
-7.8828516 1.2540193 -2.5298877
-7.8195 1.2573005 -2.5042834
-7.760438 1.259205 -2.4804268
-7.7165136 1.2551214 -2.4627528
-7.6970501 1.254977 -2.4549007
-7.6296935 1.2577494 -2.4276865
-7.5655937 1.2610695 -2.4017799
-7.4730368 1.2649513 -2.3643832
-7.4487076 1.2618573 -2.3546038
-7.3999963 1.2623234 -2.3349421
-7.3464718 1.2648395 -2.313313
-7.2733002 1.2613666 -2.2838292
-7.2343469 1.2585779 -2.2681451
-7.1807432 1.2535946 -2.2465763
-7.0978656 1.2467223 -2.2132182
-6.8251677 1.2596627 -2.1030188
-6.8057036 1.2595183 -2.0951664
-6.7357559 1.2723286 -2.066783
-6.6870728 1.2752488 -2.047102
-6.667603 1.2751567 -2.039247
-6.5867925 1.283286 -2.0065377
-6.5215006 1.2789173 -1.9802449
-6.4941311 1.277169 -1.9692223
-6.43574 1.2767354 -1.9456656
-6.3723001 1.2675079 -1.9201798
-6.3606997 1.2666349 -1.9155097
-6.3333464 1.264719 -1.9044957
-6.2924972 1.2644635 -1.8880152
-6.2096982 1.265048 -1.8545967
-6.187161 1.2611179 -1.845551
-6.1268992 1.2656324 -1.8211784
-6.0848985 1.2616005 -1.8042798
-6.0508375 1.264261 -1.7905028
-5.9826894 1.2670825 -1.7629685
-5.9369617 1.2726614 -1.7444476
-5.8346944 1.2731538 -1.7031744
-5.9223924 1.2779173 -1.7385037
-6.0197854 1.2745767 -1.7778451
-6.0830641 1.2689008 -1.8034495
-6.1074562 1.2680402 -1.8133029
-6.1336884 1.2686335 -1.8238809
-6.2000022 1.2731515 -1.8505843
-6.2213798 1.2734559 -1.8592068
-6.3561316 1.3025842 -1.9132229
-6.4048409 1.302164 -1.9328834
-6.5041771 1.3014112 -1.972977
-6.5528879 1.300945 -1.9926388
-6.5577288 1.3013949 -1.9945865
-6.5723257 1.2985898 -2.0005114
-6.599627 1.2954831 -2.0115664
-6.6190715 1.2930753 -2.0194423
-6.645236 1.2887192 -2.0300539
-6.7009358 1.2825555 -2.0526061
-6.7047429 1.2824934 -2.0541432
-6.707334 1.2824221 -2.0551896
-6.7508373 1.2825122 -2.0727429
-6.754487 1.2825392 -2.0742154
-6.7581434 1.282463 -2.0756917
-6.7803483 1.2825502 -2.0846508
-11.6965 0.44712234 -4.078732
-11.696727 0.50213206 -4.078145
-11.35354 0.80855954 -3.9358826
-11.360929 0.88852638 -3.9378772
-11.500099 1.137477 -3.9909649
-11.689201 1.2714441 -4.0656195
-11.627645 1.2890066 -4.0405636
-11.272241 1.2256812 -3.8979311
-11.117022 1.2510459 -3.8349838
-11.087553 1.2567847 -3.8230219
-11.00485 1.2651497 -3.789546
-10.990232 1.265854 -3.783639
-10.960995 1.2672627 -3.7718234
-10.863612 1.2713332 -3.7324772
-10.732017 1.2654871 -3.6794477
-10.693076 1.2642406 -3.6637497
-10.649221 1.2663537 -3.6460271
-10.62975 1.2657305 -3.6381779
-10.532555 1.2847977 -3.598722
-10.464285 1.2774618 -3.5712638
-10.430134 1.272544 -3.5575438
-10.283981 1.2724011 -3.49857
-10.173493 1.293278 -3.4537282
-10.16983 1.2933596 -3.4522491
-10.142164 1.2933462 -3.4410853
-10.128111 1.2937376 -3.4354095
-10.109003 1.2934549 -3.4277029
-10.080997 1.2936456 -3.4163995
-10.021547 1.2866422 -3.3924966
-9.9094439 1.2878791 -3.347245
-9.841217 1.2806382 -3.319803
-9.743763 1.281549 -3.2804673
-9.6997881 1.2800276 -3.2627411
-9.6123352 1.2925878 -3.2272968
-9.5051308 1.2724544 -3.1842856
-9.3935947 1.2580473 -3.1394563
-9.3589973 1.2594471 -3.1254783
-9.3053989 1.2687532 -3.1037352
-9.2761478 1.2744049 -3.0918622
-9.2227211 1.2818364 -3.0702114
-9.2080708 1.2821625 -3.0642958
-9.0904512 1.3003949 -3.016609
-9.0871086 1.3003906 -3.0152597
-9.0684757 1.3008841 -3.0077353
-9.0532894 1.3007895 -3.0016084
-9.0490503 1.3006872 -2.9998989
-9.0213432 1.3009106 -2.9887156
-8.9981737 1.3012691 -2.979362
-8.9813938 1.3016032 -2.9725866
-8.9774323 1.3016521 -2.9709878
-8.9686146 1.3016517 -2.9674296
-8.9377003 1.3028513 -2.9549403
-8.8687744 1.3023008 -2.9271338
-8.8282833 1.2999547 -2.9108238
-8.7600813 1.2952136 -2.8833613
-8.7208805 1.2942153 -2.8675551
-8.6553783 1.3037865 -2.8410053
-8.6224957 1.3040465 -2.8277333
-8.5456743 1.2893387 -2.7969155
-8.5015984 1.2778184 -2.7792721
-8.399395 1.2807058 -2.7379951
-8.3799438 1.2780091 -2.7301793
-8.326416 1.2754416 -2.7086115
-8.2384138 1.2673997 -2.6731997
-8.2160444 1.2666388 -2.6641827
-8.1915188 1.2678143 -2.6542716
-8.1167345 1.2650905 -2.6241279
-8.0728092 1.2685686 -2.60636
-8.0339069 1.2631752 -2.5907288
-7.9899559 1.2641536 -2.5729816
-7.9558048 1.2567836 -2.5592914
-7.8441 1.2636242 -2.514132
-7.8243265 1.2628231 -2.5061626
-4.7753992 1.3352711 -1.274959
-4.8161488 1.3599758 -1.2910975
-4.9712143 1.335127 -1.3539766
-5.1235728 1.2757502 -1.416189
-5.2063708 1.2751658 -1.449607
-5.2258401 1.2752578 -1.4574622
-5.3086381 1.2746733 -1.4908803
-5.3914618 1.2765886 -1.5242778
-5.420702 1.2760762 -1.5360832
-5.5034757 1.272992 -1.5695221
-5.527842 1.2696316 -1.579396
-5.5960207 1.2693033 -1.6069117
-5.5132465 1.2723876 -1.5734725
-6.420516 0.077849858 -1.9543101
-6.6383429 -0.053370252 -2.0438263
-7.0703058 -0.35605592 -2.2218666
-6.6803145 -0.37928188 -2.0647831
-6.5595746 -0.37538296 -2.0160136
-6.2233162 -0.63889074 -1.883576
-6.2668433 -0.83460575 -1.9035544
-6.3988667 -0.97469956 -1.9585567
-6.6426649 -1.0660437 -2.0580616
-6.6803837 -1.063476 -2.0732501
-7.0789261 -1.1253915 -2.2348347
-6.6903234 -1.1575795 -2.0784216
-6.6766353 -1.1569496 -2.0728905
-6.5402546 -1.1562536 -2.0178494
-6.5247412 -1.1555396 -2.0115805
-6.4818115 -1.1556566 -1.9942589
-6.3913975 -1.1763871 -1.9580306
-6.3621964 -1.1750433 -1.9462306
-6.3329949 -1.1736995 -1.9344306
-6.3135004 -1.1741973 -1.9265702
-6.2989001 -1.1735255 -1.9206704
-6.2069201 -1.1542537 -1.8833168
-6.1844811 -1.1334815 -1.8740059
-5.9120998 -1.0609894 -1.7631998
-5.7350073 -1.2107571 -1.6935862
-5.5938749 -1.2213781 -1.6367673
-5.5242624 -1.2493596 -1.6090223
-5.5093493 -1.2492894 -1.6030036
-5.3941388 -1.2250339 -1.5562143
-5.3069677 -1.2071249 -1.520818
-5.2307692 -1.2050415 -1.4900445
-5.1290293 -1.2075343 -1.4490209
-5.0828815 -1.2058966 -1.430379
-5.0349007 -1.2098963 -1.4110671
-4.9860587 -1.1992375 -1.3912268
-4.8993874 -1.1998894 -1.3562611
-4.8313942 -1.2173815 -1.3290401
-4.7975154 -1.2148796 -1.3153384
-4.7298379 -1.2023776 -1.2878747
-4.5148191 -1.2353835 -1.2015169
-4.2964272 -1.2272128 -1.1132903
-4.1116629 -1.2535774 -1.0390589
-4.0588961 -1.2542315 -1.0177745
-3.8214707 -1.2712522 -0.92217791
-3.7498422 -1.2725627 -0.89329028
-3.6335063 -1.2319055 -0.84584475
-3.5997334 -1.2194057 -0.83206242
-3.4196973 -1.1499343 -0.75855696
-3.4008353 -1.1505907 -0.75095379
-3.3819733 -1.151247 -0.74335068
-3.3518882 -1.1499298 -0.73119438
-3.3256221 -1.1472974 -0.72056293
-3.1823647 -1.1499186 -0.6627878
-3.1673222 -1.1492598 -0.65670961
-3.1522794 -1.1486012 -0.65063143
-3.0995128 -1.1492554 -0.62934703
-3.0543849 -1.1472794 -0.61111253
-3.0016181 -1.1479335 -0.58982807
-2.95649 -1.1459575 -0.57159346
-2.9376283 -1.1466138 -0.56399041
-2.8774579 -1.1439792 -0.53967774
-2.8320951 -1.1479223 -0.52142155
-2.786967 -1.1459463 -0.50318694
-2.7492433 -1.147259 -0.48798072
-2.7342007 -1.1466004 -0.48190272
-2.6740298 -1.1439657 -0.45758986
-2.6439445 -1.1426483 -0.4454335
-2.6036832 -1.1408 -0.42916441
-2.5773189 -1.1396569 -0.41851175
-2.475498 -1.1609938 -0.37768781
-2.3513446 -1.1406127 -0.32733786
-2.3287463 -1.1388915 -0.31819773
-2.2571878 -1.1394969 -0.28932977
-2.2006946 -1.1403849 -0.26654434
-2.1856461 -1.1376028 -0.26043761
-2.0914729 -1.1389867 -0.22245371
-2.0877068 -1.139565 -0.22094119
-2.0425112 -1.1387179 -0.20269334
-2.0086148 -1.1387315 -0.18901551
-1.9860182 -1.1396058 -0.17990804
-1.9596536 -1.1384628 -0.16925538
-1.9408226 -1.1387587 -0.16166019
-1.8617311 -1.1379253 -0.12973475
-1.8428998 -1.1382213 -0.12213957
-1.8052375 -1.1388131 -0.10694933
-1.7751074 -1.1382484 -0.094784141
-1.7260437 -1.1176932 -0.074732304
-1.5534477 -1.0561334 -0.004326582
-1.4631069 -1.04694 0.032241344
-1.4781885 -1.0447226 0.02618289
-1.5083189 -1.0452871 0.014017582
-1.5987418 -1.0393863 -0.022397161
-1.6288884 -1.0374511 -0.034538269
-1.7079465 -1.0432842 -0.066511869
-1.7456255 -1.0401925 -0.081678033
-1.8134346 -1.0376655 -0.10900939
-2.140934 -0.63843638 -0.23623836
-2.166589 -0.60342932 -0.24615896
-2.2640224 -0.3589896 -0.28246045
-2.2150931 -0.10682108 -0.259606
-2.4147377 -0.10231821 -0.34011149
-2.429451 -0.11981072 -0.34626436
-2.4360113 -0.16021894 -0.34941006
-2.8813848 -0.32393789 -0.5311476
-2.9350855 -0.31980562 -0.55276603
-3.0141706 -0.31678492 -0.5846414
-3.0820062 -0.31428993 -0.61198384
-3.1987627 -0.31495529 -0.65910584
-3.2665458 -0.31745929 -0.68648863
-3.2853549 -0.32180184 -0.69413215
-3.3737955 -0.32771105 -0.72989279
-3.3808687 -0.32746488 -0.73274398
-3.34041 -0.36774194 -0.71691477
-3.2139685 -0.66172916 -0.66951901
-3.473516 -1.0493001 -0.77903265
-3.5224631 -1.049961 -0.79879212
-3.5413251 -1.0493046 -0.80639523
-3.6203051 -1.0562818 -0.83835155
-3.6353214 -1.05944 -0.84444988
-3.6653805 -1.0632569 -0.85662651
-3.6804233 -1.0639155 -0.86270469
-3.7181473 -1.0626028 -0.87791091
-3.7859826 -1.0601077 -0.90525329
-3.8311105 -1.0620837 -0.92348778
-3.8989463 -1.0595887 -0.95083022
-3.9817457 -1.065251 -0.9843114
-4.0195217 -1.058939 -0.99947715
-4.0796666 -1.0640732 -1.0238101
-4.1362 -1.067103 -1.0466602
-4.2040091 -1.0671073 -1.0740225
-4.2378607 -1.0721086 -1.0877442
-4.2679462 -1.073426 -1.0999006
-4.3696342 -1.0759323 -1.1409649
-4.4787521 -1.0792279 -1.1850369
-4.5014596 -1.0747569 -1.1941448
-4.5464826 -1.086731 -1.2124603
-4.5841541 -1.0904169 -1.227707
-4.6228576 -1.0966027 -1.2434012
-4.7534137 -1.1154231 -1.2963156
-4.8325715 -1.1013849 -1.3280843
-4.8925376 -1.1275346 -1.3526046
-5.0576372 -1.1863495 -1.4199514
-5.0990896 -1.1841817 -1.4366515
-5.1707096 -1.1691889 -1.465367
-5.1862731 -1.1669773 -1.47162
-5.3271847 -1.104725 -1.5277129
-5.3615007 -1.0823874 -1.5412848
-5.381041 -1.0747772 -1.5490758
-5.4590764 -1.0682518 -1.5804844
-5.5660772 -1.0783492 -1.6237861
-5.5953503 -1.0763921 -1.6355742
-5.7122369 -1.0771441 -1.6827499
-5.7854834 -1.0660015 -1.7121689
-5.809761 -1.0680079 -1.7219905
-6.0918565 -0.8731094 -1.8334183
-5.9283185 -0.42920399 -1.7619516
-5.792376 -0.38856691 -1.7065946
-5.7179804 -0.37062949 -1.6763531
-5.6522322 -0.37020648 -1.649817
-5.6420374 -0.32516074 -1.6451476
-5.7249126 -0.31825322 -1.6785042
-5.7929101 -0.33607203 -1.7061625
-5.8909616 -0.33153313 -1.7456726
-6.0993285 -0.19324575 -1.8280476
-6.1496258 -0.1335689 -1.8476075
-6.3223305 0.0037200898 -1.9156042
-6.3567486 0.036056712 -1.9290938
-2.1871464 1.4363132 -0.22929502
-2.2210426 1.4363258 -0.24297273
-2.3227315 1.4363642 -0.284006
-2.4846811 1.4354086 -0.3493681
-2.5483611 1.41768 -0.375283
-2.7462518 1.4285431 -0.45500231
-2.7671506 1.4347526 -0.46335888
-2.7859657 1.432514 -0.47097886
-2.9383509 1.4205055 -0.53261781
-3.111459 1.4158902 -0.60252762
-3.2090642 1.3870739 -0.64226896
-3.2128572 1.3858895 -0.64381415
-3.4303279 1.2902366 -0.73274821
-3.470171 1.2915492 -0.74880958
-3.532068 1.2927294 -0.77377188
-3.5849137 1.3008819 -0.79499573
-3.6188183 1.3008796 -0.80867702
-3.6789098 1.2907463 -0.83305031
-3.7429261 1.2919264 -0.85886776
-3.690002 1.2762752 -0.83770466
-3.6411071 1.2819351 -0.81790471
-3.5762882 1.2897747 -0.79165214
-3.4903934 1.2776037 -0.75714183
-3.373637 1.2782692 -0.71001977
-3.2795353 1.2784066 -0.67204595
-3.2418902 1.2845922 -0.65677905
-3.1527338 1.2902547 -0.62073261
-3.0838513 1.2910483 -0.59292722
-3.049973 1.29355 -0.57922566
-3.0066667 1.293964 -0.56174552
-2.9783444 1.2922394 -0.55033815
-2.9030786 1.2905338 -0.5199877
-2.8692002 1.2930356 -0.50628614
-2.8541574 1.2936943 -0.50020802
-2.818064 1.2969817 -0.48560286
-2.8152392 1.2970283 -0.4844625
-2.7800176 1.2961986 -0.47026002
-2.758728 1.2960321 -0.46167123
-2.6884799 1.29752 -0.43330622
-2.6696703 1.3018626 -0.42566264
-2.5893419 1.3109671 -0.39313591
-2.5215495 1.3109416 -0.36578047
-2.4386916 1.3111645 -0.33234274
-2.4047954 1.3111516 -0.31866503
-2.3859644 1.3108906 -0.31106949
-2.2729921 1.3141102 -0.26544297
-2.1863365 1.3088238 -0.23054075
-2.1260757 1.3098176 -0.20621181
-2.1034789 1.3090467 -0.19710314
-1.9754255 1.3100151 -0.14541864
-1.8887067 1.2947296 -0.1106143
-1.8698437 1.2894688 -0.10306764
-1.79072 1.2852018 -0.071192026
-1.7455244 1.2859472 -0.052945375
-1.6890311 1.2851635 -0.030158758
-1.6098917 1.2783967 0.0016922951
-1.5195978 1.2925991 0.038303137
-1.4631183 1.2966024 0.061143279
-1.387794 1.2955575 0.091525316
-1.3426299 1.3013024 0.10982084
-1.3148541 1.3015462 0.12103212
-1.2371593 1.2982548 0.15234303
-1.1731329 1.2987388 0.17818511
-1.2409573 1.303764 0.15087855
-1.3049998 1.3057795 0.1250608
-1.3577585 1.3110533 0.10383642
-1.4217219 1.3005699 0.077896595
-1.9424632 1.419739 -0.13076425
-1.9043298 1.4197246 -0.11537683
-1.8591342 1.42047 -0.097130179
-1.7539141 1.4208117 -0.054667354
-1.523411 1.300608 0.036863208
-1.5083299 1.2983568 0.042920947
-7.2115445 -0.35808152 -2.2788846
-7.3186789 -0.35911578 -2.3221285
-7.3819408 -0.36313313 -2.3477056
-7.6430597 -0.33605933 -2.452739
-7.6771355 -0.33618808 -2.466491
-7.6920452 -0.37124592 -2.47294
-7.7475572 -0.47152054 -2.4965768
-7.6717396 -0.62967998 -2.4679337
-7.6623058 -0.68862092 -2.4648538
-7.6608286 -0.72857022 -2.4647505
-7.90274 -1.1275926 -2.5672889
-8.0341654 -1.1386979 -2.6204591
-8.1512241 -1.1219461 -2.6674883
-8.2071915 -1.1140488 -2.689975
-8.2389574 -1.1069741 -2.7027059
-8.3704348 -1.1130799 -2.7558351
-8.3898859 -1.1103489 -2.7636507
-8.4240141 -1.1054782 -2.7773619
-8.575098 -1.0938548 -2.8381844
-8.5945492 -1.0911238 -2.8459997
-8.6286516 -1.0887529 -2.8597314
-8.7165785 -1.0884135 -2.8952079
-8.99333 -0.91916698 -3.0047956
-9.0272799 -0.71890986 -3.0160248
-9.0319614 -0.70902354 -3.017792
-9.1101351 -0.35947764 -3.0450253
-9.1345215 -0.23974995 -3.0533893
-9.1357603 -0.11976336 -3.0524092
-9.1066408 -0.076851726 -3.0401292
-9.0785351 -0.11937572 -3.0293126
-9.0781231 -0.15937124 -3.0296395
-9.0800438 -0.23942985 -3.0314023
-9.0669022 -0.35912383 -3.0275755
-7.2769017 -0.36460918 -2.3053381
-7.3000264 -0.36532468 -2.3146784
-7.3335047 -0.36590624 -2.3281949
-7.3544931 -0.36687213 -2.3366761
-7.4158592 -0.37580442 -2.3615487
-7.626925 -0.60614103 -2.4495597
-7.6471405 -0.72794026 -2.4592195
-7.6194229 -0.86984557 -2.4497852
-7.3128753 -1.1152821 -2.3291135
-7.2300839 -1.1142621 -2.2956929
-7.1727228 -1.1233704 -2.2726588
-7.1571894 -1.1237019 -2.2663949
-7.1215801 -1.1231095 -2.2520182
-7.1081982 -1.1217364 -2.2466013
-2.0553272 1.4367718 -0.17609727
-2.0892234 1.4367845 -0.18977499
-1.95541 1.4194896 -0.13599169
-5.0083079 1.2764519 -1.3696682
-4.9631534 1.2759285 -1.351454
-4.9292483 1.2759306 -1.3377724
-4.8576722 1.2796191 -1.3088444
-4.7748728 1.2852813 -1.2753632
-4.6919689 1.2809454 -1.241963
-4.6392283 1.2827908 -1.2206583
-4.5978665 1.2810827 -1.203989
-4.5451264 1.2829281 -1.1826844
-4.5036097 1.2827996 -1.165933
-4.4246035 1.2872775 -1.1339972
-4.4773703 1.2879317 -1.1552817
-4.5413604 1.2866122 -1.1811193
-4.5864882 1.284636 -1.1993537
-4.6091428 1.2841082 -1.2085019
-11.516912 -0.86443704 -4.0224423
-11.493425 -0.77771991 -4.0118952
-11.497084 -0.56801873 -4.0107851
-11.502028 -0.4880352 -4.0117936
-11.509714 -0.36778563 -4.0134115
-11.724546 0.032292306 -4.0951662
-9.4419746 -1.0995682 -3.1880584
-9.3932476 -1.0990794 -3.1683903
-9.3397198 -1.1016817 -3.1468227
-9.4370689 -1.112658 -3.1862407
-9.4858475 -1.1081474 -3.2058682
-9.5004969 -1.1085075 -3.2117841
-0.75893068 -1.0822719 0.31595623
-0.86783934 -1.0748689 0.27210057
-0.78498125 -1.0746138 0.30553865
-0.77650738 -1.074617 0.30895817
-0.71715546 -1.0796405 0.33284593
-5.218955 1.2556531 -1.4549257
-5.2378168 1.2563095 -1.4625288
-5.2679291 1.2574917 -1.474665
-5.3168502 1.2543312 -1.4944448
-5.3963342 1.2706366 -1.5263172
-5.4304228 1.2704723 -1.5400749
-5.1022243 1.258818 -1.4077833
-5.203939 1.2588114 -1.4488274
-7.1301641 1.2790684 -2.2258525
-7.1322942 1.2790581 -2.226712
-7.2491546 1.2757707 -2.2739081
-7.2853661 1.2786168 -2.2884853
-7.311543 1.2784488 -2.2990503
-7.3282971 1.2781335 -2.3058147
-7.3331628 1.2781698 -2.3077779
-7.3368187 1.2780933 -2.3092542
-7.3562293 1.2732384 -2.3171465
-5.8103261 1.2677141 -1.6934083
-5.7664905 1.2709824 -1.6756794
-5.7908082 1.2714226 -1.6854867
-3.1622601 -0.56592268 -0.64747173
-3.1946342 -0.68672293 -0.66202545
-2.9161751 -1.0441662 -0.55406988
-2.8596742 -1.0421562 -0.53124583
-2.7437656 -1.0301771 -0.48432636
-2.4874294 -0.6392526 -0.37606704
-2.9192011 -0.39913088 -0.54733467
0.36795378 0.28414777 0.7875334
0.37809372 0.22692369 0.79091942
0.38403273 0.20458768 0.79304016
0.41457987 0.12086071 0.80433404
0.41861677 0.10726624 0.80579531
0.4337225 -0.11886899 0.80910146
0.44253731 0.081070744 0.81512463
0.45735788 0.20111838 0.82258594
0.4340868 0.26734787 0.81401217
0.37051392 0.30672526 0.78884494
0.36344671 0.30662239 0.78599203
-9.0766106 -1.1044681 -3.0406866
-8.9696836 -1.097174 -2.9974494
-8.9209576 -1.0966853 -2.9777813
-8.8916321 -1.0984648 -2.9659696
-8.8528061 -1.0964277 -2.9502773
-8.7795029 -1.0996268 -2.9207375
-8.6967258 -1.0965095 -2.8872967
-8.4685974 -1.2762438 -2.7974586
-8.3286848 -1.2352799 -2.7404957
-8.26507 -1.2348682 -2.7148204
-8.244031 -1.2344841 -2.706326
-8.1804771 -1.2344723 -2.6806805
-7.9023271 -1.1922815 -2.5679202
-7.6998301 -1.3070096 -2.4876232
-7.5686607 -1.2826484 -2.4343932
-7.508544 -1.2073504 -2.4092059
-7.3565364 -1.1272956 -2.34688
-7.2201557 -1.1265996 -2.2918389
-7.1714597 -1.1257538 -2.2721784
-7.1324453 -1.1300664 -2.2564883
-7.5267196 1.2774339 -2.3858914
-7.5477409 1.2769949 -2.3943794
-7.5754042 1.2744681 -2.4055734
-7.6076813 1.2716851 -2.4186323
-7.6873722 1.2657312 -2.4508626
-7.7074718 1.2660365 -2.4589696
-7.1774492 -0.35790753 -2.2651243
-7.1920505 -0.35857946 -2.2710245
-9.1934376 -1.110214 -3.0879002
-9.256918 -1.1010638 -3.1134028
-9.300868 -1.1021441 -3.131151
-9.2961178 -1.1002358 -3.1292105
-3.7957716 1.300079 -0.88009155
-3.87865 1.3019154 -0.91351211
-3.8936925 1.3012568 -0.91959029
-3.9314165 1.3025695 -0.93479657
-3.889847 1.2974421 -0.91808552
-9.1399355 -1.1103164 -3.0663118
-4.3568735 1.2947804 -1.1065738
-4.3155117 1.2930727 -1.0899045
-4.2816334 1.2955743 -1.0762031
-4.2061858 1.2929486 -1.0457907
-4.1911168 1.2911078 -1.0397327
-4.05937 1.2974309 -0.98649192
-4.0216727 1.2986175 -0.97126561
-4.0142422 1.2994069 -0.96825749
-3.9765708 1.3030931 -0.95301086
-4.0254917 1.2999326 -0.97279054
-4.0331039 1.3000633 -0.97586071
-4.1950417 1.3024209 -1.041177
-4.1799984 1.3030796 -1.0350986
-4.3380904 1.3016225 -1.0989101
-4.2740736 1.3004426 -1.0730927
-4.2439885 1.30176 -1.0609362
-4.2327385 1.3012342 -1.0564032
0 0 0 1 0 0 0 1 0 0 0 1 0 0 0 0 0 752 1 0 0
