ply
format ascii 1.0
comment PCL generated
element vertex 707
property float x
property float y
property float z
element camera 1
property float view_px
property float view_py
property float view_pz
property float x_axisx
property float x_axisy
property float x_axisz
property float y_axisx
property float y_axisy
property float y_axisz
property float z_axisx
property float z_axisy
property float z_axisz
property float focal
property float scalex
property float scaley
property float centerx
property float centery
property int viewportx
property int viewporty
property float k1
property float k2
end_header
0.10574245 1.3664192 -2.158263
0.10604191 1.3641034 -2.1582654
-0.045737743 1.0056765 -2.1459372
-0.044630051 0.88484323 -2.1451356
0.017726898 0.7268644 -2.1479962
-0.022108078 0.60580719 -2.1445656
-0.021330833 0.5258258 -2.144038
0.0289464 0.37865564 -2.1462014
0.088217258 -0.10152057 -2.1465368
-0.030716419 -0.25229403 -2.137816
0.041397095 -0.62421596 -2.1397576
-0.26703501 -1.0798253 -2.1166749
-0.64740229 -0.75889552 -2.0945847
-0.65145302 -0.55953956 -2.0957644
-0.65196228 -0.52208495 -2.0960023
-0.85698199 -0.30245265 -2.0844324
-0.94885325 -0.20362672 -2.0792508
-0.93845487 -0.18772063 -2.0800328
-0.93204308 -0.17895213 -2.0805078
-0.92971206 -0.1756047 -2.0806813
-0.81569624 0.11703619 -2.0901113
-0.8160975 0.18389128 -2.0905683
-0.86767364 0.35841227 -2.0885191
-0.86806178 0.39840299 -2.088783
-0.89956546 0.51783663 -2.0876241
-0.89917755 0.52061146 -2.0876689
-0.87000442 0.59835649 -2.0901024
-0.86095214 0.69342202 -2.0913699
-0.83305287 0.75938249 -2.0936365
-0.74799156 0.87612581 -2.0999379
-1.031095 1.3214344 -2.0849874
-1.1130953 1.3192642 -2.0797098
-1.149699 1.3211169 -2.0773742
-1.1917982 1.3192973 -2.0746596
-1.2305999 1.3196812 -2.0721724
-1.2562673 1.3207322 -2.070533
-1.3125997 1.3175108 -2.0668948
-1.3502781 1.3161298 -2.064467
-1.3923769 1.3143102 -2.0617526
-1.4323022 1.3164589 -2.059206
-1.470005 1.3175772 -2.0567946
-1.5109808 1.3139927 -2.0541394
-1.5520051 1.315407 -2.051517
-1.576616 1.3139583 -2.0499272
-1.5918815 1.312557 -2.0489376
-1.6716592 1.3093562 -2.0437951
-1.751461 1.3086549 -2.0386691
-1.7913134 1.3033054 -2.0360732
-1.831214 1.3029548 -2.0335102
-1.8710926 1.3038766 -2.0309579
-1.9110157 1.3022535 -2.0283844
-1.9499793 1.305045 -2.0259042
-1.9908419 1.3040516 -2.0232749
-2.0165195 1.3067478 -2.0216467
-2.0562735 1.3066405 -2.0190949
-2.1105447 1.3029996 -2.0155859
-2.1762671 1.3060323 -2.0113904
-2.2549205 1.3111603 -2.0063803
-2.3101707 1.3137435 -2.0028536
-2.3434286 1.3128008 -2.0007126
-2.4298005 1.3051932 -1.9951153
-2.4663796 1.3045465 -1.9927633
-2.5074284 1.3084602 -1.9901575
-2.5495517 1.3091402 -1.9874593
-2.5872059 1.3052596 -1.985015
-2.6226618 1.3028479 -1.9827224
-2.7537658 1.2937305 -1.9742436
-2.754962 1.2936829 -1.9741665
-2.7936776 1.2960513 -1.9716992
-2.838362 1.2956816 -1.9688292
-2.8734643 1.2931929 -1.9665587
-2.9145727 1.2954661 -1.9639373
-2.9931257 1.2851557 -1.958822
-3.0330377 1.2874763 -1.9562776
-3.0741582 1.2922493 -1.9536734
-3.1527734 1.2944385 -1.9486445
-3.1962366 1.2891166 -1.945817
-3.2324719 1.2840384 -1.9434551
-3.3123217 1.283722 -1.9383289
-3.3135176 1.2836745 -1.9382519
-3.3933291 1.285816 -1.9331458
-3.4320202 1.2831844 -1.930644
-3.4719198 1.2830052 -1.9280823
-3.5177999 1.2825881 -1.9251351
-3.5517061 1.280147 -1.9229418
-3.5928016 1.2799202 -1.9203031
-3.6713924 1.2771095 -1.9152396
-3.6725883 1.2770619 -1.9151626
-3.7124758 1.2743827 -1.9125836
-3.7511415 1.2667514 -1.9100473
-3.7910287 1.2640723 -1.9074684
-3.7922249 1.2640247 -1.9073913
-3.8708029 1.2587141 -1.9023106
-3.9118862 1.2559874 -1.8996546
-3.9941146 1.2630336 -1.8944288
-4.0304384 1.2654971 -1.8921158
-4.0751095 1.2626276 -1.8892286
-4.1102242 1.2626388 -1.8869753
-4.1501236 1.2624595 -1.8844137
-4.1513205 1.262412 -1.8843366
-4.1924162 1.2621851 -1.8816978
-4.2698355 1.2644219 -1.8767459
-4.3121395 1.2666475 -1.8740474
-4.3895459 1.2663842 -1.8690783
-4.4306545 1.2686573 -1.8664567
-4.509244 1.2658466 -1.8613935
-4.5152249 1.2656087 -1.8610079
-4.5491319 1.2631675 -1.8588145
-4.5503273 1.2631199 -1.8587375
-4.5551128 1.2629296 -1.858429
-4.6349115 1.2625712 -1.8533057
-4.6361079 1.2625237 -1.8532286
-4.7087173 1.2599508 -1.8485507
-4.7123055 1.2598079 -1.8483194
-4.7534137 1.2620813 -1.8456979
-4.7885289 1.2620924 -1.8434446
-4.8284154 1.2594131 -1.8408657
-4.8296123 1.2593656 -1.8407886
-4.8695116 1.2591865 -1.838227
-4.9082017 1.256555 -1.8357252
-4.9480896 1.2538759 -1.8331463
-4.949285 1.2538283 -1.8330692
-4.9879889 1.2536967 -1.8305846
-4.9891853 1.2536491 -1.8305075
-5.0677633 1.2483385 -1.8254268
-5.1076503 1.2456592 -1.822848
-5.229753 1.2475265 -1.8150262
-5.2708611 1.2497996 -1.8124046
-5.3655024 1.2666124 -1.806453
-5.405405 1.2687832 -1.8039081
-5.443574 1.2663575 -1.8014413
-5.4851437 1.2656255 -1.7987684
-5.4449568 1.2680565 -1.8013648
0.070068359 1.3865024 -2.1561189
-0.013054848 1.3860971 -2.1507819
-0.054030895 1.3825126 -2.1481266
-0.1314888 1.3682837 -2.1430533
-0.17209673 1.3624293 -2.1404052
-0.19708204 1.3605336 -2.1387882
-0.30752945 1.346415 -2.1315989
-0.34743023 1.3460643 -2.1290359
-0.38730764 1.3432143 -2.1264565
-0.4072547 1.3430383 -2.125175
-0.4671092 1.342513 -2.1213305
-0.49940729 1.3384001 -2.1192281
-0.58681154 1.3414611 -2.1136415
-0.66016817 1.3347844 -2.108886
-0.67428303 1.333119 -2.1079683
-0.74634266 1.3325603 -2.1033401
-0.75408459 1.3324178 -2.1028423
-0.77632904 1.3306643 -2.1014023
-0.79396105 1.3295677 -2.1002629
-0.85730147 1.3298773 -2.0962007
-0.90597057 1.333657 -2.0931048
-0.97583032 1.3298414 -2.0885944
-0.9890449 1.3282528 -2.0877349
-1.0300205 1.3246683 -2.0850797
-1.1065493 1.3286699 -2.0801978
-1.1475251 1.3250853 -2.0775423
-1.1852276 1.3262036 -2.0751312
-1.2262278 1.3251184 -2.0724924
-1.3093269 1.3222138 -2.0671389
-1.3747962 1.3206962 -2.0629268
-1.4146965 1.3205316 -2.0603652
-1.4667323 1.3222802 -2.0570385
-1.5344095 1.3225377 -2.0526977
-1.6141851 1.317209 -2.0475399
-1.8164711 1.4054615 -2.0351968
-1.8968446 1.3873767 -2.0299084
-1.9113364 1.3850555 -2.0289619
-2.0308492 1.3870786 -2.0213072
-2.0946012 1.4047673 -2.017344
-2.1103926 1.4012115 -2.016305
-2.1530435 1.3865746 -2.0134625
-2.2939062 1.3639482 -2.0042598
-2.3338065 1.3637837 -2.0016983
-2.3737071 1.3636191 -1.9991367
-2.4147787 1.3629967 -1.9964967
-2.4945672 1.3601679 -1.9913563
-2.5368228 1.3615876 -1.988655
-2.6516163 1.3179291 -1.9809734
-2.6914921 1.312765 -1.9783772
-2.7542896 1.3138757 -1.9743555
-2.774832 1.3160622 -1.9730531
-2.7942021 1.3162109 -1.9718112
-2.8341024 1.3160464 -1.9692496
-2.8546205 1.3132333 -1.9679127
-2.9079955 1.3080068 -1.9644499
-2.9490798 1.3098842 -1.961827
-2.993691 1.3128881 -1.958986
-3.0335789 1.3102238 -1.9564072
-3.0699518 1.3089327 -1.9540638
-3.1075089 1.3096836 -1.9516592
-3.1532917 1.3122298 -1.9487398
-3.1873341 1.3143539 -1.9465706
-3.2330923 1.3119005 -1.9436165
-3.2717962 1.3071942 -1.9410989
-3.3504496 1.3123223 -1.9360888
-3.3926687 1.3062427 -1.9333357
-3.4712973 1.3063713 -1.928291
-3.510026 1.3066643 -1.925808
-3.5522695 1.3055843 -1.9230894
-3.6285305 1.3016289 -1.9181671
-3.6707497 1.2955493 -1.9154141
-3.7493536 1.2906784 -1.9103348
-3.8617725 1.3011197 -1.9031963
-3.8664672 1.3012135 -1.9028958
-3.9085641 1.3001907 -1.900187
-3.970176 1.3002194 -1.8962336
-4.0113983 1.3005024 -1.8935905
-4.1506743 1.2831174 -1.8845276
-4.2304869 1.2852881 -1.8794216
-4.2704 1.2876232 -1.8768773
-4.310288 1.2849587 -1.8742985
-4.3501878 1.2847942 -1.8717369
-4.3877573 1.2880448 -1.8693495
-4.4288411 1.2899222 -1.8667268
-4.4699016 1.2868001 -1.8640693
-4.5050902 1.2834669 -1.8617872
-4.5496888 1.2839712 -1.858929
-4.5872464 1.2847222 -1.8565243
-4.6247907 1.2829732 -1.8541025
-4.6693778 1.2809776 -1.8512269
-4.7045913 1.282644 -1.8489794
-4.7456627 1.2820218 -1.8463392
-4.8289661 1.2778195 -1.8409634
-4.8653517 1.2790281 -1.8386372
-4.9064231 1.2784058 -1.8359972
-4.9486542 1.2748259 -1.8332614
-5.0260992 1.2729126 -1.8282779
-5.068367 1.276832 -1.8255939
-5.1642404 1.2858326 -1.8195066
-5.1846018 1.2877104 -1.8182137
-5.2956462 1.2716712 -1.8109721
-5.335526 1.2713389 -1.8084106
-11.339584 0.92795873 -1.420651
-11.416546 0.68627775 -1.4139669
-11.33218 0.62553072 -1.418942
-11.221083 0.4488298 -1.4247949
-11.212433 0.40843332 -1.4250582
-11.210563 0.32879698 -1.4246031
-11.209833 0.28891975 -1.4243619
-11.222757 0.14698884 -1.4225076
-11.227579 0.12696294 -1.4220536
-11.222436 0.10699366 -1.4222393
-11.25691 -0.1744411 -1.4179946
-11.274653 -0.21473694 -1.4165649
-11.257045 -0.23461089 -1.4175514
-11.215965 -0.29411432 -1.4197578
-11.096775 -0.65068567 -1.424831
-11.122875 -0.81586015 -1.4219633
-11.026062 -0.97062409 -1.4270581
-11.009146 -1.0100412 -1.4278589
-11.001568 -1.0224867 -1.4282553
-10.959824 -1.0492285 -1.4307408
-10.766153 -1.1521903 -1.442425
-10.60198 -1.1146476 -1.4532312
-10.56868 -1.1137531 -1.4553746
-10.530437 -1.1139421 -1.4578272
-10.522215 -1.1140821 -1.4583539
-10.400845 -1.1227607 -1.4660795
-10.32106 -1.1246948 -1.4711852
-10.247917 -1.1185181 -1.4759235
-10.20145 -1.1188473 -1.4789028
-10.243015 -1.1146026 -1.4762664
-10.322761 -1.1176678 -1.4711269
-10.365925 -1.1188943 -1.4683483
-10.444109 -1.1114889 -1.4633846
-10.527176 -1.1104985 -1.4580613
-10.841648 -0.85116565 -1.4397546
-10.851978 -0.80624175 -1.4394162
-10.853679 -0.7992146 -1.4393578
-10.835556 -0.57160079 -1.4421645
-10.697078 -0.29032049 -1.4530821
-10.656861 -0.26739296 -1.4558284
-10.576326 -0.20898044 -1.4614182
-10.012527 -0.32301918 -1.4967736
-9.9705734 -0.28275308 -1.4997565
-9.9704199 -0.28270891 -1.4997666
-9.9337959 -0.28549799 -1.5020967
-9.8474197 -0.28087386 -1.5076728
-9.7655201 -0.28729966 -1.512882
-9.6861916 -0.28429958 -1.517994
-9.5298901 -0.24475321 -1.5283096
-9.3471622 -0.085013956 -1.5411887
-9.3339691 -0.072785616 -1.5421238
-9.2956409 -0.085368574 -1.5444922
-9.2146549 -0.23225811 -1.5486283
-9.1992645 -0.28464112 -1.5492376
-9.1922894 -0.32421777 -1.5493994
-9.2248745 -0.40297911 -1.5467396
-9.2503529 -0.7249831 -1.5427792
-9.2482967 -0.88535452 -1.5417529
-8.9282732 -1.1000861 -1.560738
-8.8800573 -1.1028768 -1.5638118
-8.8375378 -1.1200585 -1.5664163
-8.5713196 -1.1588079 -1.5832195
-8.5538712 -1.1586775 -1.5843402
-8.4077759 -1.1408263 -1.5938441
-8.2183628 -1.2365381 -1.6053073
-8.2855387 -1.2520393 -1.6008848
-8.4438238 -1.2779896 -1.5905402
-8.4556646 -1.2779394 -1.5897808
-8.6210117 -1.2788048 -1.5791641
-8.7997551 -1.2799783 -1.5676858
-8.8398647 -1.2402562 -1.5653988
-9.1753693 -1.1629504 -1.5444279
-9.1770277 -1.1633325 -1.5443187
-9.1993637 -1.1629215 -1.5428884
-9.2460861 -1.164796 -1.5398767
-9.2958498 -1.1634806 -1.5366929
-9.4381361 -1.1395444 -1.5277352
-9.6049204 -1.1674533 -1.516831
-9.8176327 -1.1681179 -1.5031765
-9.8192911 -1.1685001 -1.5030674
-9.822607 -1.1692643 -1.502849
-9.8242664 -1.1696465 -1.5027398
-9.8476334 -1.170029 -1.5012376
-9.8840942 -1.1695389 -1.4989014
-9.9256353 -1.1702188 -1.4962308
-9.9464054 -1.1705589 -1.4948956
-10.086386 -1.1241063 -1.4862485
-11.177071 1.086799 -1.4322265
-11.187042 1.0867285 -1.4315863
-11.258874 1.0226042 -1.4265137
-11.273709 1.0074999 -1.4254526
-11.31911 0.967641 -1.4222513
-11.146603 1.0463846 -1.4338899
-11.140925 1.0304797 -1.4341393
-10.776112 0.85181487 -1.456259
-10.547903 1.2762477 -1.4739684
-10.550643 1.2939894 -1.4739207
-10.539881 1.3011049 -1.4746628
-10.498457 1.3143581 -1.4774166
-10.392625 1.2918873 -1.4840455
-10.337786 1.2922761 -1.4875674
-10.309649 1.292677 -1.4893758
-10.242277 1.293874 -1.4937078
-10.225986 1.2943635 -1.4947566
-10.212364 1.294086 -1.4956287
-10.188873 1.2938498 -1.4971344
-10.089421 1.2994988 -1.5035571
-10.047957 1.3077526 -1.5062774
-10.009715 1.3075634 -1.5087301
-9.9233274 1.3025177 -1.514237
-9.890007 1.3009126 -1.5163636
-9.8468428 1.3021392 -1.5191424
-9.7653971 1.2981774 -1.5243402
-9.7255135 1.2984601 -1.5269015
-9.604166 1.2922812 -1.5346438
-9.5642824 1.292564 -1.5372051
-9.484457 1.2856305 -1.5422775
-9.4396524 1.287329 -1.5451648
-9.406332 1.2857239 -1.5472913
-9.3265858 1.288789 -1.5524307
-9.2850418 1.2870442 -1.555084
-9.328187 1.2833178 -1.5522885
-9.4112129 1.2793087 -1.5469317
-9.4477959 1.2774701 -1.544571
-9.4909592 1.2762434 -1.5417924
-9.5308418 1.2759607 -1.5392311
-9.6058064 1.2918092 -1.5345351
-9.728735 1.290017 -1.5266337
-9.8816433 1.2832748 -1.516773
-10.019543 1.2777559 -1.5078841
-10.079397 1.2798333 -1.5040582
-10.180756 1.2811522 -1.4975637
-10.220617 1.2783699 -1.4949856
-10.303684 1.2793602 -1.4896624
-10.383451 1.2787946 -1.4845397
-10.656357 0.81050873 -1.4636455
-10.659302 0.73053616 -1.4628788
-10.648919 0.61011404 -1.4626753
-10.663197 0.52501822 -1.4611447
-10.662416 0.42753005 -1.4604907
-10.660008 0.37059742 -1.460234
-10.656651 0.33007717 -1.4601568
-10.659357 0.25052345 -1.4594086
-10.658916 0.19553012 -1.4590397
-10.656223 0.17055079 -1.4590322
-10.650919 0.13059098 -1.4590839
-10.654733 0.090106189 -1.4585469
-10.65892 -0.0099241138 -1.4575558
-6.0723939 -1.1540138 -1.74361
-5.74401 -1.0612738 -1.7653521
-5.665916 -1.0635539 -1.7703469
-5.5462976 -1.060069 -1.778048
-5.4266334 -1.0615836 -1.7857159
-5.3850632 -1.0608181 -1.788389
-5.346827 -1.0659262 -1.7908057
-5.2553048 -1.0600196 -1.7967213
-5.2142324 -1.0593859 -1.7993615
-5.1766758 -1.0601736 -1.8017658
-5.136775 -1.0600138 -1.8043274
-5.095716 -1.0568805 -1.8069848
-5.0569754 -1.0596941 -1.8094505
-5.0147314 -1.0585867 -1.8121693
-4.9771748 -1.0593743 -1.8145735
-4.9372864 -1.0567149 -1.8171524
-4.8574858 -1.0563952 -1.8222755
-4.8175735 -1.058735 -1.8248198
-4.7765017 -1.0581013 -1.8274599
-4.7366133 -1.0554417 -1.8300388
-4.6567888 -1.0601214 -1.8351272
-4.6157413 -1.0544884 -1.8378021
-4.578196 -1.0527766 -1.8402237
-4.5383077 -1.0501169 -1.8428025
-4.4584832 -1.0547967 -1.847891
-4.2212162 -0.97291434 -1.8637078
-4.1784539 -0.96071351 -1.86654
-3.9397562 -1.0577179 -1.8811566
-3.8599317 -1.0623978 -1.8862451
-3.8200314 -1.0622379 -1.8888067
-3.740231 -1.0619183 -1.8939297
-3.7003312 -1.0617584 -1.8964913
-3.6592712 -1.058625 -1.8991487
-3.6182113 -1.0554917 -1.9018061
-3.5806422 -1.0587791 -1.9041932
-3.5407419 -1.0586193 -1.9067547
-3.4609413 -1.0582995 -1.9118779
-3.421041 -1.0581397 -1.9144394
-3.3388977 -1.0568725 -1.9197197
-3.3013406 -1.0576602 -1.922124
-3.22154 -1.0573404 -1.9272472
-3.1816278 -1.0596803 -1.9297915
-3.1018274 -1.0593607 -1.9349145
-3.0619268 -1.0592009 -1.937476
-3.0220389 -1.0565412 -1.9400549
-2.9821386 -1.0563813 -1.9426165
-2.9422262 -1.0587212 -1.9451607
-2.8624258 -1.0584016 -1.9502838
-2.8406751 -1.058386 -1.9516797
-2.8225257 -1.0582417 -1.9528453
-2.799603 -1.0577984 -1.9543195
-2.7597027 -1.0576346 -1.956881
-2.7380388 -1.0560267 -1.9582828
-2.6799021 -1.057307 -1.9620042
-2.6400018 -1.0571433 -1.9645658
-2.5203011 -1.0566519 -1.9722506
-2.480401 -1.0564883 -1.9748122
-2.4006004 -1.0561607 -1.9799353
-2.3607004 -1.055997 -1.9824969
-2.2808876 -1.0581694 -1.9876027
-2.2010992 -1.0553421 -1.9927431
-2.1611869 -1.0576781 -1.9952874
-2.0813866 -1.0573506 -2.0004106
-2.0414984 -1.0546871 -2.0029895
-1.9616976 -1.0543596 -2.0081127
-1.9217975 -1.0541958 -2.0106742
-1.8819094 -1.0515323 -2.013253
-1.8466961 -1.0530639 -2.0155015
-1.8020968 -1.0537046 -2.0183589
-1.7621965 -1.0535408 -2.0209205
-1.7246521 -1.0517249 -2.0233428
-1.6824083 -1.0507135 -2.0260608
-1.642508 -1.0505499 -2.0286226
-1.565063 -1.0485702 -2.0336065
-1.5228071 -1.0500586 -2.0363073
-1.4441419 -1.0576541 -2.0413003
-1.366709 -1.0531749 -2.0463016
-1.2833571 -1.0590751 -2.0516076
-1.2446287 -1.0593352 -2.054091
-1.2035568 -1.0587476 -2.0567307
-1.1636443 -1.0610837 -2.0592752
-1.087359 -1.0620277 -2.0641634
-1.0439439 -1.0605924 -2.0669599
-0.79126978 -0.64184034 -2.0861981
-0.8110106 -0.58866239 -2.0853155
-5.6945057 -1.208783 -1.7674634
-5.5861139 -1.2533116 -1.7740974
-5.5736971 -1.2482096 -1.7749311
-5.54637 -1.237985 -1.7767584
-5.4265795 -1.2068942 -1.7846699
-5.3038564 -1.2117404 -1.79251
-5.2585835 -1.222612 -1.7953367
-5.2186341 -1.2324326 -1.7978293
-5.1389341 -1.2120749 -1.8030907
-5.0192485 -1.2090373 -1.8107928
-4.9383402 -1.1911321 -1.8161141
-4.8633509 -1.1859641 -1.8209634
-4.7787294 -1.1929152 -1.8263433
-4.7012358 -1.2101513 -1.8311917
-4.6145945 -1.2017955 -1.8368118
-4.4538956 -1.2007116 -1.8471316
-4.3383536 -1.2483943 -1.8542016
-4.2188287 -1.2128581 -1.8621281
-4.0990677 -1.2248199 -1.8697268
-4.0591812 -1.2221409 -1.8723056
-3.8764956 -1.2790074 -1.8836179
-3.8188012 -1.2985392 -1.887179
-3.7982535 -1.2984257 -1.8884984
-3.7009964 -1.2780737 -1.8948864
-3.6139169 -1.2575983 -1.9006221
-3.5061326 -1.2173524 -1.9078293
-3.2243791 -1.0784781 -1.9269123
-3.1410041 -1.075477 -1.9322841
-3.1011047 -1.0752978 -1.9348458
-3.0612051 -1.0751185 -1.9374074
-3.0213056 -1.0749394 -1.9399691
-2.98259 -1.0773077 -1.9424363
-2.9415066 -1.074581 -1.9450923
-2.9015946 -1.0769018 -1.9476367
-2.8023539 -1.0823115 -1.9539659
-2.6853843 -1.1369194 -1.9610775
-2.5654945 -1.1585845 -1.9686143
-2.5244899 -1.1578825 -1.9712507
-2.4801726 -1.156183 -1.9741068
-2.4457927 -1.1574761 -1.9763036
-2.4058919 -1.1571066 -1.9788667
-2.3260906 -1.1563678 -1.9839928
-2.2828777 -1.1550008 -1.9867758
-2.2418728 -1.154299 -1.9894121
-2.2063887 -1.1552594 -1.9916822
-2.1664879 -1.1548899 -1.9942452
-2.1265872 -1.1545206 -1.9968083
-2.0467861 -1.1537815 -2.0019345
-2.0069101 -1.1509125 -2.004514
-1.9270842 -1.1526734 -2.0096238
-1.8872082 -1.1498041 -2.0122032
-1.8472829 -1.1519345 -2.01475
-1.806278 -1.1512324 -2.0173862
-1.7674813 -1.1511955 -2.019876
-1.7275805 -1.1508261 -2.0224392
-1.643363 -1.1487573 -2.0278585
-1.6067746 -1.1493853 -2.0302017
-1.5668988 -1.1465161 -2.0327814
-1.5657945 -1.1461836 -2.0328546
-1.3691432 -1.0800081 -2.0459516
-1.2893422 -1.0792693 -2.0510776
-1.2494168 -1.0813996 -2.0536244
-1.2095406 -1.0785304 -2.0562038
-1.1696153 -1.0806607 -2.0587506
-1.1297145 -1.0802913 -2.0613136
-1.0842438 -1.0832587 -2.0642099
-1.044343 -1.0828894 -2.0667732
-1.0055468 -1.0828524 -2.069263
-0.96898317 -1.0809807 -2.0716228
-0.9290576 -1.083111 -2.0741694
-0.91687393 -1.0823536 -2.0749567
-0.89028597 -1.0805744 -2.0766757
-0.84930611 -1.0773727 -2.0793285
-0.80943036 -1.0745035 -2.081908
-0.73073292 -1.0740972 -2.086961
-0.54362392 -1.0798645 -2.0989261
-0.45123005 -1.0915089 -2.1047709
-0.34678936 -1.1167526 -2.1112905
-0.32746029 -1.1167549 -2.1125309
-0.22295475 -1.1023148 -2.1193411
0.050133228 -1.1195937 -2.1367404
0.092739105 -1.1025027 -2.1395979
0.12921524 -1.0612761 -2.1422362
0.13416958 -1.0562488 -2.1425905
0.088778973 -0.62402046 -2.1427994
-6.1524739 -1.1196748 -1.7387192
-6.3887873 -1.0757762 -1.7238721
-6.4337358 -1.0774161 -1.7209759
-6.5100498 -1.0846977 -1.7160262
-6.5482635 -1.0820891 -1.7135929
-6.7536178 -0.57882917 -1.7040499
-6.4747882 -0.39151493 -1.7232952
-6.2726068 -0.93568552 -1.7323391
-6.2381768 -0.37520203 -1.7385963
-6.1972885 -0.33452329 -1.7415138
-6.2759247 -0.21462056 -1.7373338
-6.315794 -0.13476729 -1.735352
-6.356029 -0.014918774 -1.7336357
-6.3954396 -0.055215061 -1.7308158
-6.6781397 -0.33153877 -1.7106793
-6.7561874 -0.33425805 -1.7056513
-6.8359261 -0.33741459 -1.7005117
-6.9095397 -0.33898637 -1.6957766
-6.9504752 -0.33958802 -1.6931454
-6.9986372 -0.33956131 -1.690055
-7.070231 -0.32807466 -1.6855438
-7.0719204 -0.32851186 -1.6854323
-7.1191645 -0.34140041 -1.6823076
-7.5265651 -0.5060178 -1.6549758
-7.4726591 -0.66554034 -1.6572828
-7.4702654 -0.94554782 -1.6554142
-7.5689268 -1.0941918 -1.6480097
-7.5105309 -1.0837834 -1.6518321
-7.4325047 -1.0785643 -1.6568767
-7.3094621 -1.0792044 -1.6647677
-7.2313223 -1.0864838 -1.6697294
-7.1863728 -1.084844 -1.6726255
-7.0684209 -1.0842959 -1.6801986
-7.0285635 -1.0814679 -1.6827766
-6.9072332 -1.0800455 -1.6905726
-6.8214817 -1.0978835 -1.6959465
-6.7095203 -1.0788405 -1.7032685
-6.6280465 -1.0802463 -1.7084866
-6.5898561 -1.080355 -1.7109364
-6.9611025 1.3191084 -1.7044426
-6.9268427 1.3192294 -1.7066419
-6.6919394 1.3125365 -1.7216673
-6.5304012 1.279322 -1.7317933
-6.4091582 1.2907699 -1.7396561
-6.3343649 1.2775789 -1.7443603
-6.2545118 1.2682446 -1.7494171
-6.0949678 1.2670738 -1.7596465
-6.2527952 1.2661972 -1.7495124
-6.3308849 1.2684847 -1.7445179
-6.4140558 1.2694155 -1.7391876
-6.4920998 1.2667035 -1.7341599
-6.5268984 1.2677281 -1.7319343
-6.5719066 1.2710385 -1.7290701
-6.6134801 1.2702539 -1.7263967
-6.7330513 1.2617582 -1.7186624
-6.8094473 1.264498 -1.7137799
-6.8459396 1.2650702 -1.7114424
-6.8942661 1.259977 -1.7083044
-6.923914 1.2548593 -1.706365
-7.0138845 1.2564805 -1.7006032
-7.0503078 1.2495538 -1.698216
-7.0884943 1.2496738 -1.6957664
-7.1630578 1.2378677 -1.6908964
-7.2446041 1.2467498 -1.6857277
-7.3276601 1.235182 -1.6803145
-7.4874353 1.2613496 -1.6702508
-7.409368 1.2615619 -1.6752619
-7.3712282 1.2664412 -1.6777445
-7.2516098 1.2699375 -1.6854457
-7.204977 1.2745785 -1.6884716
-7.1685538 1.2815053 -1.6908588
-7.1320848 1.2834327 -1.693213
-6.9660444 1.3182429 -1.7041192
-7.6910906 1.2628866 -1.6571933
-7.7326746 1.2696313 -1.6545736
-8.0020504 1.2754829 -1.6373301
-7.6929913 1.2949108 -1.6573026
-7.5290084 1.2605652 -1.6675773
-7.5730438 1.2582636 -1.664735
-7.6528482 1.2626976 -1.6596459
-9.2966614 -0.76461112 -1.5395213
-9.564743 -0.50088418 -1.5242232
-9.88237 -0.48791072 -1.5039349
-9.944581 -0.48835239 -1.4999396
-9.9627552 -0.48864993 -1.4987712
-10.007052 -0.46992907 -1.4960638
-10.013837 -0.46440044 -1.4956684
-10.033085 -0.44499853 -1.4945734
-10.029974 -0.41121182 -1.4950171
-8.2828903 1.2755314 -1.6193088
-8.4090805 1.2702956 -1.6111734
-8.4905472 1.2767572 -1.6059924
-8.5719528 1.2757198 -1.6007611
-8.6468172 1.2790698 -1.5959812
-8.7266035 1.2810041 -1.5908754
-8.8014269 1.2793547 -1.5860621
-8.8479319 1.2846832 -1.5831163
-8.9260569 1.2845896 -1.5781024
-8.8462925 1.2851552 -1.5832249
-8.8097105 1.2869937 -1.5855857
-8.723362 1.2869473 -1.5911263
-8.681879 1.2927014 -1.5938299
-8.6020327 1.2832682 -1.5988854
-8.5670719 1.282135 -1.6011207
-8.5304699 1.281474 -1.6034646
-8.4807243 1.2820888 -1.6066613
-8.4408207 1.2798717 -1.6092058
-8.3676577 1.2835488 -1.6139272
-8.327775 1.2838317 -1.6164886
-4.2184215 -0.3197259 -1.8686044
-4.1386209 -0.31940624 -1.8737276
-4.0988674 -0.31930557 -1.8762792
-3.9786537 -0.31861869 -1.8839983
-3.9386346 -0.3584843 -1.8862784
-4.0580802 -0.36637428 -1.8785566
-9.1288328 1.2922307 -1.5651455
-9.1206102 1.2920908 -1.565672
-9.0905905 1.2920415 -1.5675981
-9.0457659 1.2912405 -1.5704687
-8.9692421 1.2858627 -1.5753404
-10.091705 -1.1133316 -1.4859849
-10.04192 -1.1177162 -1.4891481
-9.9621334 -1.1196504 -1.494254
-9.9186068 -1.1160043 -1.4970734
-9.7574825 -1.1069313 -1.5074782
-9.6777401 -1.1038358 -1.5126177
-9.6428528 -1.1021845 -1.5148683
-9.5996342 -1.1036221 -1.5176313
-9.5597725 -1.1008244 -1.5202094
-5.5541134 -0.38808665 -1.7823995
-5.6717696 -0.40740427 -1.7747101
-5.711946 -0.38896313 -1.7722651
-5.591321 -0.31004998 -1.7805755
-5.5271587 -0.3265976 -1.7845733
-5.512042 -0.3460249 -1.785403
-5.5343556 -0.3679249 -1.783813
-5.5514541 -0.38636187 -1.7825826
-0.76988029 0.011694133 -2.0922904
-0.36342144 0.053922474 -2.1186779
-0.33421707 0.053642347 -2.1205499
-9.1654148 1.2903922 -1.5627847
-9.1255112 1.2881752 -1.5653293
-9.0091038 1.2830802 -1.5727624
-8.9659405 1.2843068 -1.575541
-5.8041191 1.2554946 -1.7782266
-5.8840394 1.2723346 -1.7732198
-5.8055964 1.2671138 -1.7782158
-5.7626853 1.2712249 -1.7809991
-5.7258821 1.2727777 -1.7833719
-5.6447115 1.269309 -1.7885556
-5.6048079 1.2671384 -1.7911005
-5.5250468 1.2677963 -1.7962235
-5.6079125 1.2708224 -1.7909279
-5.7227826 1.2690542 -1.7835439
0 0 0 1 0 0 0 1 0 0 0 1 0 0 0 0 0 707 1 0 0
