ply
format ascii 1.0
comment PCL generated
element vertex 415
property float x
property float y
property float z
element camera 1
property float view_px
property float view_py
property float view_pz
property float x_axisx
property float x_axisy
property float x_axisz
property float y_axisx
property float y_axisy
property float y_axisz
property float z_axisx
property float z_axisy
property float z_axisz
property float focal
property float scalex
property float scaley
property float centerx
property float centery
property int viewportx
property int viewporty
property float k1
property float k2
end_header
-5.3010554 0.30775928 3.2440021
-5.2805462 0.62784559 3.2479765
-5.2526383 0.74726582 3.2503076
-5.2129245 0.96258575 3.2540662
-4.9173741 1.3485862 3.2701995
-4.941596 1.3483304 3.2691827
-5.0759506 1.3253664 3.2633331
-5.0785542 1.3251553 3.263222
-5.1608744 1.3170512 3.259696
-5.4116392 1.2743391 3.2487795
-5.4940333 1.283621 3.2454197
-5.5364556 1.2781093 3.2435896
-5.6136475 1.2780063 3.2403562
-5.6509581 1.2781081 3.2387948
-5.8508611 1.3595753 3.2312169
-5.9308801 1.4016614 3.2282758
-6.057981 1.4240941 3.2231717
-6.2074189 1.3905338 3.2165873
-6.2970285 1.3828672 3.2127604
-6.372056 1.3840998 3.2096307
-6.4112797 1.3814719 3.2079625
-6.4269562 1.3810239 3.2073019
-6.4511614 1.3812666 3.2062905
-6.4918461 1.3809657 3.2045839
-6.5240102 1.3811126 3.2032385
-6.5286751 1.3811252 3.2030432
-6.6062479 1.3909829 3.1998909
-6.6891646 1.3801898 3.1963136
-6.7242255 1.3805604 3.1948493
-6.738452 1.379716 3.1942453
-6.7668381 1.3800292 3.1930597
-6.8049526 1.3800352 3.1914637
-6.8449941 1.3798108 3.1897848
-6.8479691 1.3797405 3.1896594
-6.9129329 1.3788189 3.1869302
-6.9290957 1.3788826 3.186254
-6.9694586 1.3786199 3.1845613
-6.9902811 1.3781273 3.1836846
-7.0455265 1.3786511 3.1813762
-7.0524397 1.3783953 3.1810842
-7.1620321 1.3909187 3.1766169
-7.229414 1.3774853 3.1736646
-7.2894745 1.3768642 3.1711435
-7.6051264 1.3751543 3.1579089
-7.6349936 1.3751941 3.1566586
-7.657383 1.375278 3.1557219
-7.6721125 1.3747863 3.1551003
-7.6824446 1.3744824 3.1546648
-7.7104092 1.3746953 3.1534958
-7.7298965 1.3737707 3.1526709
-7.7540989 1.3741138 3.1516607
-7.7797055 1.373693 3.1505845
-7.8245296 1.3736446 3.1487069
-7.8349762 1.3735425 3.1482685
-7.8495016 1.3732815 3.1476576
-7.869626 1.3737836 3.1468198
-7.9098263 1.3735195 3.145134
-7.9215655 1.3739362 3.1446464
-7.9314914 1.3740935 3.1442323
-7.9460621 1.3736163 3.1436174
-8.1110563 1.3726029 3.1366985
-8.1834993 1.4023905 3.133955
-8.3492851 1.4108863 3.1270952
-8.3631306 1.4108989 3.1265156
-8.3855991 1.4109758 3.1255755
-8.4202147 1.4110079 3.1241264
-8.7093468 1.3611438 3.1115336
-8.7342339 1.3689286 3.1105673
-8.7466974 1.3688551 3.1100447
-8.7863092 1.3684326 3.1083817
-8.7965975 1.368345 3.1079502
-8.8564224 1.3679922 3.1054416
-8.8674011 1.3679476 3.1049814
-8.9662361 1.3666968 3.1008306
-8.9895325 1.3669105 3.0998571
-9.0227547 1.3672814 3.0984695
-9.0241823 1.3671515 3.0984085
-9.1853609 1.3510534 3.0915024
-9.2369156 1.3427976 3.0892632
-9.3100367 1.3423865 3.0861974
-9.4246616 1.3496423 3.0814681
-9.4920635 1.3642442 3.0787878
-9.5032578 1.3642862 3.0783193
-9.5051613 1.3641131 3.078238
-9.5595016 1.3631988 3.0759537
-9.6016788 1.3647511 3.0742025
-9.6241941 1.3659651 3.0732715
-9.6533575 1.3649105 3.0720401
-9.6740313 1.3631713 3.0711575
-9.8513241 1.4019083 3.0641105
-9.8911629 1.4018894 3.0624421
-10.052107 1.3995349 3.0556796
-10.071774 1.3992302 3.054853
-10.208796 1.3575808 3.0487099
-10.241243 1.3571779 3.0473473
-10.395786 1.397681 3.04127
-10.475638 1.3967934 3.0379176
-10.490501 1.3959124 3.0372868
-10.525621 1.3958437 3.0358152
-10.575256 1.3562355 3.0333514
-10.694453 1.308099 3.0278914
-10.82118 1.2217333 3.0217443
-10.8237 1.2189944 3.0216119
-10.817282 1.1471677 3.0211816
-10.793091 1.0674223 3.0214186
-11.048996 0.59869063 3.0061402
-11.011228 0.53117537 3.0070646
-10.963354 0.11443585 3.005013
-10.967012 0.099452347 3.004714
-10.971113 0.073240936 3.0042872
-10.927097 0.01962921 3.0056086
-10.847101 0.014827162 3.0089116
-10.771178 0.00012362003 3.0119476
-10.528285 -0.29065198 3.0192885
-10.459663 -0.38910973 3.0212038
-10.434299 -0.45896804 3.0215859
-10.416601 -0.49886966 3.0219388
-10.406013 -0.86492312 3.0188191
-10.414952 -0.9387058 3.0177267
-10.416311 -0.94634616 3.0175953
-10.383453 -1.0186636 3.0182674
-10.364439 -1.0646151 3.0186164
-10.322619 -1.1066968 3.019958
-10.183266 -1.1370924 3.0254977
-10.16324 -1.1462705 3.0262468
-10.120763 -1.1608011 3.027884
-9.7797699 -1.1191797 3.0425682
-9.7373142 -1.1236575 3.0443025
-9.665144 -1.126519 3.0472968
-9.6600685 -1.1259569 3.0475147
-9.6252937 -1.1212788 3.0490165
-9.5821066 -1.1188484 3.0508485
-9.5429897 -1.1205164 3.0524702
-9.4997253 -1.1230739 3.0542572
-9.4624472 -1.1205178 3.0558429
-9.3402052 -1.1219665 3.0609477
-9.2238894 -1.1235905 3.0658026
-9.1806269 -1.1283585 3.0675678
-9.1408424 -1.1155828 3.0693581
-9.0845203 -1.0902511 3.0719633
-8.7009468 -1.0960771 3.0879686
-8.6222458 -1.1319822 3.0909147
-8.4157467 -1.1651485 3.0992389
-8.3271217 -1.1638165 3.102963
-8.0614738 -1.1103873 3.1146071
-8.021594 -1.1101106 3.1162796
-7.9824648 -1.1105679 3.1179137
-7.9273052 -1.1161402 3.1201694
-7.7805285 -1.1065836 3.1264086
-7.7431307 -1.1141232 3.1279013
-7.6083069 -1.1042157 3.1336434
-7.5310264 -1.1115148 3.1368084
-7.4911089 -1.1162735 3.1384337
-7.4512086 -1.1185327 3.1400824
-7.329504 -1.0930619 3.1454268
-7.2794271 -1.0925201 3.1475289
-7.2395444 -1.092297 3.1492012
-7.162323 -1.0925554 3.1524324
-7.1224403 -1.0923322 3.1541045
-6.9629445 -1.0864409 3.1608407
-6.9230785 -1.0837184 3.1625366
-6.8831959 -1.0834953 3.1642089
-6.8407516 -1.085067 3.165971
-6.7957454 -1.0884337 3.1678228
-6.7635126 -1.0878248 3.1691785
-6.7558627 -1.0882106 3.1694951
-6.7982888 -1.0891383 3.1677094
-6.8431058 -1.0886986 3.165837
-6.8729668 -1.0881753 3.1645918
-6.9153938 -1.089103 3.162806
-6.9579749 -1.0921025 3.1609938
-0.39180803 1.2099686 3.4583573
-0.46686411 0.84992445 3.45171
-0.4504323 0.72988623 3.4512296
-0.4477663 0.68989784 3.4509521
-0.48691082 0.52976543 3.4477544
-0.42473221 0.3301031 3.4484146
-0.38430023 0.19453317 3.4487882
-0.38418198 0.17025721 3.4485569
-0.38412285 0.15453607 3.4484062
-0.4234376 0.03440243 3.4455907
-0.46310806 -0.0057371557 3.4435387
-0.58194065 -0.16615283 3.4370012
-0.62143326 -0.24628943 3.4345675
-0.66092587 -0.32642603 3.4321339
-0.77993584 -0.4468447 3.4259782
-0.85909843 -0.56712085 3.4214926
-0.91915607 -0.84744012 3.4162493
-0.97704411 -0.92752182 3.4130459
-1.0590858 -1.0880473 3.4080479
-1.0989337 -1.0881897 3.4063778
-1.1786289 -1.0884748 3.4030378
-1.5015306 -0.84988391 3.3918388
-1.5176129 -0.80982316 3.3915553
-1.5177903 -0.76982617 3.391937
-1.5154774 -0.72982013 3.3924234
-1.8165035 -0.33055747 3.3837042
-1.8808606 -0.33114934 3.3810034
-2.0222239 -0.29179275 3.3754668
-2.5077121 -0.32411456 3.3548226
-2.6576819 -0.40979528 3.3477087
-2.6701007 -0.41735774 3.347115
-2.6988194 -0.41760999 3.3459101
-3.0499015 -0.86133063 3.3268895
-3.5716696 -0.97189331 3.3039646
-3.070173 -1.0189257 3.3245068
-3.0475955 -1.0438104 3.3252101
-3.0153527 -1.0742874 3.3262637
-2.9380381 -1.1016088 3.3292351
-2.8981295 -1.1064066 3.3308597
-2.8582067 -1.1137042 3.3324604
-2.7732699 -1.107847 3.3360741
-2.6935258 -1.1049435 3.3394415
-2.6588392 -1.1076957 3.3408673
-2.6190033 -1.0999944 3.3426104
-2.5380962 -1.0786977 3.3462057
-2.6094816 -1.0132784 3.3438532
-2.6188703 -1.0132667 3.3434601
-0.43218279 1.3298171 3.4578331
-0.39198351 1.2499657 3.4587393
-5.049696 -0.39986724 3.2476404
-4.5082908 -0.46800691 3.2696483
-4.6255817 -0.78854513 3.2616167
-4.6654406 -0.73622251 3.260457
-4.7008381 -0.66911864 3.2596278
-6.7210674 -1.0893967 3.1709406
-6.5640798 -1.0892088 3.1775162
-6.4817882 -1.0855587 3.1809976
-6.3519988 -1.077072 3.1865151
-6.272233 -1.0766258 3.1898596
-6.1950293 -1.0743847 3.1931145
-6.1152987 -1.0689397 3.196506
-5.8395882 -0.80287647 3.2106411
-5.8369751 -0.72201324 3.2115376
-5.8384624 -0.60221577 3.2126412
-5.8499541 -0.52255332 3.2129354
-5.853014 -0.44258475 3.2135856
-5.8684859 -0.36199534 3.2137222
-5.9248104 -0.12364799 3.2136836
-5.9430146 -0.085914254 3.2132885
-5.8935237 -0.0028904378 3.2161691
-5.8435326 0.15770561 3.2198255
-5.8433385 0.19782901 3.2202241
-5.847044 0.2968646 3.2210331
-5.8545723 0.3452045 3.2211883
-5.8503871 0.46492505 3.2225287
-5.855535 0.50519001 3.2227051
-5.8996649 0.74377346 3.2231793
-5.8086348 0.96981585 3.2291913
-5.9327135 1.2788655 3.2270038
-6.0552444 1.3304384 3.2223747
-6.1373324 1.3422585 3.2190523
-6.1717505 1.3427058 3.2176154
-6.1748862 1.3426163 3.2174833
-6.2579403 1.3415281 3.2139947
-6.297164 1.3389001 3.2123268
-6.3319192 1.3418088 3.2108998
-6.4933729 1.3407583 3.2041287
-6.6179981 1.3395481 3.1988983
-6.7780871 1.2986355 3.1917963
-6.9801092 1.3048024 3.1833968
-7.0921011 1.3151073 3.1788075
-7.2142715 1.3066859 3.1736095
-7.2567387 1.3086736 3.1718507
-7.3789387 1.3052516 3.1667001
-7.4725809 1.3109385 3.1628344
-7.4751186 1.3107076 3.1627257
-7.5099435 1.3134341 3.161294
-7.5973058 1.3097713 3.1576002
-7.6372061 1.3120358 3.1559513
-7.6771393 1.3192999 3.1543498
-7.7170558 1.3240645 3.1527247
-7.7594938 1.3260982 3.1509674
-7.9987612 1.3196876 3.1408858
-8.0801573 1.3208158 3.1374884
-8.145606 1.3199015 3.1347387
-8.3026018 1.3191917 3.1281576
-8.389782 1.2880312 3.1242037
-8.4322033 1.2875651 3.1224229
-8.4745617 1.289606 3.1206689
-8.5994663 1.3034303 3.1155732
-8.6741915 1.3084214 3.1124926
-8.7981167 1.3308393 3.1075215
-8.8788166 1.3267822 3.1041028
-8.9177761 1.33251 3.1025271
-9.0558434 1.3255224 3.0966775
-9.0773592 1.3274176 3.0957949
-9.145401 1.3258581 3.0929306
-9.200388 1.3196702 3.0905678
-9.2750626 1.317162 3.0874164
-9.3472157 1.3173845 3.0843971
-9.3988447 1.3189397 3.0822504
-9.678196 1.2045738 3.0694394
-10.000825 1.3497332 3.0573423
-10.05728 1.3402331 3.0548859
-10.176912 1.3393991 3.0498681
-10.305742 1.3068271 3.0441563
-10.629969 0.98932374 3.0274892
-10.622129 0.90899992 3.0270355
-10.619077 0.8694036 3.026778
-10.616783 0.82865894 3.0264773
-10.615663 0.74943113 3.025753
-10.610624 0.70908666 3.0255713
-10.605206 0.66931617 3.0254111
-10.521961 0.43680996 3.026634
-10.55496 0.30986851 3.0240166
-10.559581 0.26233783 3.0233605
-10.56855 0.054234177 3.0209594
-10.461077 -0.16162848 3.0233588
-9.9601192 -0.1352132 3.0445933
-10.369696 -0.41719371 3.0246978
-10.364058 -0.52215785 3.0239122
-10.363872 -0.577169 3.0233846
-10.241577 -0.97670567 3.024617
-9.7682638 -0.94529021 3.0447426
-9.7113361 -0.89271498 3.0476382
-9.5016594 -0.61795235 3.0590925
-9.58428 -0.3776499 3.0579717
-6.596384 -1.0798198 3.1762547
-3.0217493 0.75933415 3.343843
-2.9398398 0.83993292 3.3480573
-2.991781 1.3314476 3.3506665
-2.9095037 1.3470511 3.3542635
-2.7525473 1.3401282 3.3607688
-2.6352415 1.3220699 3.3655052
-2.5058703 1.3422549 3.371119
-2.4691346 1.3546791 3.3727782
-2.4354565 1.3668852 3.3743074
-2.3820014 1.3624921 3.376503
-2.3158479 1.3523161 3.379174
-2.2361639 1.3551024 3.3825378
-2.0660915 1.40395 3.390135
-1.9926865 1.4437973 3.3935969
-1.9898205 1.444002 3.3937187
-1.8778217 1.4213878 3.3981886
-1.8318601 1.4219676 3.4001188
-1.7950692 1.4218926 3.4016588
-1.7153745 1.4221792 3.4049988
-1.6295652 1.4229023 3.4085991
-1.5559843 1.4227525 3.4116788
-1.546813 1.4234072 3.4120691
-1.5100229 1.4233322 3.413609
-1.3077278 1.4242669 3.4220891
-1.1530223 1.4470114 3.4287889
-1.0302467 1.4076622 3.433547
-0.87391376 1.408017 3.4400969
-0.79259109 1.3859143 3.4432871
-0.66999197 1.3865625 3.4484272
-0.55190086 1.3693844 3.4532051
-8.1026649 -0.68356514 3.1170366
-8.3007565 -1.1120485 3.1045709
-8.706501 -0.92664933 3.089385
-8.7507057 -0.64639843 3.0902617
-8.7412834 -0.56634551 3.0914354
-8.6131191 -0.35308266 3.0988781
-8.5933208 -0.32519877 3.0999784
-8.7871904 -0.085475028 3.0941937
-8.8644543 -0.080675781 3.0910048
-8.9068918 -0.078697741 3.0892472
-8.9467583 -0.081438154 3.0875511
-8.9790287 -0.08083576 3.0862055
-9.0164089 -0.075795859 3.0846894
-9.0537548 -0.075755537 3.0831258
-9.1415243 -0.089631498 3.0793154
-9.1885605 -0.08816278 3.0773602
-9.2259235 -0.085622668 3.0758202
-9.2607155 -0.087801099 3.0743423
-9.303153 -0.085822999 3.0725844
-9.3391962 -0.090641677 3.0710282
-9.3903179 -0.09108305 3.0688832
-9.4253407 -0.086826086 3.0674582
-9.4602003 -0.07900539 3.0660744
-9.5774498 -0.059448212 3.0613551
-9.6596508 -0.07520929 3.0577595
-9.7368793 -0.075409591 3.0545235
-9.8695259 -0.043380022 3.0492809
-8.0900879 -0.68373835 3.1175616
-7.7311869 -0.68001151 3.1326268
-7.6935406 -0.67751694 3.1342275
-7.5719919 -0.6444993 3.1396387
-7.5295115 -0.65106988 3.1413536
-7.462122 -0.65500176 3.1441371
-7.4022484 -0.64578748 3.146734
-7.3623123 -0.65306282 3.1483355
-7.3602805 -0.69256949 3.148036
-7.3593965 -0.70484662 3.1479535
-5.2989345 -0.92216051 3.2321198
-5.4405084 -0.9708724 3.2257173
-5.6474485 -0.98909831 3.2168744
-5.8090272 -1.0606799 3.2094116
-5.9184461 -1.0660293 3.2047775
-6.0033531 -1.0603863 3.201277
-6.0830307 -1.0733298 3.1978145
-6.1228786 -1.0785519 3.1960952
-6.1576724 -1.0773656 3.1946497
-6.2026258 -1.0814974 3.1927271
-6.2774734 -1.0882959 3.1895266
-6.2923784 -1.087689 3.1889083
-6.3238292 -1.087606 3.1875923
-6.4031177 -1.0879201 3.184269
-5.2795601 -0.84206641 3.2337108
-5.2877469 -0.80155849 3.2337623
-5.250133 0.10341099 3.2441456
-4.3205242 0.83142048 3.2901587
-4.3053427 0.79149723 3.2904058
-4.3182583 0.8714298 3.290643
-6.919179 -0.1284768 3.1719975
-6.9823079 -0.089656949 3.1697319
-6.9216886 -0.089102089 3.1722758
-2.9757426 -0.29877627 3.3354704
-3.0329006 -0.17920488 3.3342409
-3.0543842 -0.09899658 3.3341219
-3.3416018 0.16650268 3.3246789
-3.0975184 0.39912558 3.3371642
-3.0209079 0.63935632 3.3427105
0 0 0 1 0 0 0 1 0 0 0 1 0 0 0 0 0 415 1 0 0
