ply
format ascii 1.0
comment PCL generated
element vertex 801
property float x
property float y
property float z
element camera 1
property float view_px
property float view_py
property float view_pz
property float x_axisx
property float x_axisy
property float x_axisz
property float y_axisx
property float y_axisy
property float y_axisz
property float z_axisx
property float z_axisy
property float z_axisz
property float focal
property float scalex
property float scaley
property float centerx
property float centery
property int viewportx
property int viewporty
property float k1
property float k2
end_header
-2.8486617 -0.34097251 -4.4477763
-2.8699696 -0.34363836 -4.4474602
-2.887219 -0.38122275 -4.4473329
-0.0021424294 -0.19923182 -4.4907489
0.021247387 -0.3590956 -4.4916854
0.0042014122 -0.43919352 -4.491715
-0.00034856796 -0.51921922 -4.4919357
-0.0072402954 -0.59855348 -4.4921179
-0.0085105896 -0.67879528 -4.4923892
-0.0012784004 -0.79922265 -4.4929357
0.0018935204 -0.91920352 -4.4934192
-0.0051555634 -0.99924368 -4.4936013
-0.012047768 -1.078578 -4.4937835
-0.016821861 -1.1186053 -4.4938555
-0.024642467 -1.1592375 -4.4938831
-0.032538891 -1.1837153 -4.4938512
-0.040801048 -1.1911331 -4.493752
-0.080768585 -1.2111772 -4.4932141
-0.120749 -1.2187212 -4.4926305
-0.15996504 -1.2188559 -4.4920321
-0.1991787 -1.2214905 -4.4914422
-0.27915144 -1.2240788 -4.4902301
-0.35989904 -1.2240769 -4.4889965
-0.57405567 -1.2408866 -4.4857855
-0.61401749 -1.2437607 -4.4851856
-0.73399448 -1.2423841 -4.4833479
-0.81394053 -1.2456328 -4.4821382
-0.85392523 -1.2460071 -4.4815288
-0.93382406 -1.2542553 -4.4803381
-0.9737854 -1.2571297 -4.4797378
-1.0137467 -1.2600037 -4.4791379
-1.0928941 -1.2581521 -4.477922
-1.1329021 -1.2560266 -4.477303
-1.1728868 -1.2564009 -4.4766936
-1.2128716 -1.2567754 -4.4760842
-1.2528563 -1.2571497 -4.4754744
-1.3337407 -1.2504995 -4.474215
-1.3588014 -1.2432339 -4.4738054
-1.4138975 -1.2312493 -4.4729204
-1.4922457 -1.2242973 -4.4716983
-1.533968 -1.2198731 -4.471045
-1.5731535 -1.2151471 -4.4704294
-1.6140542 -1.2081225 -4.469779
-1.6340699 -1.2058097 -4.4694648
-1.6540856 -1.2034971 -4.4691505
-1.7341251 -1.1967461 -4.4679036
-1.7741804 -1.189621 -4.4672656
-1.8943677 -1.1657455 -4.465343
-2.0144148 -1.1568691 -4.4634771
-2.0543995 -1.1572434 -4.4628673
-2.0944543 -1.1501184 -4.4622297
-2.1344862 -1.145493 -4.4616013
-2.1745172 -1.1408676 -4.4609733
-2.2546272 -1.1266171 -4.4596977
-2.3346667 -1.1198661 -4.4584503
-2.3747449 -1.1102411 -4.4578032
-2.454761 -1.1059902 -4.4565654
-2.4930544 -1.1061634 -4.4559813
-2.5346832 -1.1117386 -4.4553652
-2.614629 -1.1149873 -4.4541559
-2.6546137 -1.1153616 -4.453546
-2.7346065 -1.1136105 -4.4523177
-2.7746146 -1.1114849 -4.4516988
-2.8538086 -1.1046337 -4.4504642
-2.8946385 -1.1051085 -4.4498425
-3.0392945 -1.0677981 -4.4474974
-3.0793388 -1.0678363 -4.4468856
-3.1592946 -1.0661404 -4.4456577
-3.1992891 -1.0664212 -4.4450479
-3.2392833 -1.0667019 -4.444438
-3.279295 -1.0644826 -4.4438186
-3.3593333 -1.0648016 -4.4425969
-3.3992779 -1.0653248 -4.4419889
-3.4393549 -1.0676203 -4.4413848
-3.5192609 -1.0661669 -4.4401588
-3.5592554 -1.0664476 -4.439549
-3.7242107 -1.1071695 -4.4371762
-3.7470922 -1.1072421 -4.4368272
-3.7739966 -1.107712 -4.4364176
-3.7990177 -1.1077662 -4.4360356
-3.9592159 -1.0667549 -4.4334397
-3.9875782 -1.0657154 -4.4330025
-4.039289 -1.0620741 -4.4321995
-4.0667858 -1.0635874 -4.4317851
-4.079216 -1.0650973 -4.4316006
-4.1192107 -1.0653778 -4.4309907
-4.1475382 -1.0638775 -4.4305525
-4.2275133 -1.0642086 -4.4293318
-4.2392607 -1.0634776 -4.4291496
-4.2675104 -1.0618742 -4.4287124
-4.3067207 -1.0620805 -4.4281139
-4.3466973 -1.0647459 -4.4275131
-4.4392319 -1.0648813 -4.4260998
-4.6389451 -1.1134338 -4.4232244
-4.7191901 -1.0741034 -4.4218564
-4.799283 -1.0596656 -4.4205804
-5.158906 -1.0951755 -4.415215
-5.2062788 -1.1337934 -4.4146314
-5.246294 -1.131647 -4.4140124
-5.3267698 -1.1306466 -4.4127793
-5.3667631 -1.1309999 -4.4121695
-5.4068003 -1.1263536 -4.411541
-5.4862967 -1.1287675 -4.4103351
-5.5267792 -1.1274136 -4.4097118
-5.566772 -1.127767 -4.4091024
-5.6067429 -1.1306201 -4.4085021
-5.6462913 -1.1276809 -4.407887
-5.7267222 -1.13168 -4.406673
-5.8067083 -1.1323866 -4.4054532
-5.8467016 -1.1327399 -4.4048438
-5.8864832 -1.1301972 -4.4042268
-6.0065851 -1.1441523 -4.4024425
-6.0740194 -1.1633686 -4.4014821
-6.2868018 -1.1166283 -4.3980618
-6.3267951 -1.1169816 -4.3974524
-6.485734 -1.1699238 -4.395216
-6.6356664 -1.1286328 -4.392776
-6.7391129 -1.1331241 -4.391212
-6.7664623 -1.1331192 -4.3907938
-6.9011178 -1.1337667 -4.3887391
-6.9262447 -1.1342105 -4.3883567
-6.9660182 -1.1341922 -4.3877492
-7.0748944 -1.1527542 -4.3861532
-7.1660542 -1.1766734 -4.3848472
-7.1834488 -1.1766546 -4.3845816
-7.2058134 -1.1766304 -4.3842397
-7.2232084 -1.1766115 -4.3839736
-7.2860336 -1.1777333 -4.383018
-7.4059672 -1.1990144 -4.3812628
-7.4459825 -1.1968678 -4.3806438
-7.4857416 -1.1968249 -4.3800364
-7.5255013 -1.1967818 -4.3794289
-7.5659618 -1.1979278 -4.3788147
-7.6494627 -1.1470126 -4.3773546
-7.8887167 -1.1485986 -4.3737054
-7.9286571 -1.1540054 -4.3731146
-8.0888948 -1.1635617 -4.3707013
-8.2886076 -1.1551702 -4.36762
-8.3686428 -1.1509852 -4.3663821
-8.5284805 -1.1651125 -4.3639917
-9.0103607 -1.1142193 -4.3564453
-8.4934387 -1.113296 -4.3643394
-8.4928474 -0.77267963 -4.3631139
-8.9339666 -0.62424791 -4.3558373
-9.1715536 -0.99586213 -4.3535542
-9.4096842 -1.1656517 -4.3505316
-9.6444559 -1.1273255 -4.346806
-9.7865629 -1.0884334 -4.3444939
-10.206594 -0.72852576 -4.3367734
-10.136046 -0.49252483 -4.3369961
-10.112783 -0.39770117 -4.337008
-10.672075 -0.46732655 -4.3287158
-10.702965 -0.40256643 -4.3280091
-10.71351 -0.38013935 -4.3277669
-10.720789 -0.36271268 -4.3275924
-10.738976 -0.32284826 -4.3271704
-10.754282 -0.28547373 -4.3268008
-10.84175 -0.24370897 -4.3253136
-10.927062 -0.2044128 -4.3238678
-10.969191 -0.20477451 -4.3232255
-11.074533 -0.20563129 -4.3216195
-11.443031 0.1680398 -4.3146358
-11.426752 0.23357981 -4.3146472
-11.449591 0.36756113 -4.3138127
-11.377142 0.56552458 -4.3142023
-11.356625 0.67395997 -4.3141232
-11.35434 0.71397257 -4.314013
-11.360361 0.83383703 -4.3134866
-11.66305 0.55240971 -4.3098822
-11.675889 0.55224663 -4.3096867
-11.706459 0.51186478 -4.3093657
-11.874284 0.1109576 -4.3082547
-11.877131 0.067761697 -4.3083677
-11.868883 -0.012175672 -4.3087831
-11.593306 -0.34742123 -4.3142076
-11.598155 -0.4099493 -4.3143601
-11.470484 -0.64892793 -4.3171763
-11.463383 -0.68884301 -4.3174295
-11.45414 -0.76880968 -4.3178606
-11.34696 -1.0056124 -4.3203559
-11.346828 -1.007943 -4.3203664
-11.244215 -1.0925003 -4.3222404
-11.226093 -1.0994478 -4.3225422
-11.123987 -1.1317512 -4.3242192
-11.083761 -1.1239727 -4.3248057
-11.004131 -1.1110034 -4.3259749
-10.907503 -1.1092613 -4.327445
-10.844079 -1.1225055 -4.3284616
-10.763844 -1.1169777 -4.3296676
-10.723784 -1.1217244 -4.3302965
-10.564125 -1.1207598 -4.3327322
-10.563845 -1.1207306 -4.3327365
-10.524147 -1.1180105 -4.333333
-10.484154 -1.1177611 -4.3339434
-10.404151 -1.1197623 -4.3351727
-10.38603 -1.1200075 -4.3354502
-10.363894 -1.1169837 -4.3357778
-10.168795 -1.152239 -4.3388858
-10.129423 -1.1601878 -4.3395162
-10.009368 -1.2120227 -4.341538
-9.8886709 -1.2706602 -4.3435946
-9.7680092 -1.2483429 -4.3453569
-9.7032175 -1.2479223 -4.3463449
-9.6886997 -1.2483587 -4.3465686
-9.5291128 -1.1965752 -4.3488188
-9.4895458 -1.1890974 -4.3493962
-9.3292828 -1.1820407 -4.351819
-9.2892904 -1.1816336 -4.3524284
-9.1698933 -1.1583432 -4.3541684
-0.018780708 -0.90388507 -4.4930477
-0.022132397 -0.82379824 -4.4927063
-0.017214298 -0.74379355 -4.4924917
-0.018798828 -0.70361316 -4.492322
-0.021338463 -0.6636163 -4.4921379
-0.017334938 -0.62379473 -4.4920549
-0.017375469 -0.58379513 -4.4919095
-0.017456055 -0.50379586 -4.4916182
-0.020767689 -0.46370873 -4.4914227
-0.046835899 -0.34392104 -4.4905901
-0.023508549 -0.22371387 -4.4905109
-0.021129608 -0.10371227 -4.4901128
-0.02198267 -0.023622707 -4.4898095
-0.019523144 0.016379669 -4.4897022
-0.024602413 0.096373342 -4.4893346
-0.02942276 0.12541965 -4.4891558
-0.044486046 0.19011512 -4.4886913
-0.044939041 0.23014984 -4.4885392
-0.045526505 0.31010625 -4.4882407
-0.045753479 0.33012357 -4.4881644
-0.04632616 0.390138 -4.4879384
-0.025325775 0.4706147 -4.4879675
-0.022375107 0.51125914 -4.4878654
-0.020222187 0.55127841 -4.4877534
-0.023068428 0.59125322 -4.487565
-0.021263599 0.67126954 -4.4873028
-0.021609783 0.71126658 -4.4871526
-0.021956921 0.75126362 -4.4870024
-0.019804478 0.79128289 -4.4868903
-0.022996902 0.87125468 -4.4865518
-0.020845413 0.91127402 -4.4864397
-0.021538258 0.9912681 -4.4861393
-0.019386768 1.0312873 -4.4860272
-0.24770832 1.3491234 -4.4813876
-0.2877264 1.3564585 -4.4807496
-0.3277235 1.3587937 -4.4801302
-0.34024 1.3637421 -4.4799209
-0.61533165 1.3362892 -4.4758177
-0.62782717 1.3361995 -4.4756274
-0.65622139 1.3370605 -4.4751902
-0.71681356 1.3350869 -4.4742718
-0.78020144 1.3251051 -4.4733396
-0.82018661 1.3248177 -4.4727297
-0.86355734 1.3230712 -4.4720736
-0.90265703 1.3175242 -4.4714966
-0.94008923 1.3164566 -4.4709282
-0.98342609 1.3097103 -4.4702907
-1.0225778 1.3116628 -4.4696856
-1.0625458 1.3088758 -4.4690852
-1.1400514 1.3200202 -4.4678607
-1.1800365 1.3197331 -4.4672508
-1.2225571 1.3177263 -4.4666085
-1.2617083 1.3196789 -4.4660034
-1.3016939 1.3193916 -4.4653935
-1.3825502 1.324077 -4.4641414
-1.4208336 1.3232697 -4.4635592
-1.4356465 1.3233856 -4.4633327
-1.5164876 1.3254757 -4.46209
-1.5424914 1.3229283 -4.4617019
-1.620708 1.314334 -4.4605384
-1.7015114 1.3115199 -4.4593139
-1.7423306 1.308993 -4.4586997
-1.7823505 1.3137054 -4.4580712
-1.8622866 1.3081313 -4.4568701
-1.9414062 1.3072968 -4.4556646
-2.023078 1.3072426 -4.4544168
-2.0752945 1.3051975 -4.4536266
-2.1013293 1.303648 -4.4532347
-2.156136 1.3072877 -4.452384
-2.0761666 1.3079988 -4.4536033
-2.0361814 1.3083543 -4.4542127
-1.9553838 1.3112638 -4.4554367
-1.9163141 1.3194203 -4.4560037
-1.8346443 1.3195285 -4.4572511
-1.7563534 1.3183428 -4.4584513
-1.6764054 1.3215537 -4.459661
-1.623313 1.322614 -4.4604683
-1.5816436 1.324881 -4.4610968
-1.5564938 1.32762 -4.4614711
-1.5042429 1.3287355 -4.4622655
-1.4365182 1.3261869 -4.4633093
-1.4234042 1.3265499 -4.4635081
-1.396533 1.3265425 -4.4639187
-1.3556981 1.3265966 -4.4645424
-1.3156915 1.3244523 -4.4651613
-1.2642789 1.3229591 -4.4659519
-1.2357221 1.3251635 -4.4663806
-1.1965446 1.3208209 -4.4669948
-0.92240238 -1.2021285 -4.4803238
-0.96238804 -1.2024206 -4.4797139
-1.0423403 -1.2055043 -4.4785037
-1.0823083 -1.2082961 -4.4779029
-1.1623144 -1.2038802 -4.4766645
-1.2022996 -1.2041721 -4.4760551
-1.2423019 -1.2019641 -4.4754357
-1.2823057 -1.1997563 -4.4748168
-1.3222909 -1.2000481 -4.4742069
-1.4423532 -1.1859248 -4.4723215
-1.5223947 -1.1765089 -4.4710646
-1.5499201 -1.1717099 -4.4706268
-1.6024723 -1.1620938 -4.469789
-1.7225347 -1.1479702 -4.4679036
-1.8426504 -1.1263471 -4.4659905
-1.882689 -1.1191393 -4.4653525
-1.9227099 -1.1144315 -4.4647241
-2.0027514 -1.105016 -4.4634671
-2.1660781 -1.1077075 -4.4609818
-2.2034397 -1.0962777 -4.4603696
-2.2461371 -1.0957918 -4.4597158
-2.4462409 -1.0722528 -4.4565735
-2.5253432 -1.0755805 -4.4553771
-2.5636625 -1.0713607 -4.4547763
-2.6452813 -1.0789561 -4.453557
-2.7993586 -1.0756283 -4.4511909
-2.8263466 -1.0709971 -4.4507618
-2.8279021 -1.0709155 -4.450738
-2.8452787 -1.0704163 -4.4504704
-2.8793173 -1.0666753 -4.4499369
-2.9078975 -1.0662466 -4.4494987
-2.9467282 -1.0639734 -4.4488974
-2.9878824 -1.0640777 -4.4482689
-3.0267031 -1.0643045 -4.4476767
-3.0273352 -1.0642712 -4.4476671
-3.0278697 -1.0642432 -4.447659
-3.0678673 -1.0619087 -4.4470391
-3.1478422 -1.0622398 -4.4458189
-3.1878297 -1.0624052 -4.4452085
-3.2678146 -1.0602363 -4.4439788
-3.307802 -1.0604018 -4.4433684
-3.3877769 -1.0607328 -4.4421477
-3.4277542 -1.0633985 -4.4415469
-3.4677417 -1.0635639 -4.4409366
-3.5077291 -1.0637294 -4.4403262
-3.7400644 -0.94771683 -4.4363565
-3.826493 -0.74808079 -4.4343128
-3.8033419 -0.4756614 -4.4336796
-3.8034096 -0.46808597 -4.433651
-3.8139987 -0.38799337 -4.4331989
-3.8447595 -0.27820936 -4.4323316
-3.8979287 0.15640935 -4.4299445
-3.9523659 0.31644484 -4.4285331
-3.9142044 0.55643016 -4.4282465
-3.9141684 0.57135308 -4.4281931
-3.7547266 0.83659559 -4.4296679
-3.7051332 0.95678478 -4.4299898
-3.3163865 1.2782062 -4.4347644
-3.1163943 1.2812955 -4.4378085
-3.0761836 1.2812139 -4.4384232
-2.9968119 1.2840726 -4.4396253
-2.9159894 1.2815011 -4.4408693
-2.8759222 1.2805845 -4.4414845
-2.8509312 1.280764 -4.4418659
-2.7818079 1.2815267 -4.4429188
-2.6610012 1.2821281 -4.4447622
-2.5828199 1.2957221 -4.4459076
-2.5011301 1.2932764 -4.4471645
-2.4759278 1.2944438 -4.4475451
-2.3812089 1.2991378 -4.4489751
-2.3420744 1.299685 -4.4495711
-2.2760906 1.3062209 -4.4505553
-2.2204347 1.3025264 -4.4514189
-2.1960993 1.3044323 -4.4517837
-0.29639435 1.3884583 -4.4805012
-0.29671288 1.3885711 -4.4804959
-0.31489706 1.3886607 -4.4802179
-0.32654238 1.388248 -4.4800415
-0.33653831 1.3881592 -4.4798889
-0.59711933 1.3661515 -4.4759879
-0.67619514 1.3601393 -4.4748015
-0.75522804 1.3491274 -4.4736342
-0.83672428 1.3290206 -4.4724617
-0.91667223 1.3258097 -4.4712524
-0.99574804 1.3197975 -4.4700661
-1.0234985 1.3219223 -4.4696345
-1.060081 1.3205947 -4.4690804
-1.115746 1.3237305 -4.4682183
-0.0058703423 -0.1190189 -4.4904013
-0.0096292496 -0.063882373 -4.4901443
-0.0071702003 -0.023880027 -4.4900365
-0.0072507858 0.056119181 -4.4897456
-0.007291317 0.096118771 -4.4896002
-0.010720253 0.16118613 -4.4893122
-0.014224529 0.20140058 -4.4891129
-0.013667583 0.24116853 -4.488977
0.070862293 0.47193363 -4.4894323
0.071113586 0.49178138 -4.4893641
-0.0026402473 0.6851396 -4.4875369
-0.0027990341 0.72513855 -4.4873896
-0.00045919418 0.76514786 -4.4872804
-0.00061798096 0.80514675 -4.487133
-0.0032763481 0.84513539 -4.4869475
-0.0009355545 0.88514465 -4.4868383
-0.0010943413 0.92514366 -4.486691
0.0010867119 1.0051519 -4.4864345
0.0034270287 1.045161 -4.4863253
0.0032682419 1.08516 -4.4861779
0.0031094551 1.125159 -4.4860306
-0.0022072792 1.2051364 -4.4856596
-0.002366066 1.2451352 -4.4855123
-0.21726036 1.3695288 -4.4817786
-0.02451086 -0.94379985 -4.4931049
-0.30473232 -1.1982375 -4.4897456
-0.34626722 -1.2005075 -4.4891195
-0.36595917 -1.2045653 -4.488833
-0.57334661 -1.2043301 -4.4856639
-0.60248518 -1.2047931 -4.4852204
-0.642488 -1.2025851 -4.4846015
-0.68468857 -1.2047362 -4.4839644
-0.8024292 -1.2037529 -4.4821625
-0.84245014 -1.1990449 -4.481534
-11.200884 1.3158362 -4.3141766
-11.2808 1.3091648 -4.3129802
-11.330605 1.2738959 -4.3123469
-11.362453 1.1537234 -4.3122959
-11.379522 1.073631 -4.312325
-11.374094 0.99366003 -4.3126979
-11.160889 1.3223118 -4.314764
-11.120708 1.2875283 -4.3155041
-11.358504 0.95384759 -4.3130803
-11.353668 0.9137699 -4.3132992
-11.353454 0.87377095 -4.3134475
-9.8640985 0.29841816 -4.338285
-9.8429661 0.1746878 -4.339056
-9.86061 0.18951443 -4.3387327
-9.8812885 0.25828454 -4.3381677
-9.9318943 0.33789548 -4.3371062
-9.9599056 0.37354282 -4.3365493
-9.990612 0.49744543 -4.3356309
-10.079289 0.61671776 -4.3338442
-10.075921 0.64857697 -4.3337803
-10.179851 1.2291522 -4.3300891
-10.219844 1.2288915 -4.3294792
-10.260125 1.2332016 -4.3288479
-10.299864 1.2333698 -4.3282404
-10.42018 1.2446582 -4.3263612
-10.539955 1.2518046 -4.3245058
-10.699898 1.2457625 -4.322084
-10.809929 1.2525452 -4.3203788
-10.679382 1.3103236 -4.3221636
-10.599272 1.3183013 -4.3233585
-10.359453 1.3145498 -4.3270359
-10.319746 1.319693 -4.3276238
-10.304868 1.319741 -4.3278508
-10.239434 1.3076975 -4.3288941
-10.199792 1.3028078 -4.3295174
-10.079059 1.3036662 -4.3313589
-10.004734 1.2847565 -4.3325629
-9.9647217 1.2825655 -4.3331819
-9.8844261 1.2807342 -4.3344154
-9.8441238 1.2785939 -4.3350387
-9.8044214 1.278852 -4.3356442
-9.6844606 1.2822785 -4.3374648
-9.6447392 1.2800367 -4.3380795
-9.5644817 1.283205 -4.339294
-9.5247784 1.2834632 -4.3398995
-9.4847851 1.2837721 -4.3405094
-9.4047995 1.2843897 -4.3417292
-9.364769 1.2796988 -4.3423581
-9.2844925 1.2803673 -4.3435817
-9.2447891 1.2806255 -4.3441873
-9.2321396 1.2806392 -4.3443809
-9.2045059 1.2809851 -4.3448014
-9.1245003 1.2791029 -4.3460307
-9.0046368 1.2950289 -4.3478041
-8.924304 1.2881979 -4.3490562
-8.8845997 1.2884558 -4.3496618
-8.8048077 1.2765232 -4.350924
-8.7245321 1.2771918 -4.3521481
-8.6845188 1.2750008 -4.352767
-8.6448164 1.2752588 -4.3533726
-8.6045332 1.2756186 -4.3539867
-8.5648499 1.2783765 -4.3545828
-8.5248365 1.2761855 -4.3552022
-8.44489 1.281803 -4.3564034
-8.3643045 1.2800225 -4.3576407
-8.324872 1.2777299 -4.3582516
-8.2848787 1.2780387 -4.3588614
-8.2718439 1.2776637 -4.3590617
-8.2448864 1.2783475 -4.3594713
-8.2046223 1.2812071 -4.360076
-8.1527138 1.2887242 -4.3608418
-8.0849714 1.2870828 -4.3618827
-7.9052114 1.353521 -4.364388
-7.8850517 1.353704 -4.3646955
-7.872057 1.3541976 -4.364892
-7.6664262 1.3365476 -4.3680973
-7.6661677 1.3365773 -4.3681011
-7.6191297 1.3362483 -4.3688211
-7.4589934 1.285305 -4.3714519
-7.4255071 1.2861511 -4.3719606
-7.3857727 1.2864616 -4.3725662
-7.3460593 1.2892718 -4.3731627
-7.2987332 1.2918749 -4.3738766
-7.2658358 1.2924821 -4.3743768
-7.2060418 1.285463 -4.3753157
-7.1860127 1.2856368 -4.3756213
-7.1783428 1.285555 -4.3757386
-7.1056051 1.293873 -4.3768196
-7.0180345 1.2871252 -4.3781819
-6.9710822 1.287462 -4.3788981
-6.9387565 1.2903897 -4.3793812
-6.8595767 1.3036538 -4.3805428
-6.8195848 1.3040442 -4.3811526
-6.7392111 1.2998337 -4.3823957
-6.6992435 1.302724 -4.3829956
-6.5066948 1.371431 -4.3856883
-6.4843435 1.3716056 -4.3860292
-6.3057871 1.305678 -4.3889956
-6.2262964 1.3037992 -4.3902168
-6.1463742 1.3119794 -4.3914084
-6.1058216 1.3073795 -4.3920445
-6.0658288 1.3077197 -4.3926544
-6.0263319 1.3055005 -4.3932657
-5.9463668 1.3086809 -4.3944759
-5.9063525 1.3065213 -4.3950949
-5.8660798 1.3043915 -4.3957176
-5.7860518 1.3000722 -4.396956
-5.7714677 1.2992877 -4.3971815
-5.739038 1.2996032 -4.397676
-5.7063456 1.3032228 -4.3981624
-5.6663313 1.3010633 -4.3987813
-5.6413145 1.298776 -4.3991718
-5.5860653 1.2992736 -4.4000139
-5.546051 1.297114 -4.4006333
-5.5062408 1.2999356 -4.4012313
-5.4660654 1.2977946 -4.4018526
-5.3864012 1.3059449 -4.4030404
-5.3159614 1.3018261 -4.4041314
-5.2757578 1.3042444 -4.4047365
-5.2664008 1.3044659 -4.4048786
-5.2261705 1.3073359 -4.4054832
-5.1957617 1.3019904 -4.4059668
-5.1557593 1.2996135 -4.4065866
-5.0757551 1.2948596 -4.4078259
-4.9958038 1.3076053 -4.4090014
-4.9613705 1.3060014 -4.409533
-4.8812661 1.3133681 -4.4107304
-4.876483 1.313588 -4.4108024
-4.8360639 1.3158016 -4.4114122
-4.7965088 1.3188338 -4.4120054
-4.6763167 1.321498 -4.4138317
-4.6365304 1.3193258 -4.4144473
-4.5171337 1.314077 -4.4162908
-4.4366093 1.3257357 -4.4174786
-4.3559356 1.3245726 -4.418715
-4.2766485 1.3239167 -4.4199286
-4.2363915 1.3278508 -4.4205294
-4.157485 1.329452 -4.4217291
-4.1161919 1.3280151 -4.4223652
-4.0764132 1.3283427 -4.4229717
-4.0375128 1.3274628 -4.4235692
-4.0367346 1.3274381 -4.4235811
-3.9975145 1.3251331 -4.4241886
-3.9559827 1.3233025 -4.42483
-3.9175398 1.3254737 -4.4254093
-3.8775418 1.3231441 -4.4260287
-3.7568331 1.3311299 -4.427844
-3.716023 1.3265404 -4.428484
-3.5568755 1.3269812 -4.4309134
-3.436913 1.3274919 -4.4327445
-3.3577368 1.3328573 -4.4339347
-3.3169925 1.3380026 -4.4345384
-3.2769313 1.3330454 -4.4351683
-3.1977873 1.3335382 -4.4363756
-3.1577892 1.3312085 -4.436995
-3.1163352 1.3335896 -4.4376197
-3.0778146 1.331549 -4.4382157
-3.0370495 1.3316945 -4.438838
-2.9042768 1.3213456 -4.4409037
-2.8367753 1.32486 -4.4419222
-2.7967956 1.3299829 -4.4425144
-2.7028453 1.30486 -4.4440408
-2.5959258 1.2983768 -4.4456978
-2.583688 1.2984821 -4.4458842
-2.5559409 1.2987323 -4.4463072
-2.5402994 1.2977289 -4.4465499
-2.475121 1.299142 -4.4475403
-2.4360294 1.3047986 -4.4481173
-2.3438463 1.3102049 -4.4495058
-2.3161187 1.310865 -4.4499269
-2.2239079 1.3135663 -4.4513259
-8.4700708 -0.65077138 -4.3630204
-8.8705921 -0.50119245 -4.3563595
-8.8807812 -0.47627056 -4.3561139
-8.7946358 -0.050762545 -4.3558884
-8.6807537 0.0028972924 -4.3574333
-8.6811628 0.042892613 -4.3572822
-8.6799049 0.066092752 -4.3572173
-8.6802979 0.10609045 -4.3570666
-8.6806898 0.14608815 -4.3569155
-8.7162409 0.23478156 -4.3560514
-8.7955341 0.30667078 -4.3545794
-8.797164 0.30659446 -4.3545547
-8.8195696 0.30643663 -4.3542132
-8.8347082 0.26451719 -4.3541336
-8.8367958 0.1844362 -4.3543921
-8.839447 0.12128001 -4.3545804
-8.8377457 0.064479299 -4.3548121
-8.8311319 0.041365661 -4.3549967
-8.8072491 -0.035859529 -4.3556414
-8.936265 -0.3992742 -4.3549871
-8.9362869 -0.39930099 -4.3549871
-8.9688625 -0.43703154 -4.3546262
-8.9679413 -0.47959569 -4.354794
-8.9575348 -0.51948923 -4.3550978
-9.9583855 0.6576494 -4.3355432
-10.060092 1.2245057 -4.3319354
-9.8719807 1.2718308 -4.3346376
-9.8046541 1.2713015 -4.3356681
-9.7646799 1.2741103 -4.3362689
-9.7116652 1.2759687 -4.3370719
-9.6847134 1.2772279 -4.3374791
-9.6313095 1.276818 -4.3382964
-9.5927849 1.2744689 -4.3388934
-9.5127773 1.2727576 -4.3401217
-9.4728107 1.2756518 -4.3407221
-9.4328423 1.2785459 -4.3413219
-9.4044714 1.2794408 -4.3417521
-9.3913603 1.2791839 -4.3419533
-9.3528347 1.2768346 -4.3425508
-9.2723808 1.2676847 -4.3438129
-9.1923981 1.2684733 -4.3450317
-9.0723495 1.2621566 -4.3468885
-8.912756 1.2636727 -4.3493214
-8.7941608 1.2650137 -4.3511281
-8.7841635 1.2651123 -4.3512807
-8.7647381 1.2668325 -4.3515711
-8.7644482 1.2668833 -4.3515754
-8.71138 1.2733874 -4.3523626
-8.6328144 1.2664329 -4.3535881
-8.5517616 1.2724038 -4.3548045
-8.512888 1.2726153 -4.3553977
-8.4328556 1.2684042 -4.3566356
-8.3117867 1.2722697 -4.3584714
-8.2842417 1.2706405 -4.3588977
-8.2775154 1.2699929 -4.3590031
-8.272563 1.2700346 -4.3590784
-7.9727426 1.073047 -4.3643727
-7.8968182 0.87352681 -4.3662553
-7.8954029 0.83380014 -4.3664207
-7.8928838 0.7937662 -4.3666043
-7.9070754 0.67356426 -4.3668232
-7.865931 0.55646533 -4.3678761
-7.7703781 0.35972181 -4.3700485
-7.7698836 0.31972653 -4.3702011
-7.7698536 0.31222591 -4.3702288
-7.7429485 0.18102971 -4.3711147
-7.7413425 0.087675042 -4.3714776
-7.7339587 0.021108218 -4.3718319
-7.7408514 -0.06714505 -4.372046
-7.7627234 -0.3791762 -4.3728423
-7.7699914 -0.42909881 -4.3729124
-7.7619991 -0.45917228 -4.3731432
-8.297121 -0.71193874 -4.3658843
-7.7363997 -0.53625536 -4.3738136
-7.7558479 -1.0191368 -4.3752661
-7.8668375 -1.0811276 -4.373795
-7.906754 -1.0914357 -4.3732228
-8.3080645 -0.7532984 -4.3658667
-7.5372691 0.28264406 -4.373889
-7.5631995 0.36239809 -4.3732038
-7.5783024 0.37476999 -4.3729281
-7.6382856 0.43554714 -4.3717918
-7.7043948 0.55500585 -4.3703489
-7.7047043 0.55574435 -4.3703418
-7.7249422 0.6010564 -4.3698683
-7.7481155 0.71467173 -4.3691025
-7.760323 0.75467843 -4.3687711
-7.7628355 0.75983167 -4.3687143
-7.7870197 0.7949459 -4.3682175
-7.5059257 1.2754114 -4.3707709
-7.4978647 1.2749397 -4.3708959
-7.4189529 1.2806958 -4.3720803
-7.3789606 1.2810862 -4.3726902
-7.3389931 1.2839767 -4.3732901
-7.2993422 1.284359 -4.3738947
-7.226038 1.285293 -4.375011
-7.2186337 1.2851573 -4.3751245
-7.1860242 1.2831333 -4.3756299
-7.1460094 1.2809737 -4.3762493
-7.0993338 1.2813118 -4.3769612
-7.059001 1.2817105 -4.3775759
-7.026031 1.2819946 -4.3780785
-7.0183272 1.2821172 -4.3781958
-6.8983269 1.2807889 -4.3800335
-6.8258491 1.2887255 -4.3811121
-6.7455835 1.2869358 -4.3823447
-6.6980262 1.2827497 -4.3830867
-6.5343747 0.76430738 -4.387465
-6.4879975 0.69226694 -4.3884344
-6.4879165 0.61155361 -4.3887281
-6.4921727 0.57221657 -4.3888059
-6.4915929 0.5322234 -4.3889594
-6.0574474 0.25520593 -4.3965955
-6.0488381 0.25903761 -4.3967133
-6.0175176 0.26304588 -4.3971772
-5.9775667 0.26838592 -4.397768
-5.9488339 0.257514 -4.3982463
-5.9529581 0.19781888 -4.3983998
-5.9669871 0.097325616 -4.3985496
-5.9240994 -0.24192604 -4.400434
-5.8832397 -0.30904573 -4.4013014
-5.8423629 -0.40241572 -4.4022641
-5.6011281 -0.53890806 -4.4064441
-5.2349596 -0.23772421 -4.4109468
-5.1650562 -0.22473359 -4.4119673
-5.1250319 -0.21493842 -4.4125433
-5.1107092 -0.21286324 -4.4127545
-5.044939 -0.22937626 -4.4138193
-5.0248895 -0.23673552 -4.4141521
-4.9647546 -0.27082765 -4.4151945
-4.9246035 -0.29304579 -4.4158883
-4.9236999 -0.42303932 -4.4163733
-4.6419706 -0.66154754 -4.4215412
-4.6141095 -0.71385187 -4.4221563
-4.3594503 -1.0415785 -4.4272342
-4.119863 -0.98974502 -4.4307065
-4.0173507 -0.62917757 -4.4309664
-4.0478525 -0.5496347 -4.430212
-4.003418 -0.46930763 -4.4305997
-3.9812467 -0.42892435 -4.4307923
-3.9317603 -0.34881994 -4.4312582
-3.9243309 -0.33876786 -4.431335
-3.882391 -0.26573062 -4.4317112
-3.9128861 0.15632486 -4.4297161
-4.0108685 0.23626614 -4.4279299
-4.0117064 0.51625931 -4.4269023
-3.9946649 0.66880941 -4.42661
-3.9946473 0.67627084 -4.4265833
-3.9947026 0.6813091 -4.4265642
-3.9549255 0.75642389 -4.4268999
-4.0763121 1.2360113 -4.4233079
-4.3162832 1.2951056 -4.4194279
-4.4372506 1.2932608 -4.4175863
-4.5162635 1.2969906 -4.4163656
-4.5972214 1.2975798 -4.4151268
-4.6364307 1.2973847 -4.4145284
-4.677206 1.2997391 -4.413897
-4.7571917 1.3018987 -4.4126673
-4.8363571 1.2940336 -4.4114866
-4.9158068 1.3053513 -4.4102316
-4.9964142 1.2957195 -4.4090352
-5.1543908 0.75238258 -4.4085903
-5.1963987 1.2250162 -4.4062362
-5.3569717 1.291845 -4.4035411
-5.4189415 1.2927295 -4.4025908
-5.4982433 1.2919648 -4.4013824
-5.5392585 1.2915498 -4.4007573
-5.578227 1.2911838 -4.4001632
-5.626296 1.2964038 -4.3994098
-5.6982026 1.2900124 -4.3983345
-5.7385845 1.2946134 -4.3977008
-5.7786007 1.2967228 -4.3970819
-5.8182273 1.2938405 -4.3964872
-5.8579021 1.295958 -4.3958731
-5.8782635 1.2982545 -4.3955541
-5.9460874 1.3062108 -4.3944888
-5.9793401 1.3047533 -4.3939862
-6.0186009 1.2993795 -4.3934059
-6.0660453 1.3026901 -4.3926692
-6.1382599 1.3007158 -4.391573
-6.1785688 1.2978175 -4.3909678
-6.218195 1.2949351 -4.3903728
-6.2581873 1.2945447 -4.3897634
-6.299139 1.2941313 -4.3891392
-6.3088593 1.2940403 -4.3889909
-6.3784556 1.2883652 -4.3879485
-7.531673 0.24271816 -4.3741193
-7.520998 0.16280672 -4.3745718
-7.5566626 0.12181916 -4.3741755
-7.3227239 -0.37504923 -4.3795495
-7.013907 -0.49215746 -4.3846917
-7.0010862 -0.48953778 -4.3848777
-6.986412 -0.49189955 -4.3851104
-6.9449821 -0.5715152 -4.3860321
-6.7189279 -0.72439986 -4.3900394
-6.6438961 -0.72869623 -4.391201
-6.2935348 -0.30091313 -4.3950038
-6.2937336 -0.27841532 -4.3949194
-6.3661509 0.0089364499 -4.3927717
-6.6085 0.17106137 -4.3884821
-6.623992 0.21091017 -4.3881011
-6.6151586 0.33100125 -4.3878007
-6.6205463 0.37095022 -4.3875737
-6.6024914 0.57113457 -4.3871245
-6.5735135 0.69142443 -4.3871312
-9.9181786 0.49799576 -4.3367357
-9.9185219 0.53798789 -4.3365855
-9.9287367 0.57792509 -4.3362846
-9.9025574 0.37408674 -4.3374233
-8.3324223 -0.67221022 -4.365201
-8.4300766 -0.65046293 -4.3636303
0 0 0 1 0 0 0 1 0 0 0 1 0 0 0 0 0 801 1 0 0
