ply
format ascii 1.0
comment PCL generated
element vertex 546
property float x
property float y
property float z
element camera 1
property float view_px
property float view_py
property float view_pz
property float x_axisx
property float x_axisy
property float x_axisz
property float y_axisx
property float y_axisy
property float y_axisz
property float z_axisx
property float z_axisy
property float z_axisz
property float focal
property float scalex
property float scaley
property float centerx
property float centery
property int viewportx
property int viewporty
property float k1
property float k2
end_header
0.87070227 1.314199 2.7909207
0.84783363 1.3677461 2.7996666
0.8077116 1.3870368 2.8032951
0.72753525 1.4158587 2.8090196
0.60575819 1.4584968 2.8175354
0.52811003 1.4620728 2.8192601
0.44635057 1.4614205 2.8203826
0.39631653 1.4477079 2.8189805
0.2466135 1.4411469 2.8201938
0.20750093 1.4446149 2.8213241
0.16660786 1.4455709 2.8220868
0.047472954 1.4559028 2.8254933
0.016559601 1.4593556 2.8264985
0.0015649796 1.4592702 2.8267097
-0.28374195 1.4616547 2.8313587
-0.36356592 1.4626756 2.832715
-0.39320517 1.4652464 2.8335626
-0.40310144 1.4659793 2.8338258
-0.44379187 1.4607172 2.8336098
-0.56382847 1.3956032 2.8251901
-0.68310928 1.3856514 2.8254154
-0.72410154 1.3781545 2.8248532
-0.76484203 1.3725197 2.8245792
-0.88691425 1.3567328 2.823931
-0.99196959 1.374481 2.8282902
-1.1640391 1.3894598 2.8332193
-1.2044177 1.3815498 2.832583
-1.284379 1.3741286 2.8326163
-1.4439759 1.4013309 2.8392766
-1.6034114 1.3479631 2.8332903
-1.6454375 1.3476663 2.8338735
-1.7237811 1.3472803 2.8349869
-1.8442223 1.3832216 2.8424318
-1.9640157 1.374428 2.8428466
-2.0837765 1.3757739 2.8448524
-2.110816 1.3790927 2.8457782
-2.2832475 1.3715608 2.8471799
-2.3236423 1.3709741 2.8476932
-2.4042296 1.3712916 2.8489504
-2.4452147 1.3731048 2.8498492
-2.4989982 1.3726678 2.8505864
-2.5634255 1.3766863 2.8521824
-2.7438223 1.3731179 2.8543253
-2.8859766 1.3751812 2.8567791
-2.9817502 1.369108 2.8572612
-3.0259328 1.3750129 2.8588498
-3.1555269 1.3692336 2.8598847
-3.1933804 1.3748114 2.8613272
-3.2641425 1.3590021 2.8599064
-3.3441596 1.3288624 2.8563755
-3.4807017 1.1989768 2.8380382
-3.4805946 1.1595396 2.8318477
-3.8677979 0.83177787 2.7862134
-3.9477921 0.84144777 2.7889295
-4.0277915 0.8535592 2.7920289
-4.0578017 0.8632893 2.7940056
-4.0678129 0.87060195 2.7953031
-4.1203594 0.90227878 2.8010616
-4.5863261 1.0235035 2.8270674
-4.8273125 1.3002672 2.8741109
-5.0012794 1.3412874 2.8831549
-5.057766 1.3475764 2.8849883
-5.1776948 1.33707 2.8851364
-5.2976503 1.3314459 2.8860512
-5.3377481 1.3295109 2.8863482
-5.4176846 1.3145101 2.8851919
-5.4576783 1.3143315 2.8857632
-5.5373163 1.3102584 2.8863173
-5.6176291 1.3062956 2.8868988
-5.6570959 1.3034468 2.887043
-5.6976004 1.3010576 2.887275
-5.737411 1.296991 2.8872333
-5.8300805 1.3004665 2.8891673
-5.8575764 1.3003436 2.88956
-5.8975878 1.3050466 2.8908975
-5.9374447 1.3079636 2.8919525
-5.9775925 1.309571 2.8928063
-6.0175958 1.3118331 2.8937607
-6.0575895 1.3116548 2.8943319
-6.0975838 1.3114762 2.8949032
-6.1774721 1.3186893 2.8972321
-6.2176089 1.3231442 2.8985326
-6.3375254 1.3323503 2.9017742
-6.3774929 1.3272207 2.9015679
-6.4574804 1.3267267 2.902689
-6.5775471 1.3190973 2.9032907
-6.6175499 1.3213596 2.9042451
-6.6970367 1.3165584 2.9046826
-6.777483 1.3084424 2.9046144
-6.937222 1.2895832 2.9040482
-6.9773932 1.2904656 2.9047885
-7.0173788 1.2878463 2.9049766
-7.0573726 1.2876679 2.9055479
-7.1372032 1.2907901 2.907234
-7.2173209 1.2852464 2.9075646
-7.2573605 1.291657 2.9091704
-7.3373566 1.2937407 2.910696
-7.4168186 1.292582 2.911705
-7.4573221 1.2883241 2.9116435
-7.4771152 1.287272 2.9117751
-7.5171084 1.2870257 2.9123356
-7.5771341 1.288074 2.9133995
-7.6771612 1.3006865 2.9168775
-7.7572274 1.3148406 2.9202986
-7.9159927 1.3180652 2.9231834
-7.9572477 1.3233726 2.9246345
-8.1171312 1.3052988 2.9241939
-8.1745176 1.2854154 2.9219332
-8.2295094 1.2850766 2.922704
-8.3569889 1.284291 2.9244909
-8.5166159 1.2896748 2.9277275
-8.6219473 1.2826581 2.9282045
-8.676939 1.2823192 2.9289753
-8.7570696 1.3086789 2.9343128
-8.8358908 1.3204973 2.9373484
-8.9158697 1.3176305 2.938097
-9.0370121 1.3045125 2.9378533
-9.1569681 1.2988908 2.9387686
-9.3569613 1.3025405 2.942338
-9.4772444 1.2909241 2.9423172
-9.5173159 1.3053243 2.9451776
-9.796958 1.3120353 2.9504206
-9.8444633 1.3141837 2.9514697
-9.9173317 1.3175066 2.953083
-10.013278 1.320477 2.9549868
-10.173278 1.3243887 2.957998
-10.253179 1.2987436 2.9551706
-10.302035 1.3074942 2.9572759
-10.630089 0.96344525 2.9081993
-10.623107 0.912525 2.9001038
-10.612688 0.83445549 2.887696
-10.616904 0.76224518 2.8764272
-10.612422 0.71130979 2.8683667
-10.449507 0.46451733 2.8271964
-10.44974 0.45272988 2.82535
-10.088614 0.16085982 2.7741356
-10.008759 0.18576118 2.7768469
-9.6744442 0.09642756 2.7578185
-9.6719236 0.096815601 2.7578416
-9.8854771 -0.30744147 2.6976008
-9.8249788 -0.46928638 2.6712959
-9.789711 -0.52034098 2.6627555
-9.5883045 -0.65367007 2.6388142
-9.5086184 -0.66402113 2.6359956
-9.4286499 -0.6558302 2.6360829
-9.3086624 -0.66034502 2.6335766
-9.1098175 -0.54560763 2.648603
-9.0295639 -0.54026979 2.6482382
-8.6703701 -0.42309314 2.6612449
-8.6247225 -0.41089147 2.6624758
-8.6018982 -0.4047907 2.6630912
-8.5892572 -0.40210515 2.6633232
-8.5715752 -0.39864361 2.6636014
-8.5091114 -0.39337486 2.6634924
-8.4740915 -0.39804167 2.6622353
-8.3905191 -0.40183288 2.660388
-8.2705498 -0.39865071 2.65909
-8.0692463 -0.37845141 2.6592436
-8.0299339 -0.38524532 2.6575882
-7.9902673 -0.39096034 2.6560972
-7.910594 -0.39886981 2.6536622
-7.7503309 -0.38459587 2.6535008
-7.7099838 -0.38326997 2.6531043
-7.5893092 -0.37792975 2.6521342
-7.5489621 -0.37660378 2.6517377
-7.4689746 -0.3761099 2.6506169
-7.4489574 -0.37672418 2.6502204
-7.4096699 -0.37860811 2.6493361
-7.3692975 -0.38218617 2.6481698
-7.3293037 -0.381944 2.6476085
-7.2500224 -0.38358587 2.646163
-7.1699839 -0.3928681 2.643507
-7.1202683 -0.40827817 2.6403437
-6.7700186 -0.52893156 2.6161616
-6.7422161 -0.52319044 2.6166458
-6.7300839 -0.5217362 2.6166923
-6.6497688 -0.5153057 2.616498
-6.4504209 -0.46388441 2.6215806
-6.4104013 -0.46852553 2.6202528
-6.3653069 -0.487786 2.6165545
-6.2896852 -0.53998435 2.6072299
-6.2497535 -0.56224829 2.6031377
-6.289299 -0.63987857 2.5915475
-6.3290701 -0.7643792 2.5726054
-5.9664283 -1.1034377 2.513963
-5.926775 -1.1067004 2.512857
-5.8078012 -1.1189296 2.509155
-5.8877501 -1.1267388 2.5091274
-5.967751 -1.1247814 2.5106335
-6.0470581 -1.1182561 2.5128458
-6.1670518 -1.1165409 2.5149128
-6.2476811 -1.1313593 2.5137954
-6.3177085 -1.1244581 2.5159278
-6.4073796 -1.1166151 2.518502
-6.5676823 -1.1235297 2.5198188
-6.6076756 -1.1237719 2.52038
-6.6877012 -1.1169314 2.5226526
-6.7270017 -1.1126056 2.5239203
-6.7677398 -1.1076491 2.5253086
-6.9277272 -1.1061759 2.5279369
-6.9677334 -1.1039765 2.5288815
-7.0070343 -1.0996509 2.5301492
-7.2073431 -1.1043661 2.5324106
-7.2672319 -1.1242621 2.5301857
-7.2997265 -1.1244588 2.5306418
-7.4390497 -1.1134136 2.5344627
-7.4718723 -1.1195569 2.5339904
-7.5275822 -1.1195741 2.5348225
-7.5675631 -1.1222579 2.5350003
-7.6668086 -1.1127357 2.5379815
-7.7475023 -1.1153877 2.5387745
-7.8275032 -1.11344 2.5402789
-7.9874516 -1.1193106 2.5417542
-8.0674534 -1.117363 2.5432584
-8.1074848 -1.1102858 2.5449691
-8.2267342 -1.1137514 2.546212
-8.2670937 -1.1126359 2.5469916
-8.4273567 -1.1269097 2.547153
-8.546958 -1.1314545 2.5482318
-8.6273251 -1.1281445 2.5499554
-8.7469788 -1.1229234 2.5525677
-8.9671288 -1.2240977 2.539989
-9.1475964 -1.1324334 2.5570779
-9.347578 -1.1312265 2.5602636
-9.467598 -1.1246431 2.5630951
-9.5072517 -1.1213696 2.564203
-9.5863876 -1.1103547 2.5671175
-9.7401333 -1.1116765 2.5692136
-9.8275681 -1.1219826 2.5689063
-9.8875313 -1.1296797 2.5685968
-9.9075031 -1.1322422 2.5684941
-9.9873981 -1.1498263 2.5669317
-10.04731 -1.1672895 2.5650887
-10.327095 -1.1337583 2.574543
-10.407372 -1.1475384 2.5735834
-10.487319 -1.1553566 2.5735543
-10.56756 -1.0747428 2.5874074
-10.647388 -1.0294662 2.5957088
-10.768786 -0.79880792 2.6337254
-10.849972 -0.38176197 2.7003891
-10.849645 -0.37580001 2.7013199
-10.849906 -0.32697082 2.7089868
-10.806614 0.041168869 2.7661104
-10.80842 0.096613556 2.7748387
-10.809311 0.29454246 2.8059132
-11.009987 0.51281089 2.843173
-11.012089 0.58573568 2.8546486
-11.008862 0.59765148 2.8564703
-10.811687 1.044606 2.9236569
-10.811858 1.0763464 2.9286406
-10.811995 1.1431742 2.9391301
-10.821642 1.2219334 2.9516344
-10.821371 1.2303548 2.9529519
-10.781284 1.245748 2.9547668
-10.648813 1.2884502 2.9594831
-10.582127 1.340296 2.9666202
-10.524562 1.4002671 2.9751692
-10.507056 1.3998709 2.9748447
-10.429569 1.4003413 2.9737575
-10.275526 1.3653088 2.9659517
-10.21176 1.3648281 2.9649208
-10.171835 1.3639553 2.9641855
-10.164404 1.362885 2.9639063
-10.021696 1.369844 2.9628601
-10.019204 1.3696694 2.9627953
-9.9554052 1.3693109 2.9617832
-9.9403553 1.3705103 2.9617457
-9.915288 1.3721364 2.9616253
-9.8808556 1.376991 2.9618714
-9.8352642 1.3733082 2.9606104
-9.7953444 1.3639574 2.9585447
-9.4757318 1.3400536 2.9500046
-9.4682131 1.3404744 2.9499578
-9.3959084 1.337549 2.9484155
-9.3307343 1.3413217 2.9480309
-9.2358284 1.3565538 2.9489994
-9.1158333 1.3548522 2.9469342
-8.9559231 1.3680437 2.9466085
-8.8359299 1.3663418 2.9445434
-8.7554417 1.3572805 2.9419155
-8.6883354 1.3452804 2.9390268
-8.3956509 1.3958154 2.9425719
-8.3028097 1.3851898 2.9395132
-8.1734161 1.3484538 2.9318094
-8.1209249 1.3487773 2.9310737
-8.108427 1.3488543 2.9308984
-8.0409374 1.3492701 2.9299526
-7.9559641 1.3522351 2.9291446
-7.9152298 1.3555124 2.9290485
-7.8360877 1.3725035 2.9305291
-7.7556887 1.3817556 2.9307766
-7.7253923 1.3882604 2.9313433
-7.4974117 1.3332112 2.9192884
-7.456655 1.3300359 2.9181795
-7.2965755 1.3409564 2.9174948
-7.216814 1.3373513 2.9157338
-7.1765542 1.3424425 2.9159296
-7.136601 1.341944 2.9152527
-7.0970368 1.3433096 2.9148741
-7.0167723 1.3489571 2.9145577
-6.9944139 1.3464122 2.9138234
-6.8866138 1.3529382 2.9132323
-6.776535 1.3464022 2.9105573
-6.6618195 1.342268 2.9081895
-6.629468 1.3480406 2.9086108
-6.601656 1.3542097 2.909162
-6.5911756 1.354624 2.9090703
-6.497056 1.3681571 2.9097836
-6.4567552 1.3768225 2.9105396
-6.3367815 1.3797987 2.909209
-6.2568021 1.3825963 2.9084496
-6.1770864 1.3647034 2.9044473
-6.0962639 1.3574934 2.9021049
-6.0561819 1.3432779 2.8992734
-5.9761291 1.3315644 2.8962357
-5.9361224 1.3293698 2.895292
-5.8966575 1.3280668 2.8944962
-5.8560958 1.3225393 2.8930209
-5.8285871 1.3202677 2.8922522
-5.7766323 1.3163989 2.8908668
-5.736062 1.3135142 2.889806
-5.6966352 1.3143151 2.8893411
-5.6161203 1.3215795 2.8892746
-5.5761266 1.3218262 2.8887141
-5.5561299 1.3219497 2.8884339
-5.5286341 1.3221197 2.8880486
-5.4961519 1.3247614 2.8879764
-5.4561582 1.3250086 2.8874159
-5.4170532 1.3266027 2.8870802
-5.3362823 1.3452809 2.8888011
-5.2966809 1.3517733 2.8892267
-5.2563725 1.3604236 2.8899803
-5.1863966 1.3632972 2.8893826
-5.1364307 1.3684888 2.8894486
-5.1052327 1.3741696 2.8898728
-5.0652595 1.3815424 2.8904309
-4.9861221 1.3927705 2.8910072
-4.8661017 1.3636165 2.8846335
-4.7461586 1.3735268 2.8843918
-4.6820116 1.3822954 2.8848066
-4.5470533 1.3824577 2.8828099
-4.499568 1.3825147 2.8821073
-4.1601772 1.3271191 2.8683288
-4.0887485 1.2896469 2.861378
-4.0786738 1.2505944 2.8550985
0.87926006 1.0348501 2.746954
0.886518 1.1971747 2.7723191
0.88097239 1.2752194 2.7846498
-0.28830576 -1.1498854 2.4215956
-0.077971935 -1.1098933 2.4247198
0.076944828 -1.0719619 2.4283514
0.11925936 -1.0730422 2.4275477
0.24006557 -1.0624909 2.4273934
0.32016945 -1.0765028 2.4239943
0.3595314 -1.0892136 2.4214098
0.40025187 -1.0880711 2.420979
0.52011061 -1.0748756 2.4212539
0.52151155 -1.0659099 2.4226398
0.55710506 -0.72997075 2.4748259
0.59736538 -0.62262201 2.4910688
0.5962925 -0.58958209 2.4962699
0.62946749 -0.29029441 2.5427403
0.6767869 -0.21211886 2.5542996
0.67502928 -0.18009177 2.5593519
0.71310854 0.055910558 2.5958176
0.72493076 0.1773859 2.6147037
0.78032207 0.4035455 2.6493652
0.78070498 0.49852183 2.6642642
0.78565979 0.53757882 2.6703191
0.79057169 0.61569047 2.6825037
0.7930274 0.65474635 2.688596
0.79375458 0.69982475 2.6956594
0.79293966 0.73285574 2.700855
0.79189634 0.82301146 2.715019
0.79530907 0.85002095 2.7192063
0.80022001 0.92813259 2.731391
0.79494953 1.0243098 2.7465632
0.79836178 1.0513194 2.7507508
0.44482517 1.3771009 2.8071733
0.40561342 1.3782248 2.8079371
0.2856431 1.3830523 2.8104923
0.1329813 1.4205809 2.8186691
0.12048483 1.4205751 2.8188553
0.087217808 1.4194186 2.8191724
0.00012731552 1.4079626 2.8186796
-0.06734848 1.4075782 2.8196301
-0.27495718 1.3718934 2.8171408
-0.31494522 1.3718755 2.8177371
-0.47164202 1.3602114 2.8182547
-0.48581457 1.3563859 2.8178666
-0.56618071 1.3484278 2.817822
-0.6061492 1.3386137 2.8168807
-0.68607473 1.3141022 2.8142316
-0.84719992 1.3151093 2.8168039
-0.96660995 1.3190618 2.8192134
-1.0471683 1.3047302 2.8181713
-1.0863385 1.3033164 2.8185363
-1.1271386 1.3021922 2.8189714
-1.2059221 1.3183596 2.8226888
-1.3262777 1.3103523 2.8232358
-1.3658571 1.3108428 2.8239057
-1.4062476 1.3078146 2.8240356
-1.7260621 1.0733335 2.7920303
-1.9677415 0.71252346 2.7390292
-2.0079067 0.59718513 2.7215309
-2.0074639 0.37500522 2.6866572
-1.9681196 0.28852364 2.6724961
-1.9677386 0.27648142 2.6706007
-1.9529393 0.19576325 2.6577117
-1.888356 0.017621487 2.628788
-1.888274 -0.026328862 2.6218896
-1.8872976 -0.058709711 2.6167934
-1.8877494 -0.062052786 2.6162755
-1.8818173 -0.37198317 2.567549
-1.3686123 -0.36865962 2.5603809
-1.3510904 -0.38329077 2.5578222
-1.428658 -0.80122823 2.4933972
-1.7694509 -1.1633806 2.4416704
-1.9685848 -1.1576548 2.4455528
-2.0885475 -1.1577854 2.4473298
-2.2089481 -1.1413538 2.4517124
-2.448585 -1.077601 2.4653077
-2.5293589 -1.0860727 2.4651885
-2.5685432 -1.080173 2.4667015
-2.6868985 -1.0684171 2.4703197
-2.8739486 -1.0246534 2.4799902
-2.9538927 -1.0369735 2.4792547
-2.9936795 -1.0378871 2.4797075
-3.1537757 -1.0592415 2.4787552
-3.1945307 -1.0705421 2.4775925
-3.3129411 -1.0555837 2.481714
-3.4329047 -1.0557818 2.4834805
-3.514415 -1.0783825 2.4811552
-3.6320767 -1.0448771 2.4881761
-3.7927961 -1.0563755 2.4887798
-3.8335512 -1.0676758 2.487617
-4.1134729 -1.0657003 2.4921212
-4.153461 -1.0657663 2.4927101
-4.271091 -1.0444489 2.497818
-4.3910613 -1.0422091 2.4999671
-4.4725838 -1.0599349 2.4984069
-4.6317368 -1.0611522 2.5006006
-4.7932358 -1.0790098 2.5002179
-5.0475297 -1.1205912 2.4975028
-5.2076063 -1.1020267 2.5028145
-5.3278766 -1.116024 2.5024199
-5.6074929 -1.1142144 2.5068936
-5.6474991 -1.1120148 2.5078382
-5.7274742 -1.1149406 2.5085773
-5.6468315 -1.1025639 2.5093114
-5.6065106 -1.0963757 2.5096784
-5.3275495 -1.1100781 2.5033484
-5.2869134 -1.0955017 2.5050268
-5.1108241 -1.0507095 2.5094178
-5.0308356 -1.0554528 2.5074749
-4.8716578 -1.0639858 2.5037508
-0.042063236 -0.33130229 2.5463669
0.078456402 -0.70291632 2.4862435
-0.28845215 -1.0717514 2.4338593
-0.32922459 -1.0875049 2.431998
-0.5260582 -1.1142688 2.4307473
-0.60749388 -1.0954564 2.4349196
-0.64585638 -1.09338 2.4358203
-0.6874733 -1.0931015 2.4364877
-0.75576925 -1.0917931 2.4377162
-0.81075191 -1.0918529 2.4385307
-0.88577223 -1.0985241 2.4386077
-0.96575165 -1.0961697 2.4401758
-1.0115094 -1.1192534 2.4372387
-2.0440409 0.58112192 2.7195513
-2.0476074 0.64445573 2.7295439
-2.0075831 0.79283917 2.7522302
-2.0074325 0.79395652 2.7524033
-1.9422445 1.0730734 2.7952285
-2.2468324 1.3228192 2.8389852
-2.5773575 1.2285681 2.8291469
-2.7458994 1.1502364 2.8193796
-2.8897073 0.79252321 2.765398
-2.8218036 0.64958119 2.7419484
-2.8250799 0.53350556 2.7237816
-3.193433 0.22737814 2.6812601
-3.233264 0.15918306 2.671155
-3.2659914 0.077549562 2.6588345
-3.2680483 0.071401969 2.6579006
-3.1534181 -0.27232391 2.6022418
-3.1434021 -0.27962011 2.6009467
-3.1533444 -0.35883182 2.5886648
-3.1124625 -0.55059308 2.5579588
-3.1129503 -0.55456764 2.5573425
-3.1176043 -0.59158999 2.5516024
-2.7511041 -0.90639013 2.4967089
-2.6071782 -0.93159562 2.4905968
-2.5926809 -0.9310326 2.490468
-2.5272079 -0.92906696 2.4897954
-2.2882457 -0.84929031 2.4987345
-2.0893168 -0.82683021 2.4992783
-1.8867152 -0.37124568 2.5677381
-1.9722986 -0.09861204 2.6118052
-2.0070312 0.15770836 2.6525502
-2.0081487 0.17221873 2.654844
-2.007138 0.2114222 2.6609812
-2.0080192 0.24452786 2.6661897
-2.0458333 0.40677971 2.6922185
-2.0459914 0.44772723 2.6986468
-3.6319213 0.1286633 2.6723387
-3.7511489 0.15188771 2.6777699
-3.9504344 0.20666882 2.6893528
-4.0303659 0.18947378 2.6878519
-4.0952206 0.14061481 2.6811562
-4.0983992 0.09525004 2.6740847
-4.0878987 -0.099740416 2.6433272
-4.0703363 -0.33809185 2.6056592
-4.070416 -0.40345639 2.5954027
-4.0704241 -0.45827574 2.5868001
-4.1108546 -1.0194645 2.4993379
0.78952789 0.70584619 2.6966677
0.49318266 0.36531168 2.6476674
0.48570251 0.36282915 2.6473899
0.33163118 0.33749083 2.6457222
0.25258493 0.33341169 2.6462665
0.21259928 0.33318391 2.6468298
0.17261362 0.33295617 2.6473932
0.13178968 0.3241531 2.6466234
0.086326599 0.26408598 2.6378782
0.10192585 0.18605749 2.6253994
0.11471939 0.15194568 2.6198545
0.12793779 0.068957344 2.6066329
-0.073855877 -0.26261425 2.5576227
-0.88841152 -1.2121098 2.4208221
-0.96672916 -1.1999388 2.4239058
-1.0467043 -1.2000258 2.4250903
-1.0866914 -1.2000692 2.4256828
-1.0863719 -1.1803772 2.4287682
-4.6332903 -1.0763083 2.4982452
-4.4733515 -1.0711691 2.4966555
-4.3933883 -1.0661621 2.496243
-0.80799818 -1.2285845 2.417032
-0.72641611 -1.2166111 2.4176886
-0.70806551 -1.2089424 2.418617
-0.60733461 -1.1809154 2.4215062
-0.52769279 -1.1659653 2.4226589
-0.46580362 -1.1517849 2.4239569
-0.36952305 -1.1393538 2.4244652
-3.591836 0.12952417 2.6718731
-3.4243517 0.67058599 2.7542729
0.79535246 0.81096625 2.7130768
0 0 0 1 0 0 0 1 0 0 0 1 0 0 0 0 0 546 1 0 0
