ply
format ascii 1.0
comment PCL generated
element vertex 530
property float x
property float y
property float z
element camera 1
property float view_px
property float view_py
property float view_pz
property float x_axisx
property float x_axisy
property float x_axisz
property float y_axisx
property float y_axisy
property float y_axisz
property float z_axisx
property float z_axisy
property float z_axisz
property float focal
property float scalex
property float scaley
property float centerx
property float centery
property int viewportx
property int viewporty
property float k1
property float k2
end_header
0.30000162 -1.0871147 -1.0492537
0.34276485 -1.0705136 -1.0588757
0.37299776 -1.0314504 -1.0634282
0.27164268 -1.0088971 -1.0355265
0.02709198 -0.75307083 -0.95162261
0.020508766 -0.71522725 -0.94681525
0.096218586 -0.30051792 -0.93212581
0.11462307 -0.26172149 -0.93366086
0.34907579 -0.076854832 -0.97868645
0.37830448 0.057309031 -0.97515094
0.39544535 0.091212198 -0.97676432
0.39718246 0.10094078 -0.97640967
0.40725899 0.15497975 -0.97454989
0.41621065 0.19137011 -0.97385406
0.41851521 0.21718977 -0.97232032
0.42465925 0.29989773 -0.96708953
0.46824265 0.40952742 -0.96926284
0.48890114 0.51423883 -0.96595013
0.48373556 0.58825141 -0.95852911
0.50383043 0.77621573 -0.94821703
0.50445032 0.81345731 -0.94531024
0.34582376 1.3152637 -0.86323345
0.3580265 1.3903366 -0.86018813
0.30355501 1.3871014 -0.84645724
0.27021027 1.3809748 -0.83839321
0.24061203 1.3742878 -0.83133817
0.19431019 1.3668206 -0.82005501
0.13536358 1.3683432 -0.80478227
0.072646141 1.3774748 -0.78791428
-0.049266338 1.3732324 -0.75693631
-0.21134567 1.3540568 -0.71686637
-0.45572519 1.3246294 -0.65649211
-0.57762718 1.3200252 -0.62554657
-0.68286753 1.3170217 -0.59875083
-0.82132006 1.3182712 -0.56307042
-0.8508954 1.3144904 -0.55578184
-0.90173435 1.3064873 -0.54337698
-1.018887 1.3144441 -0.51261771
-1.0806613 1.3053126 -0.49749571
-1.1553278 1.3032391 -0.47847968
-1.1999769 1.2997937 -0.4672901
-1.2378647 1.2964551 -0.45782912
-1.1880836 1.2988031 -0.47042781
-1.1242752 1.3015014 -0.48660219
-1.0662556 1.2984377 -0.50176352
-0.98578548 1.3027369 -0.52208757
-0.69778013 0.87268531 -0.63150239
-0.69881248 0.80311102 -0.63696539
-0.69921827 0.77577829 -0.63911152
-0.67352152 0.59502858 -0.66059625
-0.66317034 0.51499689 -0.66984546
-0.65858555 0.4034707 -0.68020582
-0.65891743 0.38110757 -0.68196166
-0.65577602 0.31255466 -0.68841314
-0.73596382 -0.066342585 -0.69900334
-0.79379892 -0.11800763 -0.6883955
-0.83623171 -0.15359081 -0.68042147
-0.66141844 -0.3489958 -0.74143064
-0.57450581 -0.46620905 -0.77341461
-0.52448511 -0.58961457 -0.79642868
-0.76045895 -1.0461969 -0.77338338
-0.71437073 -1.050789 -0.7856046
-0.63043165 -1.0545281 -0.80748177
-0.50029135 -1.0554055 -0.84099555
-0.45744848 -1.0370535 -0.85049367
-0.087106705 -1.1088622 -0.95157087
-0.061677456 -1.1098453 -0.95818627
0.2077117 -1.0854535 -1.0254016
-10.632655 1.3205445 1.9582889
-10.649549 1.3185174 1.9624631
-10.79711 1.2384541 1.9937891
-10.801512 1.2349395 1.9946312
-10.861198 1.1876956 2.0060787
-10.87747 1.1455508 2.0067899
-10.910574 1.0712663 2.0091805
-10.925774 0.98842645 2.0062656
-10.933316 0.94848156 2.0049152
-10.936033 0.7763629 1.9914426
-10.936845 0.70679319 1.9859231
-10.940531 0.67323929 1.9841077
-10.988872 0.51100564 1.9831724
-10.954291 0.47317815 1.9711721
-10.928228 0.079018429 1.9320222
-10.908013 0.021884754 1.9221238
-10.906566 -0.25626072 1.8988513
-10.927722 -0.29676956 1.9009525
-10.957849 -0.3477332 1.904498
-10.963682 -0.37820747 1.9034879
-10.878206 -0.4593271 1.8748449
-10.812118 -0.56257886 1.8493613
-10.757745 -0.86775744 1.8102632
-10.758358 -0.91993356 1.8061249
-10.737795 -0.97650588 1.7961832
-10.725485 -1.0544715 1.7866008
-10.684929 -1.0943012 1.7728999
-10.574993 -1.1436987 1.7405831
-10.542672 -1.1459825 1.7320899
-10.52797 -1.1457831 1.7283285
-10.516718 -1.1452821 1.7254782
-10.499402 -1.1342076 1.7219404
-10.197536 -1.1384807 1.6440197
-10.525051 -1.0807238 1.732935
-10.646266 -0.81507325 1.7859546
-10.642349 -0.77562141 1.7881963
-10.538081 -0.46892333 1.7866545
-10.085862 -0.57117152 1.6620315
-2.4187105 -0.10576899 -0.26984209
-2.2460804 -0.10055246 -0.31377256
-2.3551142 -0.27439162 -0.30006731
-2.3786001 -0.50790358 -0.31325799
-2.3309283 -0.63466042 -0.33594429
-2.058964 -1.0416743 -0.43934035
-1.9917238 -1.049431 -0.45725739
-1.8404319 -1.053473 -0.49646688
-1.7268796 -1.050914 -0.52543521
-1.7186043 -1.0538746 -0.52780539
-1.57199 -1.0656422 -0.56644905
-1.5210752 -1.0525702 -0.57845616
-1.4750245 -1.059647 -0.59087229
-1.3153832 -1.0616802 -0.63206196
-1.2100682 -1.0536761 -0.65846515
-1.1391182 -1.0646652 -0.6776017
-1.0420399 -1.051216 -0.7014401
-0.97468805 -1.0515188 -0.71877217
-0.898911 -1.0448436 -0.73769462
-5.6943946 1.2718804 0.68532085
-5.7408128 1.2787511 0.6978144
-5.8709722 1.2813532 0.73147511
-5.7252307 1.2854835 0.69436467
-5.7183304 1.2848806 0.69254196
-5.645009 1.2876482 0.67392874
-5.5695939 1.282232 0.65410376
-5.4969416 1.2715689 0.63455665
-5.6102247 1.2660282 0.66321033
-7.9147015 -1.2296709 1.0499024
-7.6380081 -1.0815051 0.99100071
-7.5006509 -1.092029 0.95483828
-7.4817843 -1.091578 0.95002735
-7.2928815 -1.0740855 0.90292609
-7.1796856 -1.0760133 0.87368
-7.0953703 -1.0694362 0.85255533
-7.0576186 -1.0684224 0.84293801
-7.0203838 -1.0647423 0.83367288
-6.6861906 -0.78797108 0.77058423
-6.6872888 -0.69531262 0.77849531
-6.9075809 -0.40302792 0.8591674
-7.1455755 -0.4113844 0.91963571
-7.2297158 -0.40305358 0.94194275
-7.2383833 -0.39517972 0.9448182
-7.0489531 -0.33296338 0.90126371
-6.9941783 -0.34574062 0.88613653
-6.9123092 -0.34668082 0.86502165
-6.8312588 -0.33142978 0.8454501
-6.4917693 -0.11628723 0.77592647
-6.4727769 -0.10584168 0.77190608
-6.3391829 0.021939695 0.74809778
-6.3097477 0.060643271 0.74372053
-6.2256951 0.044858456 0.72082233
-6.1126461 0.030507386 0.69059098
-6.0631852 0.024384066 0.6773771
-5.9165983 -0.089076228 0.63036788
-5.4875221 -0.16345078 0.51398683
-5.1959705 -0.073395647 0.4464826
-5.1581655 -0.075008169 0.43663523
-5.1162148 -0.078287505 0.42558542
-5.1091309 -0.078772627 0.42372519
-5.0700364 -0.078268416 0.41372079
-5.0617051 -0.079119563 0.41150984
-5.0215158 -0.094187781 0.39994189
-5.0162706 -0.12379029 0.39615688
-4.5636945 -0.3651489 0.25998878
-5.0338478 -0.62016177 0.35980588
-4.8558359 -1.0812113 0.27610344
-5.1629128 -1.1599493 0.34852877
-5.3946753 -1.1488836 0.40899467
-5.7141366 -1.1511853 0.49089572
-5.8948712 -1.1614099 0.5364964
-5.970356 -1.1635308 0.55571872
-6.0621357 -1.1462402 0.5807265
-6.1874533 -1.1701741 0.61095816
-6.4483652 -1.1223999 0.68193686
-6.5139813 -1.143378 0.69707078
-6.6550703 -1.1638992 0.73163623
-6.7305732 -1.1659269 0.75087082
-6.8525233 -1.1635792 0.78240108
-6.890275 -1.1645931 0.79201841
-6.9280553 -1.1680915 0.80143863
-7.1644011 -1.2656872 0.85413599
-7.2399626 -1.2726842 0.87297648
-7.2666292 -1.2765392 0.87951148
-7.6108513 -1.2365788 0.97125465
-7.6866322 -1.2801397 0.98714119
-7.7370825 -1.2828819 0.99987942
-7.8637352 -1.315389 1.0297484
-7.8722606 -1.3168025 1.0318228
-7.8938522 -1.3189632 1.0371931
-7.9316034 -1.3199819 1.0468102
-7.9727831 -1.325827 1.0569105
-8.0464935 -1.3224907 1.0761263
-8.1800709 -1.3312162 1.1097326
-8.3108482 -1.3287367 1.1435421
-8.3599567 -1.3268075 1.15632
-8.4161167 -1.2885823 1.1738983
-8.7233543 -1.1110564 1.267464
-8.6653318 -1.1056626 1.2529984
-8.5724373 -1.1144352 1.2284052
-8.4416733 -1.1122507 1.1949835
-8.421402 -1.1078756 1.1901345
-8.3924341 -1.1089056 1.1826061
-8.3837376 -1.1143106 1.1799264
-8.0189381 -1.2108018 1.0782413
-4.4435883 -0.31269217 0.23344457
-4.413991 -0.30600521 0.22638956
-4.2983108 -0.32528532 0.19507645
-4.2841597 -0.32744172 0.1912626
-4.1326504 -0.31651247 0.15322971
-4.0948038 -0.31564227 0.14357617
-4.0487499 -0.32307148 0.13113016
-3.9825182 -0.32154858 0.11423635
-3.6962576 0.038890943 0.070353359
-3.6938508 0.041428089 0.069943815
-3.6854777 0.043059707 0.067926556
-3.6558802 0.049746618 0.060871601
-3.457284 0.11531742 0.015237927
-3.4191892 0.1310827 0.0067468882
-3.3815081 0.12202187 -0.0036818683
-3.3661213 0.11885108 -0.0078967512
-3.1256392 0.0017289072 -0.079335392
-2.9228497 -0.33282453 -0.15899003
-2.8808095 -0.36412153 -0.1723696
-2.4355321 -0.12353466 -0.26698226
-1.7003877 1.2866515 -0.33978391
-1.5407455 1.2846551 -0.38097078
-1.4649701 1.2913322 -0.39989269
-1.3809927 1.2901131 -0.42157239
-1.3514173 1.2938937 -0.42886096
-1.4140208 1.3067899 -0.41171223
-1.5357015 1.3170944 -0.37959617
-1.6097412 1.3477159 -0.35804933
-1.6154518 1.350037 -0.35639083
-1.6777692 1.3765844 -0.33819169
-1.7037153 1.3777504 -0.33142841
-1.8309395 1.4190996 -0.29533178
-1.8534093 1.4217062 -0.2893433
-1.9480276 1.4257988 -0.26469272
-2.0341213 1.4381311 -0.2415542
-2.0719724 1.4372773 -0.23189813
-2.1311233 1.4297161 -0.21732092
-2.2319186 1.413168 -0.19278252
-2.3162553 1.3957664 -0.17254359
-2.3541064 1.3949127 -0.16288745
-2.3919573 1.3940587 -0.15323144
-2.4214959 1.3927629 -0.14574772
-2.459347 1.3919091 -0.13609159
-2.5350487 1.3902016 -0.11677951
-2.7134025 1.387972 -0.071132302
-2.7325788 1.3888593 -0.066131711
-2.7704296 1.3880054 -0.05647558
-2.7973862 1.3895655 -0.049420267
-2.8352325 1.3886954 -0.039766729
-2.9109256 1.3869549 -0.020459503
-2.948772 1.3860846 -0.010805994
-3.0499969 1.3546215 0.012614876
-3.0883915 1.3364761 0.020987004
-3.2649677 1.3081341 0.064027458
-3.2944827 1.3064127 0.071470022
-3.3619266 1.2988555 0.088178605
-3.2779431 1.297262 0.0664666
-3.2696116 1.2964109 0.064255565
-3.1940427 1.2907029 0.044367045
-3.1478643 1.2907221 0.032502413
-3.1183496 1.2924435 0.025059849
-3.0722127 1.2899798 0.013001472
-2.9740372 1.2887127 -0.012330592
-2.9503419 1.2917393 -0.018170267
-2.8746901 1.2909971 -0.037671268
-2.7905829 1.296852 -0.05880183
-2.7339063 1.2994066 -0.073155403
-2.6770022 1.3019454 -0.08756876
-2.5907042 1.3107182 -0.10902208
-2.5528903 1.3090873 -0.11887324
-2.4522514 1.3094689 -0.14470243
-2.401376 1.3199569 -0.15691221
-2.3256738 1.3216645 -0.17622441
-2.2547581 1.3083264 -0.19554543
-2.1330037 1.3029915 -0.22727132
-2.0655773 1.3076259 -0.24421602
-1.859993 1.2911326 -0.29840195
-1.8139036 1.2865747 -0.31062061
-6.1726661 -0.42317247 0.66866124
-6.3882155 -0.70728779 0.70065784
-6.1068392 -1.0564913 0.599603
-5.7854156 -0.93765754 0.52679229
-5.7461209 -0.66272134 0.5393312
-9.4495163 -0.81196707 1.4786873
-9.4428844 -0.80670363 1.4774165
-9.2092094 -0.33411723 1.4562796
-9.2020435 -0.32647249 1.4550675
-9.0442924 -0.29308212 1.4172802
-8.9750977 -0.28309137 1.400322
-8.9203625 -0.32766682 1.382587
-8.9345207 -0.36782598 1.3829188
-8.9935417 -0.53331244 1.3844601
-8.998991 -0.59555429 1.3807358
-9.005661 -0.65069175 1.3779101
-9.0072079 -0.69264382 1.3748536
-9.0067177 -0.8515932 1.3616408
-8.7988281 -1.1106093 1.2868948
-8.9004774 -1.1014007 1.3137735
-8.9962816 -1.110298 1.3376594
-9.0928154 -1.0955164 1.3636819
-9.1935883 -1.0975636 1.3894086
-9.2488194 -1.0952262 1.4037936
-9.6078434 -1.1668046 1.4901569
-9.7951984 -1.1384318 1.5406367
-9.4837723 -0.84553134 1.4847263
0.064976692 0.6196534 -0.84833717
-0.46359301 0.54133976 -0.718961
-0.50728559 0.70740926 -0.69406044
-0.48607349 0.86189353 -0.68679202
-0.47391176 0.96712375 -0.68125331
-0.4704051 1.0632991 -0.67423594
-0.18456745 1.3332905 -0.72545719
-0.10033607 1.3465936 -0.74600649
-0.032851219 1.3566335 -0.76252115
0.02174139 1.360767 -0.77620924
0.2944746 0.89981008 -0.88424408
0.14087248 0.69629359 -0.86152983
-10.628681 0.54984313 1.8938136
-10.562453 0.23998185 1.8512836
-10.510376 0.033246413 1.8208803
-10.503418 0.014539614 1.8175522
-10.543697 -0.17329909 1.8124374
-10.529018 -0.25376496 1.8020401
-10.167597 -0.45139384 1.6928962
-10.131599 -0.45976585 1.6829566
-10.122873 -0.4626863 1.6804739
-10.104347 -0.49199188 1.6733007
-10.081689 -0.5708617 1.6609845
-9.9871035 -1.128817 1.5907413
-9.9410162 -1.1309867 1.5787199
-9.8985233 -1.1285963 1.5679976
-9.8275185 -1.136148 1.54913
-4.2171316 -1.0806233 0.11202699
-4.3768077 -1.0807703 0.15304607
-4.4689574 -1.0683945 0.17774424
-4.4478154 -1.0683048 0.17231891
-4.4100518 -1.0724001 0.16227782
-4.2503753 -1.0722531 0.12125862
-4.1663098 -1.068881 0.09993431
-4.0554881 -1.0562736 0.072494984
-3.7813618 -0.65398091 0.035176039
-4.1122923 -0.4096781 0.14032787
-4.2811522 -0.36614186 0.18730348
-4.4061136 -0.33416682 0.22204675
-4.5591893 -0.36394387 0.25893027
-4.5414453 1.2854943 0.39017388
-4.417397 1.2613844 0.35631266
-4.2199979 1.2549533 0.30505854
-4.1058388 1.2948056 0.27900475
-4.1520171 1.2947865 0.29086936
-4.1981125 1.2997328 0.30312154
-4.2441669 1.3071622 0.31556755
-4.3955526 1.3036813 0.35418183
-4.4582701 1.3128127 0.37104988
-4.5298433 1.3108628 0.38928124
-4.6095734 1.3142972 0.41005185
-4.6812472 1.3074477 0.42790562
-4.7190609 1.3090787 0.43775672
-4.794837 1.3024014 0.45667866
-4.8533568 1.3082955 0.47220156
-4.8828306 1.3090569 0.47983795
-4.92905 1.3065549 0.49150875
-5.0047426 1.3048145 0.51081586
-5.0425892 1.3039442 0.52046949
-5.0468054 1.3035741 0.5215224
-5.1183238 1.299721 0.53958285
-5.1562109 1.2963679 0.54904258
-5.1857672 1.2921638 0.55629128
-5.1983566 1.2902197 0.55936629
-5.2507715 1.2787558 0.57189119
-5.3027196 1.272323 0.58471042
-5.2617364 1.2722763 0.57417542
-5.2529821 1.2718405 0.57188994
-5.1687546 1.2709575 0.55017364
-5.0932221 1.2754796 0.53113681
-4.9841652 1.2931627 0.50456887
-4.9084635 1.2948704 0.48525673
-4.8579593 1.2990551 0.47262347
-4.8327246 1.2990627 0.46613961
-4.7740588 1.2924961 0.45052391
-4.6604366 1.3000722 0.4219507
-1.6192741 -1.1405586 -0.56046677
-1.7706776 -1.1439704 -0.52184224
-1.8416276 -1.1329814 -0.50270581
-1.8794787 -1.1338345 -0.49304962
-1.9173295 -1.1346874 -0.48339349
-2.1278856 -1.1457263 -0.43019676
-2.2958388 -1.1432171 -0.38683206
-2.3715405 -1.1449231 -0.3675198
-2.4093916 -1.1457762 -0.35786361
-2.4637921 -1.1407081 -0.3434673
-2.5312192 -1.1453745 -0.32652509
-2.6069207 -1.1470805 -0.30721289
-2.6447718 -1.1479335 -0.2975567
-2.6760361 -1.1478384 -0.28951502
-2.751729 -1.1495789 -0.27020794
-2.8735175 -1.1463729 -0.23864853
-2.9492517 -1.1505961 -0.21953517
-3.0793715 -1.1465391 -0.18576485
-3.1467743 -1.1516134 -0.16886246
-3.2224674 -1.1533539 -0.14955533
-3.2851849 -1.1442224 -0.13268727
-3.3313217 -1.1417587 -0.12062889
-3.4070144 -1.143499 -0.10132176
-3.4661269 -1.1519076 -0.086824238
-3.503973 -1.1527777 -0.07717067
-3.5205538 -1.1461098 -0.072360992
-3.6680498 -1.1331713 -0.033394426
-3.8810868 -1.2139635 0.014696807
-4.0657043 -1.0746595 0.073606431
-3.4838388 1.2946131 0.11915651
-3.4376194 1.297115 0.10748571
-3.4755073 1.2937621 0.11694548
-3.6978183 1.307712 0.17522022
-3.6497328 1.2969666 0.16197929
-3.6139588 1.2986703 0.15292692
-3.5500929 1.3001388 0.13663647
-3.5891335 1.3027657 0.1468848
-9.8417053 -1.1390146 1.5525392
-9.8674297 -1.1415644 1.5589397
-9.9085407 -1.1489418 1.5688963
-9.9274025 -1.1469703 1.5739055
-9.9462328 -1.1449913 1.5789073
-9.9872274 -1.1424303 1.5896523
-10.075558 -1.1383448 1.6126864
-10.171331 -1.1447574 1.6367691
-10.180115 -1.1468061 1.6388575
-10.61283 0.85593891 1.9149423
-10.570211 1.0399098 1.9191377
-10.503359 1.150916 1.9110984
-10.271069 1.2748281 1.8616097
-10.178138 1.2735291 1.8376228
-10.128723 1.2818073 1.8256063
-10.044571 1.2759635 1.8035012
-9.798768 1.2788835 1.7405788
-10.042696 1.2811663 1.8034478
-10.099655 1.2857341 1.8184602
-5.3781762 1.272678 0.60412937
-5.4504938 1.2671826 0.62226009
-5.4159708 1.2666445 0.61334461
-1.4974465 -1.1409601 -0.59180534
-1.4595957 -1.1401072 -0.60146141
-1.3543174 -1.1345876 -0.62805986
-1.278616 -1.1328818 -0.64737201
-3.8113575 1.3051013 0.20418097
-3.7817602 1.3117883 0.19712602
-7.8182259 1.2720451 1.2310853
-7.7340279 1.2686431 1.2091691
-7.6585255 1.2706797 1.1899354
-7.6110191 1.270449 1.177709
-7.555788 1.2681115 1.163324
-7.4890108 1.2730694 1.1465728
-7.5162444 1.277707 1.1539527
-7.5337234 1.2811309 1.158726
-7.5627203 1.2796428 1.1660547
-7.5906897 1.2797933 1.1732543
-7.6371946 1.2792104 1.1851566
-7.6846991 1.2795421 1.1973908
-7.6934538 1.2800118 1.1996791
-7.7689266 1.2804598 1.21911
-9.0117235 1.2721132 1.5377784
-9.0493259 1.283517 1.5483797
-9.1230078 1.2996534 1.5686419
-9.0841656 1.3003025 1.5587144
-9.074728 1.300557 1.5563101
-8.9080763 1.2958823 1.5131015
-8.7647943 1.2950872 1.4762175
-8.6806259 1.2892008 1.4541045
-8.5964279 1.2857988 1.4321884
-8.5674601 1.2848024 1.4246628
-8.4830837 1.2963068 1.4039283
-8.3989458 1.2879361 1.3816185
-8.3699789 1.2869396 1.3740928
-8.294445 1.2914606 1.3550557
-8.2305794 1.2786477 1.3375895
-8.2507935 1.2791743 1.3428271
-8.3438339 1.2755929 1.3664405
-8.4193077 1.2760407 1.3858712
-8.4367867 1.2794645 1.3906448
-8.6081533 1.2634959 1.4333653
-8.7300434 1.2708485 1.4652923
-8.8229656 1.2772046 1.4896933
-8.869442 1.2791404 1.5017954
-8.8983803 1.2826211 1.5095181
-8.9738827 1.2805847 1.528752
-4.5991187 -1.0668201 0.21132088
-4.5611897 -1.0609845 0.20205489
-4.5528579 -1.0618356 0.19984381
-10.613235 0.821154 1.9121826
-9.3108816 1.2768017 1.6150376
-9.3689346 1.2688569 1.6293012
-9.5663872 1.269204 1.6800681
-9.6506443 1.2676373 1.7015902
-9.7058163 1.2750115 1.7163745
-9.7610168 1.2799016 1.7309619
-9.6767597 1.2814684 1.7094396
-9.2352905 1.2862916 1.5963944
-9.3196363 1.2772715 1.6173259
-9.357358 1.2787377 1.6271397
-10.288451 1.2806469 1.8665556
-10.233221 1.2832994 1.8525819
-10.166482 1.2807897 1.8352255
-10.407482 1.3108941 1.8996326
-10.427973 1.3134855 1.9051117
-10.494137 1.3236171 1.9229475
-3.9331875 1.3058245 0.23554653
-3.9627438 1.3016205 0.24279535
-4.0383954 1.3023627 0.26229632
-3.9710338 1.3049544 0.24520014
-0.86584902 -1.0591701 -0.74736989
-0.87416172 -1.0586944 -0.74519467
-0.97943926 -1.0642138 -0.71859634
-5.9092979 1.2780325 0.74105012
-5.8785958 1.2813449 0.73343349
-9.1974201 1.2972476 1.5875651
-9.1701183 1.3013728 1.5808892
-2.9456441 -0.43222505 -0.16131657
-3.178468 -0.49009311 -0.10625339
-2.9638493 -1.0247555 -0.20542324
0 0 0 1 0 0 0 1 0 0 0 1 0 0 0 0 0 530 1 0 0
