ply
format ascii 1.0
comment PCL generated
element vertex 237
property float x
property float y
property float z
element camera 1
property float view_px
property float view_py
property float view_pz
property float x_axisx
property float x_axisy
property float x_axisz
property float y_axisx
property float y_axisy
property float y_axisz
property float z_axisx
property float z_axisy
property float z_axisz
property float focal
property float scalex
property float scaley
property float centerx
property float centery
property int viewportx
property int viewporty
property float k1
property float k2
end_header
-11.149056 -1.1269308 -4.1773424
-11.155149 -1.1005943 -4.2159362
-11.176305 -0.87911898 -4.214076
-11.183036 -0.81216186 -4.2171454
-11.186811 -0.77249557 -4.2166638
-11.256157 -0.41105351 -4.5915432
-11.2585 -0.40937945 -4.6152267
-11.260387 -0.40769252 -4.6339426
-11.260223 -0.35150924 -4.5734348
-11.255076 -0.29083708 -4.454154
-11.213216 -0.49635315 -4.2146163
-11.200853 -0.61393601 -4.2033353
-11.184048 -0.77394044 -4.188179
-11.176901 -0.83439201 -4.1737933
-11.125854 -1.0979822 -3.8952532
-11.117974 -1.1065326 -3.8186607
-11.114327 -1.1063828 -3.7789249
-11.110917 -1.1037543 -3.7391605
-11.102086 -1.1169131 -3.6570611
-11.091619 -1.1115062 -3.5377972
-11.084326 -1.1112068 -3.4583254
-11.077505 -1.1059499 -3.378798
-11.074094 -1.1033213 -3.3390341
-11.067038 -1.1005431 -3.2595341
-11.060584 -1.0529985 -3.1397965
-11.05072 -1.0028257 -2.9802942
-11.090636 -0.48082381 -2.8679287
-11.142972 -0.27038091 -3.2160141
-11.147491 -0.2442736 -3.2377746
-11.151099 -0.21812895 -3.2496011
-11.153119 -0.20179167 -3.2544553
-11.215919 0.13453397 -3.5845273
-11.228921 0.11747039 -3.7434926
-11.242882 0.091609284 -3.9220548
-11.24522 0.056904748 -3.9837132
-11.246572 0.058058016 -3.9971671
-11.257338 0.1771304 -3.9895701
-11.299705 0.53644097 -4.0738525
-11.3478 0.67641789 -4.4495625
-11.355783 0.64125586 -4.5729642
-11.361348 0.66314185 -4.6104927
-11.362584 0.67689496 -4.6095271
-11.377792 0.87494272 -4.5675859
-11.381503 0.91415131 -4.5668826
-11.389292 0.9948042 -4.5671258
-11.404213 1.1131082 -4.6054187
-11.423297 1.2764916 -4.6417823
-11.420251 1.2855229 -4.5992804
-11.416847 1.2882175 -4.559514
-11.405214 1.2814304 -4.4403534
-11.37985 1.2868013 -4.1594386
-11.37479 1.2721466 -4.1198354
-11.356066 1.2135969 -3.9778013
-11.310276 0.84925121 -3.8616323
-11.264918 0.69180113 -3.5338917
-11.294039 1.1724247 -3.3476059
-11.294992 1.1823387 -3.3475938
-11.269137 1.1773149 -3.0722134
-11.258152 1.1025465 -3.0311306
-11.240378 0.91904187 -3.0300269
-11.234006 0.86468536 -3.0176759
-11.205905 0.57190645 -3.0186942
-11.196395 0.49378482 -2.9971299
-11.14692 0.52363348 -2.4289355
-11.139704 0.52472967 -2.3494618
-11.099578 0.21597186 -2.2366669
-11.078218 0.14065906 -2.0835402
-11.048469 0.056163695 -1.8489642
-11.047929 0.40600923 -1.4774445
-11.072857 0.72342867 -1.4162308
-11.087208 0.85640222 -1.432999
-11.094523 0.93573338 -1.4294925
-11.106115 1.0338159 -1.4527881
-11.106526 1.054708 -1.4354088
-11.104856 1.094709 -1.3754613
-11.090999 1.0550456 -1.2665266
-11.087964 1.0327549 -1.25688
-11.081541 0.93074697 -1.2937943
-11.079889 0.89279395 -1.3155307
-11.062691 0.68390459 -1.3472027
-11.030909 0.36123878 -1.3394953
-11.020449 0.29176185 -1.2985867
-11.016888 0.25472841 -1.2986494
-11.012317 0.2089358 -1.2968967
-11.006841 0.15052795 -1.2985117
-11.004662 0.12895328 -1.297411
-11.002619 0.1049659 -1.3003061
-11.000466 0.072712973 -1.3106558
-10.997378 0.033034924 -1.3186181
-10.953001 -0.32636485 -1.2126057
-10.925444 -0.42213613 -1.0136095
-10.917935 -0.50124377 -1.014802
-10.902555 -0.7773692 -1.1364663
-10.858831 -1.0497705 -0.94662726
-10.843963 -1.0905442 -0.82785904
-10.839602 -1.0979017 -0.78821778
-10.834601 -1.1026344 -0.73888958
-10.83088 -1.1126164 -0.70893586
-10.822279 -1.1233943 -0.62684464
-10.818395 -1.1203984 -0.58155382
-10.805383 -1.0629126 -0.38023663
-10.805084 -0.94973636 -0.2587074
-10.820312 -0.53206086 0.012591273
-10.837835 -0.41979226 -0.060261399
-10.853887 -0.060239382 0.14133118
-10.858136 -0.017732721 0.13963838
-10.871895 0.11757047 0.13172378
-10.878078 0.19560921 0.14618193
-10.883886 0.27277797 0.16380186
-10.886418 0.31598061 0.1814688
-10.898059 0.47865981 0.22516666
-10.901986 0.51788044 0.22353373
-10.917609 0.64204514 0.18374522
-10.93645 0.80939728 0.15417312
-10.943995 0.88872367 0.15519607
-10.948452 0.92837191 0.14825687
-10.956447 1.0052043 0.14179714
-10.970112 1.1174067 0.11074823
-10.969358 1.1628759 0.16645657
-10.968951 1.1831846 0.19210263
-10.967618 1.195634 0.21958162
-10.963651 1.2071122 0.27464125
-10.952926 1.2098294 0.39388409
-10.947557 1.2312051 0.47449359
-10.944773 1.2323633 0.50593203
-10.940397 1.232239 0.55328923
-10.938438 1.2294525 0.57164097
-10.930948 1.2295842 0.65307909
-10.920314 1.2339128 0.7730304
-10.911393 1.2291422 0.86486363
-10.90841 1.2242398 0.89212102
-10.886632 1.2277204 1.132128
-10.87219 1.1900454 1.2494972
-10.864446 1.187589 1.3309875
-10.848733 1.197793 1.5122023
-10.840559 1.2372841 1.6421962
-10.840176 1.2377305 1.6468282
-10.826966 1.2121614 1.763476
-10.815303 1.2007248 1.878112
-10.797964 1.2237746 2.0903931
-10.794238 1.2234192 2.1304674
-10.786967 1.2237996 2.2097783
-10.778664 1.2126577 2.2882595
-10.770525 1.201437 2.3648648
-10.763578 1.208024 2.4471526
-10.748964 1.2083483 2.6061087
-10.745075 1.2059504 2.6458163
-10.740826 1.1971276 2.682714
-10.726932 1.2103014 2.8472896
-10.710489 1.306003 3.1257834
-10.710451 1.3090008 3.1293297
-10.706653 1.3082323 3.169755
-10.697056 1.3139001 3.2798419
-10.665694 1.1848685 3.4853659
-10.657689 1.1055664 3.4893725
-10.642589 0.9469322 3.4874525
-10.631115 0.8270691 3.4867036
-10.61654 0.70628655 3.5186563
-10.606512 0.63699567 3.5550666
-10.5999 0.5753718 3.5624201
-10.598138 0.55413568 3.5593553
-10.575853 0.26568127 3.4997232
-10.569859 0.1874291 3.4829988
-10.566282 0.13452606 3.4665287
-10.56431 0.10676622 3.4589138
-10.552307 -0.062702581 3.4120557
-10.541364 -0.20407778 3.3830726
-10.539637 -0.22187224 3.3832178
-10.573315 -0.29452083 2.9417372
-10.545082 -0.71333575 2.8104143
-10.54024 -0.75253284 2.8219974
-10.533075 -0.83230895 2.816381
-10.525364 -0.90987819 2.8189991
-10.521212 -0.99082989 2.7794626
-10.516716 -1.1128511 2.7007136
-10.536708 -1.1355989 2.4599445
-10.541539 -1.1233002 2.4203625
-10.558383 -1.1386551 2.2214928
-10.579494 -1.1103393 2.0219593
-10.593053 -1.0951304 1.8906842
-10.615917 -1.1023101 1.6350092
-10.621403 -1.0999694 1.5779184
-10.62781 -1.1065696 1.5014726
-10.639659 -1.0625145 1.418925
-10.653821 -1.0237824 1.3056862
-10.667397 -1.0112047 1.171483
-10.680558 -0.94145238 1.1015475
-10.722537 -0.8147912 0.77830315
-10.765809 -0.6516481 0.47915319
-10.749764 -1.1056194 0.17879121
-10.756998 -1.106216 0.099656373
-10.783747 -1.0997725 -0.18392837
-10.79011 -1.1098472 -0.26353019
-10.793763 -1.1099266 -0.30326712
-10.800127 -1.1200012 -0.38286901
-10.803425 -1.1264967 -0.42544675
-10.810616 -1.1251974 -0.5021438
-10.813913 -1.131693 -0.54472172
-10.821692 -1.126894 -0.62413162
-10.829471 -1.122095 -0.70354164
-10.836892 -1.1237121 -0.78579271
-10.843964 -1.1263496 -0.86529851
-10.847502 -1.124971 -0.90225852
-10.855044 -1.122651 -0.98170042
-10.862823 -1.1178519 -1.0611105
-10.867419 -1.1080157 -1.1007196
-10.879205 -1.0995775 -1.2198186
-10.882609 -1.1006049 -1.257844
-10.896883 -1.1061721 -1.4185834
-10.902775 -1.1212046 -1.4982492
-10.906664 -1.1188052 -1.5379542
-10.917389 -1.1215223 -1.6571972
-10.922572 -1.1081862 -1.6995192
-10.927661 -1.09434 -1.7402833
-10.950195 -1.1196392 -2.0113099
-10.954908 -1.1112881 -2.0537295
-10.966084 -1.1092588 -2.1729093
-10.976315 -1.1171442 -2.2922008
-10.983817 -1.1921041 -2.4519818
-10.987464 -1.1922538 -2.4917176
-11.005697 -1.1930026 -2.6903973
-11.030693 -1.2164248 -2.9861846
-11.040335 -1.215037 -3.0893776
-11.044575 -1.2116433 -3.1318533
-11.06277 -1.2126137 -3.3303618
-11.066417 -1.2127634 -3.3700979
-11.09678 -1.1288074 -3.6119013
-11.099833 -1.1325006 -3.6488976
-11.107719 -1.1292568 -3.7311091
-11.119132 -1.1247487 -3.8502612
-11.125359 -1.133549 -3.9270492
-11.146081 -1.1162317 -4.1338644
-11.148183 -1.1245329 -4.1653528
-10.921489 1.1507448 0.67334241
-10.862284 0.57745588 0.71672529
-10.839775 0.61025029 0.99531043
-10.908861 1.1825734 0.8436681
0 0 0 1 0 0 0 1 0 0 0 1 0 0 0 0 0 237 1 0 0
