ply
format ascii 1.0
comment PCL generated
element vertex 448
property float x
property float y
property float z
element camera 1
property float view_px
property float view_py
property float view_pz
property float x_axisx
property float x_axisy
property float x_axisz
property float y_axisx
property float y_axisy
property float y_axisz
property float z_axisx
property float z_axisy
property float z_axisz
property float focal
property float scalex
property float scaley
property float centerx
property float centery
property int viewportx
property int viewporty
property float k1
property float k2
end_header
-11.132402 -0.0037106052 -5.0076571
-11.131424 -0.12403593 -5.0072031
-11.030583 -0.52300137 -5.0081415
-11.04776 -0.5633598 -5.0075512
-11.010767 -0.80315012 -5.007524
-10.952616 -0.88266748 -5.0086641
-10.894716 -0.92124408 -5.0099607
-10.844467 -0.96161306 -5.0110583
-10.736012 -1.0808702 -5.0133004
-10.724013 -1.0179566 -5.0138512
-10.470928 -0.79835862 -5.0210624
-10.18903 -0.83745122 -5.0279665
-10.084706 -0.9549976 -5.0301118
-9.9868231 -1.0554341 -5.0321636
-9.9564352 -1.0950863 -5.0327668
-9.9059906 -1.1395731 -5.0338535
-9.8405695 -1.1741564 -5.0353541
-9.7077484 -1.2126768 -5.0385275
-9.6902542 -1.2124981 -5.0389662
-9.6253557 -1.204335 -5.0406241
-9.5857134 -1.1714056 -5.0417476
-9.429224 -0.82994276 -5.0470247
-9.4094372 -0.80973989 -5.0476007
-9.3896341 -0.78716177 -5.0481863
-9.372364 -0.76935977 -5.0486894
-9.3527803 -0.48907849 -5.0502949
-9.2342424 -0.34793288 -5.0538244
-8.7135677 -0.42274433 -5.0665665
-8.7893143 -0.83353394 -5.063036
-8.8290157 -0.86144042 -5.0619307
-8.70679 -1.0826386 -5.0641122
-8.7067575 -1.082732 -5.0641122
-8.6263351 -1.1268814 -5.0659509
-8.4662647 -1.1377473 -5.0699162
-8.4262285 -1.1423385 -5.0709009
-8.2265148 -1.1178532 -5.0759997
-8.2714472 -0.63828528 -5.0767817
-8.2718592 -0.59828788 -5.0769305
-8.2726831 -0.5182932 -5.0772276
-8.2739191 -0.39830109 -5.0776739
-7.7557392 -0.25245747 -5.0912309
-7.7105494 -0.2719968 -5.0922852
-7.5273137 -0.57470876 -5.0956702
-7.295897 -0.73268336 -5.1008372
-7.2758827 -0.73234463 -5.1013398
-6.9792004 -0.39205056 -5.1101232
-6.9394507 -0.36932686 -5.1112089
-6.557447 -0.32558215 -5.1209497
-6.4720087 -0.36417684 -5.1229358
-6.3163481 -0.443014 -5.1265206
-6.2191172 -0.42239997 -5.1290374
-6.0763464 -0.44015422 -5.1325426
-5.8568459 -0.67149389 -5.1371193
-6.0129366 -1.0779659 -5.1315942
-6.3332133 -1.0437232 -5.1237092
-6.3278437 -1.0837294 -5.1236849
-6.092463 -1.1156126 -5.1294527
-5.9925833 -1.1205758 -5.1319342
-5.9401026 -1.120082 -5.1332502
-5.8529196 -1.0892614 -5.1355562
-5.7330613 -1.0728328 -5.1386232
-5.6930394 -1.0775315 -5.139607
-5.65307 -1.0772684 -5.1406093
-5.4155841 -1.074545 -5.1465673
-5.3731351 -1.0743901 -5.1476312
-5.2916245 -1.0821841 -5.1496415
-5.25317 -1.0652161 -5.150672
-5.2517662 -1.0644068 -5.1507101
-5.2121639 -1.0318705 -5.1518312
-4.691783 -1.1082265 -5.1645598
-4.6516495 -1.1077081 -5.1655669
-4.2907829 -1.0530128 -5.1748219
-4.131238 -1.0449421 -5.1788497
-4.0915213 -1.0552077 -5.1798034
-4.0514398 -1.0623591 -5.1807785
-3.9710999 -1.0713207 -5.182755
-3.8907716 -1.0727148 -5.184761
-3.8514495 -1.0760278 -5.1857328
-3.8108017 -1.0721556 -5.1867661
-4.0923166 -0.8491407 -5.180603
-4.1562896 -0.3426702 -5.181015
-4.2529306 -0.062822834 -5.1797075
-4.2582273 -0.022879886 -5.1797338
-4.2094979 0.44057629 -5.1827974
-4.1821365 0.48065713 -5.1836419
-4.1697049 0.50069374 -5.1840329
-4.1697779 0.52319163 -5.1841207
-4.2498569 0.55544245 -5.1822433
-4.2847319 0.520338 -5.1812305
-4.4805646 0.24179082 -5.1752186
-4.4998369 0.2129302 -5.1746211
-4.5170603 0.17531264 -5.1740398
-4.6581383 -0.015659278 -5.1697474
-4.725934 -0.067217574 -5.1678448
-4.7383389 -0.079803348 -5.1674838
-5.1774621 -0.23092309 -5.1558857
-5.2570286 -0.19037718 -5.1540542
-5.4237604 0.047887664 -5.1508265
-5.4737682 0.26553121 -5.1504397
-5.4275064 0.38578278 -5.1520762
-5.3880806 0.43578193 -5.1532626
-5.3666768 0.54599297 -5.1542368
-5.3895149 0.58076978 -5.1538033
-5.4305148 0.68286973 -5.1531825
-5.4743104 0.82553333 -5.1526532
-5.4900966 0.90537977 -5.152575
-5.1319184 1.2801671 -5.1630359
-4.9719877 1.2856588 -5.1670628
-4.7719107 1.2967817 -5.1721177
-4.6921358 1.3040187 -5.1741443
-4.6519737 1.3046503 -5.1751528
-4.5320296 1.3201133 -5.1782179
-4.3718271 1.2860222 -5.1820941
-4.2518101 1.268893 -5.1850319
-4.1719465 1.2486323 -5.1869512
-4.0920048 1.2588776 -5.1889939
-3.9719207 1.2823168 -5.1920948
-3.8919768 1.2849991 -5.1941075
-3.8471582 1.2821292 -5.1952186
-3.7722151 1.2923591 -5.1971359
-3.7320778 1.30049 -5.1981735
-3.652112 1.3032359 -5.2001867
-3.5718138 1.3119984 -5.2022328
-3.4116354 1.2955009 -5.2061787
-3.2918153 1.3257401 -5.2092996
-3.2125123 1.3290787 -5.2112989
-3.1324131 1.3246431 -5.2132874
-3.1146791 1.3253962 -5.2137341
-3.0650444 1.3245329 -5.2149739
-3.0525265 1.3246349 -5.2152877
-2.9727058 1.3244361 -5.2172861
-2.892601 1.3250636 -5.2192945
-2.8122864 1.3288267 -5.2213206
-2.6908851 1.3255272 -5.2243481
-2.650423 1.3227557 -5.2253504
-2.5310593 1.3416935 -5.228415
-2.4516063 1.3503407 -5.2304392
-2.2911382 1.3409466 -5.2344203
-2.2515607 1.3343037 -5.2353849
-2.160677 1.3338329 -5.2376595
-2.0512395 1.3352705 -5.2404056
-1.9712687 1.3432833 -5.2424402
-1.9317455 1.3441393 -5.2434335
-1.8913012 1.3438675 -5.2444453
-1.8513174 1.3441596 -5.2454476
-1.8112974 1.3394524 -5.2464314
-1.7713318 1.3422441 -5.2474432
-1.7313843 1.3475356 -5.2484646
-1.6513991 1.34562 -5.2504601
-1.6104398 1.3372853 -5.2514529
-1.570456 1.3375773 -5.2524552
-1.41644 1.3398372 -5.2563214
-1.3301835 1.3512642 -5.2585273
-1.2918954 1.3808856 -5.2596035
-1.2171006 1.4212869 -5.2616377
-0.69047022 1.3832226 -5.2746749
-1.2127438 1.4468842 -5.2618484
-1.4508305 1.3834475 -5.2556338
-1.4912529 1.3787378 -5.2546024
-1.5701585 1.3595104 -5.2525501
-1.8098197 1.4175242 -5.246779
-1.8122902 1.4174706 -5.2467165
-2.0099792 1.3562973 -5.2415228
-2.1299305 1.3554211 -5.2385154
-2.2909131 1.3728782 -5.2345529
-2.3305631 1.3895197 -5.2336264
-2.4110813 1.4019979 -5.2316594
-2.4381824 1.4112318 -5.2310176
-2.481586 1.4120493 -5.2299337
-2.5240688 1.411739 -5.2288685
-2.531105 1.4111203 -5.2286897
-2.5705199 1.3952662 -5.2276397
-2.6903763 1.3694988 -5.2245355
-2.7699409 1.3684213 -5.2225389
-2.891427 1.3471278 -5.2194118
-2.9313931 1.3443359 -5.2183995
-3.0119205 1.3442271 -5.2163825
-3.0522566 1.3430868 -5.2153678
-3.0923929 1.3349559 -5.2143302
-3.2518253 1.3384891 -5.2103519
-3.2921612 1.3373489 -5.2093372
-3.3719685 1.340111 -5.2073493
-3.4119308 1.3324888 -5.2063184
-3.4522588 1.3288488 -5.2052937
-3.5322819 1.3234124 -5.2032681
-3.5721951 1.3209803 -5.2022591
-3.6145148 1.3238579 -5.2012105
-3.652319 1.3127264 -5.2002196
-3.77174 1.3088833 -5.1972136
-3.8518803 1.3056289 -5.1951938
-4.0519361 1.3425101 -5.19033
-4.0920887 1.3393786 -5.189312
-4.2118835 1.3420178 -5.1863227
-4.3321362 1.3231332 -5.1832361
-4.4119511 1.3283951 -5.1812582
-4.4919009 1.3206497 -5.179225
-0.34683418 -1.2590439 -5.2727728
-0.39242315 -1.2595493 -5.2716289
-0.83110189 -1.2319621 -5.2607527
-0.39179659 -1.2206502 -5.2717991
-0.10771799 -0.85845548 -5.280354
-0.092177868 -0.73915875 -5.2812176
-0.076567173 -0.61993599 -5.2820826
-0.079496384 -0.57954705 -5.2821698
-0.081663132 -0.53994668 -5.2822733
-0.079975128 -0.4991574 -5.2824779
-0.07588625 -0.37836969 -5.2830606
-0.072291851 -0.33955175 -5.2833047
-0.079504967 -0.2599597 -5.2834406
-0.074985504 -0.17956398 -5.2838736
-0.076227665 -0.098385781 -5.2841654
-0.078775406 -0.058391109 -5.2842607
-0.068876743 0.021616429 -5.2848268
-0.06855011 0.066219576 -5.2850122
-0.11197042 0.21246161 -5.2845063
-0.11237574 0.29254663 -5.2848148
-0.11275816 0.37260088 -5.2851233
-0.060950756 0.53280777 -5.2870584
-0.061287403 0.61280036 -5.2873678
-0.0589571 0.65280724 -5.2875853
-0.056427479 0.73231715 -5.2879648
-0.056228161 0.77182019 -5.2881269
-0.056396961 0.81181651 -5.2882819
-0.11546755 0.97279185 -5.2874427
-0.12258244 1.0120167 -5.2874203
-0.13041592 1.0919776 -5.2875423
-0.35739279 1.4119532 -5.2831306
-0.31586885 1.4100567 -5.284163
-0.12412834 1.2924839 -5.288497
-0.1165781 1.2800167 -5.2886367
-0.11625576 1.2522418 -5.2885342
-0.11611032 1.2122765 -5.2883787
-0.11595726 1.1325305 -5.2880654
-0.035144329 0.93288684 -5.2892957
-0.037107944 0.89238679 -5.2890854
-0.04463625 0.81285566 -5.2885804
-0.040698528 0.73139411 -5.2883549
-0.038229465 0.65190524 -5.2881007
-0.054652214 0.57085234 -5.2873673
-0.054850578 0.53134924 -5.2872052
-0.049347401 0.41138148 -5.2868657
-0.054177761 0.37136409 -5.2865858
-0.067465305 0.22118755 -5.2856555
-0.062547684 0.18003625 -5.285615
-0.060283661 0.060440429 -5.2851963
-0.26725054 -1.2535529 -5.2747874
-0.22689295 -1.246399 -5.2758265
-0.18729448 -1.2409567 -5.2768402
-0.10697222 -1.2162552 -5.2789497
-0.092404842 -1.178345 -5.2794652
-0.08250618 -1.0983374 -5.2800312
-0.080055714 -1.0583367 -5.280252
-0.079390049 -0.97912979 -5.2805834
-0.07617712 -0.93991756 -5.2808199
-0.073726654 -0.89991689 -5.2810402
-0.081654549 -0.85953397 -5.2810025
-0.08420229 -0.81953937 -5.2810979
-0.0779953 -0.6983543 -5.2817349
-0.068048 -0.65834457 -5.2821431
-0.071950436 -0.61953568 -5.2821999
-0.075642586 -0.57835823 -5.2822714
-0.071715355 -0.49993685 -5.2826815
-0.070409298 -0.45875329 -5.2828779
-0.070125103 -0.37915218 -5.2832017
-0.068438053 -0.3383629 -5.2834063
-0.069840908 -0.29955104 -5.2835255
-0.068584442 -0.2183698 -5.2838798
-0.068666458 -0.15087366 -5.2841458
-0.067799568 -0.13928612 -5.2842135
-0.067945957 -0.11666421 -5.2842999
-0.068348885 -0.098770946 -5.2843614
-0.070514679 -0.059170537 -5.2844644
-3.2115133 -1.0004715 -5.2020593
-3.2286105 -1.0555867 -5.2014122
-3.3709655 -1.1171216 -5.1976023
-3.41061 -1.1168545 -5.1966105
-3.450613 -1.1146344 -5.1956177
-3.4905798 -1.1174135 -5.1946058
-3.6507716 -1.083536 -5.1907287
-3.7314944 -1.0751894 -5.1887403
-2.858016 -0.30522886 -5.2136769
-2.8978276 -0.33557293 -5.2125597
-2.9772968 -0.37578541 -5.2104092
-2.9772868 -0.33531228 -5.2105703
-2.9775229 -0.32051909 -5.2106233
-2.9560232 -0.13483869 -5.2119002
-2.9197135 -0.024506254 -5.2132483
-2.8853836 0.024554946 -5.2143035
-2.8414073 0.18619721 -5.2160473
-2.8434792 0.44824263 -5.2170377
-2.8848782 0.56860417 -5.2164798
-2.8099871 0.52554345 -5.218184
-2.809854 0.52340919 -5.2181787
-2.8096704 0.41039526 -5.2177339
-2.8096323 0.40545931 -5.2177153
-2.8096867 0.40530041 -5.2177134
-2.8091097 0.18240798 -5.2168412
-2.8212538 0.1424944 -5.2163782
-2.8428998 0.024851937 -5.2153683
-2.8523197 -0.055207878 -5.2148142
-2.8545303 -0.09522032 -5.2145996
-2.846169 -0.21515283 -5.2143321
-2.8578329 -0.29482025 -5.2137232
-10.616336 1.1309024 -5.0250936
-10.596481 1.1587085 -5.025701
-10.576484 1.1588914 -5.0262027
-10.534003 1.1590351 -5.027267
-10.336762 1.1978166 -5.032361
-9.8880043 1.1362616 -5.0433545
-9.7276649 1.0978316 -5.0472174
-9.607708 1.0990185 -5.0502262
-9.5677233 1.0994139 -5.051229
-9.4073811 1.0610144 -5.0550919
-9.2474384 1.0625968 -5.0591035
-9.167676 1.08328 -5.0611835
-8.8883705 1.1461353 -5.068428
-8.8487844 1.186528 -5.0695801
-8.7280293 1.1077209 -5.0722909
-8.8871717 1.0261446 -5.0679808
-9.0185337 0.66474587 -5.0632539
-8.9802475 0.58512276 -5.0638962
-8.9374647 0.30553967 -5.0638556
-8.9597073 0.28031906 -5.0631986
-9.0781546 0.033496223 -5.0592504
-8.7350025 -0.2829577 -5.0665855
-8.4355059 -0.23995262 -5.0742569
-8.3955231 -0.23953652 -5.0752602
-8.3555412 -0.23912045 -5.076263
-8.0433626 0.11340882 -5.0854831
-8.0390892 0.18595274 -5.0858784
-7.9999776 0.27384162 -5.0872078
-7.9616404 0.43922463 -5.0888252
-7.9621897 0.49422047 -5.0890303
-7.965713 0.59668797 -5.0893497
-8.0453568 0.81340498 -5.0882168
-8.0457315 0.85090214 -5.0883565
-8.0465555 0.9333958 -5.0886641
-8.2901144 1.2959946 -5.0840063
-8.2501535 1.29889 -5.0850186
-8.050251 1.3033677 -5.0900431
-7.9300957 1.2845558 -5.092977
-7.7961597 1.3066236 -5.0964193
-7.7561746 1.3070152 -5.0974221
-7.8747177 0.9950971 -5.0932131
-7.8864021 0.91514671 -5.0926023
-7.8860049 0.87511933 -5.092453
-7.8444309 0.71539032 -5.0928588
-7.8290367 0.67554176 -5.0930862
-7.803247 0.59579509 -5.0934148
-7.8028398 0.55590439 -5.0932665
-7.7433472 0.063113809 -5.0927963
-7.2628798 0.0027839746 -5.104589
-7.2231512 0.028026307 -5.1056843
-7.1432118 0.039211027 -5.1077309
-7.0881367 0.029729096 -5.1090722
-7.0856814 0.029451281 -5.1091328
-6.784831 0.19215141 -5.1173143
-6.746428 0.29170433 -5.1186719
-6.749094 0.57230937 -5.1197209
-6.8057308 0.73131406 -5.1189351
-6.8089228 0.81187439 -5.1191754
-6.7923937 0.90424222 -5.1199565
-6.7876182 0.93208462 -5.1201868
-7.076324 1.3089675 -5.1144557
-6.9163074 1.3083295 -5.1184607
-6.8364849 1.3135206 -5.1204801
-6.7963519 1.3095042 -5.121469
-6.6364841 1.3132743 -5.1254878
-6.5166268 1.3244481 -5.1285338
-6.3966951 1.3281224 -5.1315522
-6.35675 1.3362167 -5.1325846
-6.3166747 1.3344966 -5.1335812
-6.2366791 1.3274846 -5.1355567
-6.0767622 1.3315505 -5.1395779
-6.049346 1.339319 -5.1402955
-6.0368757 1.341941 -5.1406183
-5.9618292 1.3404713 -5.1424918
-5.9568062 1.3406681 -5.1426182
-5.9468346 1.340618 -5.142868
-5.9168611 1.3408192 -5.1436191
-5.8768539 1.3413402 -5.1446233
-5.8718615 1.3413521 -5.1447482
-5.7565823 1.3099805 -5.1475105
-5.6764879 1.30356 -5.1494908
-5.6364031 1.2939525 -5.1504564
-5.4764614 1.2955185 -5.1544681
-5.3564558 1.2916934 -5.1574583
-1.5516372 -1.1867633 -5.2428875
-1.3920898 -1.1950269 -5.2468505
-1.3145657 -1.2019508 -5.2487645
-1.2725143 -1.2011217 -5.2498207
-1.2312336 -1.1949353 -5.2508793
-1.1921711 -1.1935428 -5.251863
-1.1117611 -1.1909974 -5.2538867
-1.051712 -1.2005509 -5.2553525
-0.91139507 -1.1999571 -5.2588692
-0.87125111 -1.2097619 -5.2598352
-10.735345 0.9577325 -5.0214243
-10.735288 0.9477576 -5.0213861
-10.735119 0.91779584 -5.0212712
-10.932804 0.51730716 -5.0147276
-11.132738 0.036286436 -5.0078077
-0.95121908 -1.2103554 -5.2578301
-1.0316653 -1.2079015 -5.2558255
-1.1120009 -1.2204456 -5.2537637
-1.2320995 -1.2013385 -5.2508321
-1.2466331 -1.2019978 -5.2504654
-1.3524008 -1.2166792 -5.2477584
-1.3924026 -1.2144763 -5.2467651
-1.5271459 -1.2429745 -5.2432775
-1.6389728 -1.2049102 -5.2406282
-1.7115536 -1.1904502 -5.2388682
-1.8321676 -1.1632963 -5.2359557
-2.1918368 -1.1290202 -5.2270846
-1.8316703 -1.1688435 -5.2359457
-2.271915 -1.1146159 -5.2251363
-2.2323551 -1.1187705 -5.2261105
-6.0133162 -0.23986045 -5.1349173
-6.4869628 0.094722152 -5.1243863
-6.5298433 0.13430279 -5.1234698
-6.5880384 0.45344195 -5.1232815
-6.5488691 0.53367895 -5.1245818
-6.5896187 0.61344707 -5.1238785
-6.6150084 0.65318054 -5.1234007
-6.5935054 1.0138386 -5.1253734
-6.593679 1.033985 -5.1254492
-6.2366052 1.3252804 -5.13555
-4.8119378 1.3091575 -5.1711645
-4.7246733 1.3189173 -5.1733885
-4.6919851 1.3120265 -5.17418
-5.558217 0.46470693 -5.1491165
-5.556509 0.54472476 -5.149478
-5.5903826 0.68439496 -5.1491847
-5.5914178 0.78410923 -5.1495557
-5.6225486 0.90408289 -5.1492529
-5.6533289 0.98378253 -5.1487989
-5.6737604 1.0233246 -5.1484447
-5.876514 1.3116014 -5.1445136
-6.0367527 1.3347375 -5.1405926
-5.0120225 1.3005344 -5.1661191
-3.4886067 -0.69743145 -5.1963253
-5.6422114 0.1639353 -5.1458173
-5.6442857 0.12421635 -5.145607
-5.6414061 0.084243104 -5.1455202
-5.9810419 -0.21705657 -5.1358166
-5.6433592 0.22357474 -5.1460257
-5.5921154 0.34378284 -5.1477871
-5.5872407 0.36162609 -5.1479797
0 0 0 1 0 0 0 1 0 0 0 1 0 0 0 0 0 448 1 0 0
