ply
format ascii 1.0
comment PCL generated
element vertex 479
property float x
property float y
property float z
element camera 1
property float view_px
property float view_py
property float view_pz
property float x_axisx
property float x_axisy
property float x_axisz
property float y_axisx
property float y_axisy
property float y_axisz
property float z_axisx
property float z_axisy
property float z_axisz
property float focal
property float scalex
property float scaley
property float centerx
property float centery
property int viewportx
property int viewporty
property float k1
property float k2
end_header
-8.7632046 -1.023917 -5.1810765
-8.761673 -0.9625746 -5.2040234
-8.7449198 -0.88431013 -5.2177162
-8.7356033 -0.86854887 -5.2142158
-8.513176 -0.39667088 -5.1689215
-8.5285664 -0.28561038 -5.2295923
-8.49613 -0.13098393 -5.2573433
-8.4028301 0.079491407 -5.2433639
-8.3957376 0.1166341 -5.2507663
-8.3579426 0.29327634 -5.2816887
-8.362175 0.45377156 -5.3504019
-8.3634491 0.5188098 -5.3777819
-8.3634796 0.56581342 -5.3966331
-8.2604332 0.61190915 -5.3065801
-8.1823359 0.68773162 -5.2546992
-7.8713236 0.85551369 -4.9943762
-7.7419567 1.282287 -5.0290165
-7.7008877 1.3028435 -4.994
-7.6922483 1.3066084 -4.9864106
-7.642477 1.3174579 -4.938345
-7.5716066 1.3469186 -4.8755131
-7.4335966 1.2770903 -4.7022314
-7.3342638 1.3019285 -4.6075778
-7.1818657 1.301803 -4.4470515
-7.2971396 1.2832828 -4.5610209
-7.3180504 1.2732627 -4.5790281
-7.3960156 1.2607615 -4.6561213
-7.4355688 1.2574891 -4.6964607
-7.4897256 1.2740614 -4.7601228
-7.6783152 1.2638777 -4.9546313
-0.76002741 1.3555981 2.2936277
-0.81102228 1.3465971 2.2435336
-0.83131576 1.3364447 2.2262287
-1.0270743 1.3297257 2.0227842
-1.1634808 1.3340387 1.8774213
-1.2420626 1.3299595 1.7963074
-1.3394101 1.3351525 1.6917213
-1.45473 1.3417906 1.5676314
-1.5134823 1.3455442 1.5042621
-1.6872263 1.345789 1.321211
-1.7473164 1.3375108 1.2612504
-1.7645512 1.3362018 1.2436262
-1.787359 1.3370651 1.2192637
-1.8250253 1.3431437 1.1771673
-1.8447192 1.3477771 1.1545745
-1.9426663 1.3381844 1.0552765
-2.0607712 1.3309056 0.93382561
-2.0806007 1.3230728 0.91608131
-2.3761635 1.2974828 0.615098
-2.3938649 1.3238606 0.58589768
-2.4231737 1.3319712 0.55178821
-2.4912124 1.3290536 0.48131132
-2.510906 1.3336872 0.45871866
-2.5307355 1.3258542 0.44097435
-2.6758282 1.3382835 0.28321493
-2.7370362 1.332371 0.22112978
-2.7943974 1.3286853 0.16220391
-2.815309 1.3298383 0.13972223
-2.8339205 1.3254859 0.12186682
-3.03423 1.4156626 -0.12516296
-3.1130521 1.3987108 -0.20137608
-3.2492056 1.4159071 -0.35163087
-3.288342 1.4146408 -0.39233464
-3.5425553 1.3015112 -0.61472929
-3.5803537 1.3128304 -0.6590628
-3.5992937 1.309635 -0.67772734
-3.6328521 1.3039899 -0.71080458
-3.7167029 1.3058358 -0.79983866
-3.7746813 1.3134695 -0.8639465
-3.8907363 1.3166412 -0.98742253
-3.9884007 1.3085893 -1.0870397
-4.087419 1.2935666 -1.1852919
-4.2032781 1.3209293 -1.318247
-4.2226696 1.3154101 -1.3364565
-4.3001375 1.3054291 -1.4140346
-4.3419824 1.2902209 -1.4520086
-4.4229641 1.2737464 -1.5306864
-4.4831014 1.2818573 -1.5972588
-4.5996079 1.2827054 -1.7202801
-4.6525431 1.3080528 -1.7861693
-4.7900133 1.2952607 -1.9258041
-4.8884249 1.2833483 -2.0246625
-4.9685349 1.2598442 -2.0996084
-4.8958588 1.2301888 -2.0112073
-4.8359766 1.2439452 -1.9536588
-4.7724476 1.2564167 -1.8917556
-4.7181158 1.2500679 -1.8320024
-4.6200004 1.2604436 -1.7328404
-4.5805101 1.2519381 -1.687852
-4.5607653 1.2476854 -1.6653579
-4.5017862 1.2567945 -1.6068995
-4.4406476 1.2654263 -1.5459764
-4.3619232 1.2702827 -1.4650238
-4.2634544 1.2708864 -1.3615772
-4.1644359 1.2859093 -1.263325
-4.1078115 1.2713047 -1.1978523
-3.9899507 1.2774276 -1.0761958
-3.9300685 1.2911838 -1.0186474
-3.8522472 1.2913932 -0.93678492
-3.7937193 1.2981786 -0.87787157
-3.6781158 1.2926831 -0.75394052
-3.658371 1.2884303 -0.73144644
-3.6381745 1.2865013 -0.70940727
-3.5985866 1.2900913 -0.66915846
-3.5608044 1.2843869 -0.6270898
-3.4859147 1.281292 -0.54699165
-3.4605236 1.2744629 -0.51752043
-3.4250045 1.2769624 -0.48111957
-3.3061433 1.2998279 -0.3651126
-3.2675562 1.2866752 -0.31921446
-3.2478113 1.2824224 -0.29672039
-3.2285175 1.2758461 -0.27377117
-3.1510496 1.285827 -0.19619334
-3.0925217 1.2926127 -0.13727987
-3.0723252 1.2906834 -0.11524057
-2.8961329 1.2794007 0.074807763
-2.8174086 1.2842573 0.15576041
-2.7180789 1.2860876 0.2596221
-2.6597903 1.2800146 0.32343149
-2.6402602 1.2804542 0.34382069
-2.6016657 1.2790147 0.38503718
-2.533463 1.276858 0.45771849
-2.396457 1.2873306 0.59779334
-2.3762989 1.2850165 0.61994624
-2.0807362 1.3106064 0.92092979
-2.0030825 1.3100468 1.0029231
-1.9046712 1.321959 1.1017815
-1.8648193 1.3150116 1.1465272
-1.844197 1.3150171 1.1682402
-1.7870305 1.3269184 1.2236723
-1.7067268 1.3278092 1.3078755
-1.6874974 1.3208563 1.3309077
-1.5915425 1.3087049 1.4368135
-1.4554651 1.3145385 1.577768
-1.4362354 1.3075856 1.6008004
-1.3788755 1.2968736 1.6654893
-1.3002934 1.300953 1.7466034
-1.242198 1.3174931 1.8011559
-1.1256211 1.3053472 1.9287745
-1.0668685 1.3015937 1.992144
-0.87263799 1.288888 2.2017565
-0.7351675 1.3016801 2.3413916
-0.71547365 1.2970465 2.3639846
-0.59551144 1.3136034 2.4836764
-0.53029156 1.3372301 2.5428939
-0.45386362 1.3472708 2.6193528
-0.4118824 1.3595308 2.6586504
-0.46209669 1.369248 2.6018844
-0.51726055 1.3578358 2.5483656
-0.54790688 1.3539139 2.5176654
-0.63075686 1.3557405 2.4296927
-5.5238767 1.3155094 -2.7066717
-5.4778543 1.306391 -2.6545591
-5.3394876 1.2814909 -2.4988894
-5.3066292 1.282122 -2.4645424
-5.246974 1.2932388 -2.4061756
-5.2218471 1.2864503 -2.3769989
-5.10467 1.28909 -2.2546682
-5.2038164 1.2499257 -2.34339
-5.2121806 1.2447973 -2.3501439
-5.2442679 1.2420874 -2.3828473
-5.368082 1.2435207 -2.5137978
-5.387063 1.2505221 -2.5365877
-5.4437628 1.2635788 -2.6015201
-5.5025034 1.2570982 -2.66078
-5.5406785 1.2608356 -2.7024746
-5.5998769 1.2520369 -2.7612879
-5.6741858 1.279049 -2.8503499
-5.7329268 1.2725685 -2.9096098
-5.7537365 1.2702976 -2.9306138
-5.8115635 1.268453 -2.990767
-5.8896465 1.2469375 -3.0643749
-5.8984442 1.2434812 -3.0722547
-5.9688363 1.2602223 -3.1530807
-6.0436025 1.2849165 -3.2416961
-6.1021304 1.2887012 -3.3048415
-6.2367644 1.2920133 -3.447938
-6.2753973 1.2934326 -3.4891863
-6.3721004 1.3009547 -3.594027
-6.4525657 1.2875673 -3.6733971
-6.5686207 1.2873073 -3.7954993
-6.6121244 1.2677464 -3.833478
-6.6699514 1.2659018 -3.893631
-6.7090411 1.2650032 -3.9344325
-6.7410469 1.2647491 -3.9680333
-6.8080301 1.2609351 -4.0370398
-6.8481207 1.2678657 -4.0820303
-6.8843813 1.2684098 -4.12043
-7.0214739 1.2808906 -4.2697864
-7.0415525 1.2729295 -4.2877421
-7.0801935 1.2742915 -4.3289762
-7.021327 1.2912232 -4.2737684
-6.9792871 1.3034166 -4.2343817
-6.967176 1.306036 -4.2226777
-6.9397402 1.3066332 -4.1940265
-6.9233632 1.30911 -4.1777735
-6.8419094 1.3140125 -4.0939651
-6.739274 1.3043026 -3.9820023
-6.7248535 1.3064432 -3.9676743
-6.646461 1.3185059 -3.889956
-6.549758 1.3109838 -3.7851157
-6.5142269 1.3131952 -3.7485871
-6.4292884 1.3299059 -3.6658368
-6.3124762 1.330284 -3.542985
-6.1961222 1.3283439 -3.4196863
-6.0614562 1.3068192 -3.2692654
-5.9455585 1.302561 -3.1455202
-5.8854465 1.3159957 -3.0876002
-5.8271627 1.3201584 -3.0278938
-5.7559829 1.2939035 -2.94243
-5.6631336 1.3123081 -2.8520279
-5.6319275 1.3143864 -2.8199995
-5.5750151 1.311595 -2.7589531
-8.5498962 -1.211382 -4.8814082
-8.5539389 -1.1987845 -4.8907084
-8.5762186 -1.1454258 -4.9355326
-8.7044411 -1.0218699 -5.120018
-8.5262384 -1.2046436 -4.8591948
-8.4462395 -1.1827663 -4.7837143
-8.3113852 -1.1945715 -4.6369863
-8.2697668 -1.1642727 -4.6052918
-8.2471676 -1.1497433 -4.5873122
-8.2043552 -1.1198578 -4.5541954
-7.9570293 -1.1730027 -4.2724833
-7.9159899 -1.1524031 -4.2375164
-7.8316259 -1.1177492 -4.1625547
-7.7721548 -1.1168051 -4.1003089
-7.7275519 -1.1268792 -4.0493088
-7.6894789 -1.1402098 -4.003881
-7.6527433 -1.1605057 -3.9570727
-7.5936623 -1.2403178 -3.862906
-7.5583134 -1.2304792 -3.8296232
-7.485611 -1.2282909 -3.753943
-7.4624624 -1.2289191 -3.7293162
-7.3804283 -1.2401248 -3.6384473
-7.3402262 -1.2665043 -3.5855532
-7.287981 -1.2698437 -3.529202
-7.2488236 -1.2686006 -3.4884667
-7.1230221 -1.2677875 -3.3563228
-7.0838642 -1.2665445 -3.315587
-6.9965644 -1.294633 -3.2124143
-6.9689331 -1.3202637 -3.1730566
-6.914875 -1.2835027 -3.1308513
-6.8934164 -1.2686291 -3.1142101
-6.7135992 -1.1429244 -2.9751892
-6.626461 -1.112969 -2.8954258
-6.5510397 -1.0803008 -2.8290858
-6.4305778 -1.0877876 -2.6992416
-6.3934569 -1.0882233 -2.6599789
-6.3730826 -1.0879234 -2.6386447
-6.2779603 -1.1037115 -2.5321598
-6.2370191 -1.0931813 -2.4932644
-6.1985602 -1.0866517 -2.4553814
-6.1022129 -1.0989336 -2.3490102
-6.0439062 -1.1008967 -2.2868266
-5.8870831 -1.0859945 -2.1276577
-5.7882009 -1.0732783 -2.0286255
-5.6589475 -1.2215813 -1.8331465
-5.6156673 -1.2430569 -1.7789744
-5.521503 -1.2307642 -1.6847405
-5.4748368 -1.2425907 -1.6308663
-5.3783946 -1.242229 -1.5294569
-5.3157544 -1.225219 -1.4703068
-5.2366714 -1.2188509 -1.3895817
-5.1927633 -1.2322099 -1.337998
-5.1334772 -1.2388409 -1.2729146
-5.080338 -1.2153851 -1.2263497
-5.0312991 -1.2075528 -1.1778471
-4.9779921 -1.20446 -1.1229531
-4.9344397 -1.1920527 -1.0820595
-4.8120375 -1.1975224 -0.95097983
-4.7024279 -1.2104918 -0.83036792
-4.6459012 -1.2371917 -0.76015574
-4.5869565 -1.2289838 -0.70137274
-4.5230751 -1.2055088 -0.6435039
-4.5041347 -1.2023133 -0.62483931
-4.3922405 -1.2384934 -0.49252927
-4.230278 -1.2055441 -0.33517349
-4.2122407 -1.2069958 -0.31559902
-4.1915932 -1.2066014 -0.29401493
-4.1449246 -1.1930373 -0.25030351
-4.1069942 -1.1913599 -0.21103418
-4.0530844 -1.2000841 -0.15077436
-3.9894049 -1.1907463 -0.087458134
-3.9686308 -1.1905241 -0.065671802
-3.7515211 -1.0789659 0.11828172
-3.6341119 -1.0751668 0.24039304
-3.6157839 -1.0750238 0.25963521
-3.3907444 -1.0996953 0.5064801
-3.3658319 -1.1070106 0.53564191
-3.3315468 -1.1248235 0.57887554
-3.295331 -1.1560751 0.62952304
-3.2465415 -1.177919 0.68964398
-3.222573 -1.1935215 0.72112954
-3.1721611 -1.1813627 0.76934564
-3.0792565 -1.1274813 0.84560215
-3.0251071 -1.0969059 0.8903805
-2.8872643 -1.0574366 1.0197273
-2.8482258 -1.0682658 1.0651706
-2.7642419 -1.0559813 1.148688
-2.7056324 -1.0722462 1.2169157
-2.6681087 -1.0908207 1.2638649
-2.6295185 -1.0922794 1.3050843
-2.6106198 -1.0890896 1.3237077
-2.5514085 -1.0905582 1.3866454
-2.4530053 -1.0786893 1.4855126
-2.3735003 -1.0700098 1.5657564
-2.2564723 -1.0799052 1.6929492
-2.0796311 -1.0764725 1.8777894
-2.0087306 -1.0721384 1.9507126
-1.9275944 -1.0939044 2.0448632
-1.7845809 -1.1327697 2.2110171
-1.7473314 -1.1762981 2.2676682
-1.7275028 -1.1684697 2.2854137
-1.5216749 -1.1574724 2.4977479
-1.660573 -0.9882648 2.2837439
-1.7273057 -1.014208 2.2238607
-1.8628585 -1.032429 2.088418
-1.9264119 -1.0268992 2.0192823
-2.0383055 -1.0289035 1.9022604
-2.0971889 -1.0375926 1.8437346
-2.1751621 -1.0268369 1.7573224
-2.2146821 -1.0300168 1.7169808
-2.2938588 -1.0488538 1.6411492
-2.3724339 -1.0528944 1.5600272
-2.4316452 -1.0514257 1.4970895
-2.4700985 -1.0374901 1.4510187
-2.59918 -0.69923615 1.1796714
-2.5696521 -0.34231043 1.0678648
-2.6744306 -0.30430585 0.94231713
-2.6937242 -0.29772952 0.91936815
-2.7134693 -0.29347676 0.89687383
-2.8189113 -0.29977044 0.78836262
-2.8308783 -0.29727593 0.77476275
-2.8700147 -0.29854229 0.73405898
-2.9410524 -0.30354124 0.66125727
-3.0655398 -0.0095866919 0.41248333
-3.1222878 0.072212815 0.31997836
-3.1650481 0.092000484 0.26702929
-3.2100654 0.10017112 0.21635485
-3.3042047 0.13049835 0.10508382
-3.4837198 0.1077719 -0.074847341
-3.4935384 0.10655409 -0.084698796
-3.5062776 0.10580945 -0.097814918
-3.5095921 0.10198429 -0.099773645
-3.5831947 0.033833623 -0.14999282
-3.9285665 -0.077824503 -0.46896648
-3.9634974 -0.096956491 -0.49808931
-3.9945402 -0.11115038 -0.52509487
-4.0337749 -0.12451227 -0.56105924
-4.0453753 -0.1379005 -0.56791455
-4.0598211 -0.212257 -0.55335629
-4.060061 -0.21856529 -0.55108356
-4.0622139 -0.27090147 -0.53239721
-4.069418 -0.36754617 -0.50129026
-4.0702081 -0.38827372 -0.49382341
-4.0634646 -0.57142788 -0.41339451
-4.0652747 -0.60432172 -0.4021315
-4.0813527 -0.75987947 -0.35678214
-4.4280996 -1.1170015 -0.57892966
-4.4547362 -1.1012707 -0.61327612
-4.4662352 -1.1015252 -0.6252827
-4.5435071 -1.0873151 -0.71233946
-4.6369133 -1.0502634 -0.82553029
-4.7165403 -1.0597671 -0.90557289
-4.7556763 -1.0610335 -0.94627661
-4.7763243 -1.0614281 -0.96786082
-4.856854 -1.0755789 -1.0469935
-4.9331574 -1.1226021 -1.1085149
-5.1083751 -1.1691519 -1.2743828
-5.1733789 -1.1709495 -1.3421127
-5.1861963 -1.1693611 -1.3562453
-5.2545853 -1.1536845 -1.434535
-5.2981243 -1.1268508 -1.4911253
-5.3161831 -1.1151826 -1.5148125
-5.3321676 -1.1022232 -1.5368326
-5.3482885 -1.0983443 -1.5553609
-5.3862381 -1.0842783 -1.6009535
-5.4362593 -1.0686165 -1.6598966
-5.5234838 -1.0674199 -1.7522233
-5.7871161 -1.0587047 -2.033318
-5.8235254 -0.73688889 -2.2005005
-5.5726128 -0.37766308 -2.0801089
-5.5378118 -0.32964063 -2.0626898
-5.5585175 -0.28928685 -2.1006486
-5.5646448 -0.27881607 -2.1112928
-5.8597865 -0.24602631 -2.4352059
-5.9739571 -0.090693563 -2.6176171
-5.9927583 0.065105289 -2.699791
-5.996861 0.076565325 -2.7086992
-6.0034351 0.069043607 -2.7126102
-6.0037169 0.065318257 -2.7114158
-6.296545 -0.33631757 -2.8589649
-6.412487 -0.32315129 -2.9863238
-6.4534287 -0.33368143 -3.0252194
-6.6801763 -0.39134809 -3.2408977
-6.729002 -0.37681645 -3.2981296
-6.7375193 -0.39089662 -3.3014607
-6.6421947 -0.50863218 -3.1539474
-6.6025763 -0.64383519 -3.0580983
-6.6335354 -0.81396782 -3.022584
-6.8873501 -1.1044759 -3.1735432
-6.9061337 -1.1054189 -3.1929445
-6.9437003 -1.1073048 -3.2317476
-6.9715071 -1.1071116 -3.2611055
-7.0413055 -1.0955174 -3.3392453
-7.0996923 -1.1000252 -3.398922
-7.1974897 -1.0981678 -3.5026469
-7.3532286 -1.0984964 -3.6665087
-7.4514723 -1.0989608 -3.7697735
-7.5103054 -1.1057904 -3.8289905
-7.575768 -1.107509 -3.8972349
-7.6137819 -1.0936201 -3.9428248
-7.6327896 -1.0866756 -3.9656196
-7.6703467 -1.0704677 -4.0116568
-7.6888971 -1.0612043 -4.0348992
-7.8165441 -1.0575682 -4.1707678
-7.8872776 -1.0899589 -4.2322826
-7.9541187 -1.1211269 -4.2901874
-8.1485605 -0.79386944 -4.625957
-8.1272583 -0.66378784 -4.6556048
-8.1177788 -0.62747198 -4.6601629
-7.7945757 -0.36247569 -4.4259233
-7.4902296 -0.16387013 -4.1849599
-7.4821582 -0.15211166 -4.1811686
-7.3950911 0.10232621 -4.1913543
-7.6289639 0.27276161 -4.5058584
-7.6502552 0.29496863 -4.537169
-7.6637335 0.30133769 -4.5539117
-7.7507467 0.63528609 -4.7792368
0.0057139397 1.1105673 3.1980562
0.048199177 1.3091854 3.1632743
0.0085229874 1.2935971 3.1277361
-0.20951891 1.3519962 2.8747563
-0.016732693 1.1683768 3.1512756
-0.027749538 1.0280815 3.1958432
-0.032759666 0.99008894 3.2057786
-0.040173054 0.95295882 3.2128377
-0.034050465 0.95355797 3.2190452
-0.0044951439 1.0271894 3.2206879
-0.80318499 -1.1237553 3.2408214
-0.75730133 -1.1004804 3.2798185
-0.71814299 -1.0358649 3.2951827
-0.70281935 -1.0105807 3.3011956
-0.65624905 -0.90884745 3.309504
-0.64092636 -0.88356328 3.3155165
-0.59435606 -0.78182995 3.3238249
-0.5790329 -0.75654566 3.3298373
-0.44436502 -0.5396626 3.3848114
-0.41442204 -0.38381478 3.3539462
-0.40730619 -0.35407376 3.3495317
-0.34540701 -0.20065071 3.3532867
-0.31814432 -0.15566869 3.3639851
-0.29593706 -0.070753098 3.3533726
-0.27490425 0.041032761 3.3307652
-0.26502609 0.093661427 3.320097
-0.26088667 0.19512752 3.2838326
-0.2650938 0.23721728 3.2625508
-0.31343222 0.18557265 3.2323275
-0.31746197 0.17554125 3.2321005
-0.39089727 0.037868232 3.2098918
-0.52910948 -0.10658929 3.122189
-0.54373598 -0.24549796 3.1624007
-0.66030884 -0.50212842 3.1423941
-0.68514538 -0.54794347 3.1345844
-0.71118402 -0.59332597 3.1253347
-0.75805855 -0.81516731 3.1647925
-0.82628417 -0.91321802 3.1322064
-1.0043085 -1.0823281 3.0124516
-1.0225446 -1.1057483 3.0026255
-1.0592532 -1.1745478 2.9915161
-1.0213745 -1.2031443 3.0428514
-1.0021386 -1.2100657 3.0658779
-0.92341542 -1.193491 3.1421375
-0.85710979 -1.1476305 3.1935968
-6.4338369 -1.0534561 -2.716419
-6.1928549 -0.64271355 -2.6271098
-6.41677 -0.47801739 -2.9288306
-6.627408 -0.82443863 -3.0119395
0 0 0 1 0 0 0 1 0 0 0 1 0 0 0 0 0 479 1 0 0
