ply
format ascii 1.0
comment PCL generated
element vertex 484
property float x
property float y
property float z
element camera 1
property float view_px
property float view_py
property float view_pz
property float x_axisx
property float x_axisy
property float x_axisz
property float y_axisx
property float y_axisy
property float y_axisz
property float z_axisx
property float z_axisy
property float z_axisz
property float focal
property float scalex
property float scaley
property float centerx
property float centery
property int viewportx
property int viewporty
property float k1
property float k2
end_header
-1.5409541 -0.95746064 -5.7407036
-1.7004819 -1.1577412 -5.7004805
-1.7287006 -1.1615249 -5.6821308
-1.7558365 -1.1583868 -5.6620784
-1.8071079 -1.1611985 -5.6272945
-1.8254809 -1.162078 -5.6147842
-1.8951254 -1.1657692 -5.5674906
-1.9400377 -1.1631962 -5.5352325
-2.029501 -1.1557432 -5.47015
-2.3979115 -1.080351 -5.1862693
-2.5861981 -1.0617416 -5.0482578
-2.7164886 -1.0751344 -4.9620838
-2.7614005 -1.0725614 -4.9298258
-2.8436413 -1.0530695 -4.86551
-2.8657529 -1.0472155 -4.8479996
-2.9099429 -1.0400281 -4.8146076
-2.9378009 -1.0415046 -4.7956901
-3.1240587 -1.0426012 -4.666091
-3.2818279 -1.0630345 -4.5632391
-3.3142991 -1.0671552 -4.5420408
-3.47841 -1.0339957 -4.4157352
-3.6655829 -1.0587913 -4.2939115
-3.4089348 -1.0911931 -4.4845295
-3.3665659 -1.081807 -4.510766
-3.3386815 -1.0778567 -4.5288239
-3.2652886 -1.0738887 -4.5786357
-3.1302106 -1.0830641 -4.6761637
-3.1129489 -1.0893037 -4.6904263
-3.0162449 -1.0779444 -4.7538824
-2.982703 -1.0705136 -4.774653
-2.8554165 -1.0802095 -4.8669281
-2.7837296 -1.0882276 -4.919805
-2.7587774 -1.0934968 -4.9390898
-2.6960707 -1.107217 -4.9877243
-2.5661414 -1.0961314 -5.0744653
-0.43774986 1.4285338 -5.6634665
-0.42459154 1.4065305 -5.6804614
-0.58444691 1.3857584 -5.5762744
-0.62936068 1.3883208 -5.5440197
-0.73226976 1.4016397 -5.4674706
-0.7930069 1.4099281 -5.4221396
-0.89114571 1.4033856 -5.3559723
-0.81548834 1.4207549 -5.402606
-0.76800919 1.441782 -5.4282756
-0.70959187 1.4407959 -5.4693947
-0.63556337 1.4313319 -5.5244188
-0.4542737 1.4379659 -5.6485853
-1.9562135 -0.82854342 -5.4051228
-1.7630024 -0.62487942 -5.4676523
-1.5286403 -0.34183371 -5.5307159
-1.3238788 -0.064337455 -5.5750918
-1.2417107 -0.062765479 -5.6318784
-1.2461162 -0.13507491 -5.6544781
-1.2576666 -0.20890708 -5.6726313
-1.2942252 -0.27744254 -5.6714506
-1.3260961 -0.38977265 -5.6890917
-1.3224034 -0.53172672 -5.7420702
-1.3754544 -0.65008873 -5.7470713
-5.952898 -1.1257358 -2.7213717
-5.8381314 -1.161476 -2.8141565
-5.810123 -1.1568398 -2.8320577
-5.6914415 -1.1546715 -2.9141152
-5.6108217 -1.1448004 -2.9668746
-5.5117331 -1.1678412 -3.044209
-5.3477082 -1.1104742 -3.1383128
-5.2623253 -1.0893281 -3.190393
-5.1724911 -1.0924885 -3.2542105
-5.1457157 -1.0921782 -3.2727866
-5.0526032 -1.0309094 -3.3160157
-4.8612156 -1.024209 -3.4472051
-4.8030748 -1.0108885 -3.483052
-4.663126 -1.0361952 -3.5897071
-4.5169473 -1.0835614 -3.7085421
-4.3423238 -1.0759028 -3.827692
-4.2559853 -1.0533204 -3.8799295
-4.0893631 -1.0841652 -4.0071659
-4.0325804 -1.1221656 -4.060287
-3.9460919 -1.1354606 -4.1253672
-3.7968078 -1.0785229 -4.2093363
-6.4890165 0.009342283 -1.9442012
-6.4640164 0.088520929 -1.9335358
-6.41854 0.051896721 -1.9782776
-6.2996812 -0.032708108 -2.0912678
-6.0005417 -0.039114088 -2.3023109
-5.6488538 -0.05822888 -2.5545392
-5.2817397 -0.10305454 -2.8266623
-5.2416868 -0.13587867 -2.8662696
-5.2328463 -0.1451606 -2.8757348
-5.2036924 -0.17398952 -2.9063168
-5.0628047 -0.31121668 -3.0533652
-4.7727141 -0.18239185 -3.2100787
-4.7458887 -0.13804948 -3.2130556
-4.7067213 -0.061611399 -3.2132511
-4.5681901 0.085491404 -3.2577019
-4.546041 0.11908583 -3.2612314
-4.5264182 0.11982633 -3.2746634
-4.4994602 0.11709343 -3.2944474
-4.4293914 0.066716537 -3.3612349
-4.3079901 -0.041564524 -3.484406
-4.1451263 -0.042696759 -3.5984702
-3.9722266 -0.050507337 -3.7219095
-3.9676743 -0.07051491 -3.7321901
-4.0877485 -0.21272539 -3.6988833
-4.1191626 -0.25726402 -3.6927733
-4.2127113 -0.42596138 -3.6873832
-4.2284689 -0.54846919 -3.719883
-4.2440729 -0.59352416 -3.7249901
-4.2772284 -0.70127314 -3.7401078
-4.025413 -1.0405982 -4.0363278
-3.9192874 -1.0551401 -4.1155558
-3.8469851 -1.0589174 -4.1673565
-3.7850895 -1.0445355 -4.2054467
-3.7439206 -1.04287 -4.2335873
-3.7065699 -1.0468764 -4.2610765
-6.8299727 -1.1627669 -2.1224129
-6.5792084 -1.1794722 -2.3033514
-6.5549088 -1.2046611 -2.3292537
-6.4865737 -1.176649 -2.3669987
-6.4410706 -1.1488432 -2.3888826
-6.3523812 -1.1065392 -2.4357581
-6.1278033 -1.096326 -2.5888641
-10.392897 -1.1163332 0.38062453
-10.358788 -1.129271 0.35222673
-10.313744 -1.1318319 0.3198812
-10.167309 -1.1268336 0.21945953
-10.111328 -1.1190176 0.18316579
-10.048497 -1.1234387 0.13774657
-9.9933023 -1.1372268 0.094330788
-9.9191761 -1.1290138 0.045514584
-9.7564449 -1.1352592 -0.07027185
-9.6532326 -1.11621 -0.13554013
-9.6032867 -1.1164407 -0.17047882
-9.5613165 -1.1099414 -0.19746244
-9.4562426 -1.08181 -0.26080501
-9.3509512 -1.1051219 -0.34256458
-9.2214174 -1.1756259 -0.45799828
-9.1988983 -1.1769376 -0.47417986
-9.0845308 -1.1831063 -0.5561868
-8.943573 -1.3193895 -0.70294869
-8.7424641 -1.2824593 -0.83019006
-8.6407537 -1.2192972 -0.87874699
-8.4562836 -1.185462 -0.99547434
-8.2272873 -1.2286012 -1.1706071
-8.1655626 -1.2400779 -1.2177595
-8.0241909 -1.2257609 -1.3113387
-7.8759394 -1.2093347 -1.4089706
-7.832005 -1.2188669 -1.443017
-7.6119719 -1.1194193 -1.561268
-7.4939275 -1.1316476 -1.6479921
-7.3532543 -1.0961041 -1.7335476
-7.3347116 -1.093385 -1.745523
-7.2274899 -1.0488346 -1.8045348
-6.8700123 -1.1287146 -2.0823789
-10.336549 -1.106213 0.34489322
-10.308558 -1.1023049 0.32674646
-10.205337 -1.0832238 0.26148295
-10.170301 -1.0705357 0.24153686
-10.091921 -1.0711627 0.18661308
-9.7162704 -0.82464892 0.011973858
-9.8855324 -0.44547975 0.26472712
-9.9202499 -0.43175989 0.29382777
-9.9723587 -0.39127791 0.34456754
-9.9801683 -0.34807879 0.36535621
-9.9941263 -0.30079061 0.39188719
-9.8933411 -0.23452498 0.34507799
-9.6563816 -0.15698159 0.20723701
-9.6021433 -0.11899398 0.18287182
-9.5228796 -0.077322848 0.14234924
-9.4861841 -0.075519346 0.11738014
-9.3766155 -0.07648246 0.040570736
-9.3356724 -0.10103291 0.0032799244
-9.3100557 -0.11377792 -0.019123316
-9.2909279 -0.12876149 -0.037792206
-9.1701317 -0.26280844 -0.16968977
-9.1183701 -0.28314114 -0.2130332
-9.1044884 -0.30513135 -0.23052919
-9.0945377 -0.32910877 -0.24598718
-9.0853977 -0.38456535 -0.2720561
-9.12535 -0.51252872 -0.28960705
-9.1276569 -0.61888653 -0.32575977
-9.1290627 -0.75171202 -0.3719393
-9.1343155 -0.85952967 -0.40655434
-8.9720325 -1.0977895 -0.60440707
-8.7872829 -1.1213578 -0.74171126
-8.7708416 -1.1175897 -0.75184703
-8.7495441 -1.1201077 -0.76760459
-8.6346016 -1.1209831 -0.84813344
-8.544157 -1.1239266 -0.91229928
-8.5131664 -1.136584 -0.93842196
-8.346571 -1.1398835 -1.0558598
-8.2642679 -1.1050236 -1.1009215
-8.1985703 -1.0683649 -1.133756
-8.1361094 -1.0752356 -1.1797867
-8.080142 -1.0673811 -1.2160572
-8.0184164 -1.0788578 -1.2632098
-7.9439235 -1.0683419 -1.3114647
-7.8705335 -1.0647348 -1.3614028
-7.7797213 -1.0653752 -1.4250076
-7.5400057 -0.92381722 -1.5420433
-7.4238696 -0.68825781 -1.5394574
-7.3772993 -0.67411631 -1.5669378
-7.2774916 -0.64063704 -1.624706
-7.0782638 -0.36404556 -1.6655413
-7.0427814 -0.34508792 -1.6835732
-7.0220852 -0.33108455 -1.693045
-6.9933772 -0.32251549 -1.7100377
-6.9646692 -0.3139464 -1.7270304
-6.7520704 -0.2924726 -1.8677781
-6.5702977 1.2485628 -1.4474839
-6.451827 1.2498065 -1.5297222
-6.3613343 1.2470837 -1.5938438
-6.2882929 1.2485369 -1.6443031
-6.0688043 1.2552004 -1.7951174
-6.0157475 1.244452 -1.8359619
-5.8881831 1.2474508 -1.9239239
-5.8515072 1.2476338 -1.9494548
-5.7501316 1.2552996 -2.0174825
-5.6908851 1.2844315 -2.0484872
-5.6981606 1.29406 -2.0399911
-5.7352204 1.2915521 -2.0150175
-5.788271 1.2991867 -1.975283
-5.8166142 1.2929207 -1.9577273
-5.8540549 1.2880048 -1.9333428
-5.9012775 1.2764252 -1.9044979
-6.0284796 1.2788279 -1.814871
-6.0895371 1.2947317 -1.7666123
-6.2650552 1.2786441 -1.6498309
-6.3719058 1.2924544 -1.5703566
-6.4285893 1.2799138 -1.5352502
-6.4565663 1.2759472 -1.5171335
-6.6368232 1.2860004 -1.3877635
-6.7269516 1.2910269 -1.3230784
-6.7716517 1.2958438 -1.2901723
-6.8737636 1.2835132 -1.2232869
-7.0034881 1.2695194 -1.1377211
-7.1379519 1.2816664 -1.0395665
-7.2440739 1.3000836 -0.9589653
-7.3625441 1.29884 -0.87672687
-7.586391 1.2914917 -0.72311389
-7.5916061 1.2942334 -0.71850109
-7.5999498 1.29862 -0.71112037
-7.627789 1.2987357 -0.69165051
-7.6366501 1.2967942 -0.68615544
-7.6646404 1.2928864 -0.66800869
-7.7005024 1.2909328 -0.64367425
-7.8739066 1.2923089 -0.5221678
-8.0036535 1.2785373 -0.43650734
-8.0650196 1.2921758 -0.38883793
-8.1834641 1.2910854 -0.3065629
-8.2285089 1.2936463 -0.27421725
-8.4018364 1.291653 -0.15396059
-8.4639339 1.3006829 -0.10741675
-8.5358696 1.3062489 -0.055236578
-8.5642271 1.3000365 -0.037652254
-8.6107349 1.2933801 -0.0075573921
-8.7004585 1.3008062 0.057696342
-8.773859 1.2971549 0.10762596
-8.8196354 1.295107 0.1388464
-8.931963 1.2771708 0.21087074
-9.0187559 1.303032 0.28062534
-9.097908 1.3185308 0.3413682
-9.227438 1.3160745 0.43089509
-9.3015671 1.3078462 0.47970772
-9.3904123 1.3108381 0.54277468
-9.4081984 1.3126982 0.55584812
-9.4358225 1.3110949 0.5745573
-9.4919271 1.3124171 0.61418223
-9.5708447 1.3167102 0.6707828
-9.6096268 1.3160021 0.6975975
-9.7000732 1.3188959 0.76174736
-9.7564163 1.3087598 0.79746985
-9.8123932 1.300927 0.83375454
-9.9176426 1.2746092 0.89786363
-9.9619923 1.263665 0.9249289
-9.9552708 1.2629164 0.91997242
-9.8992596 1.2624255 0.88070822
-9.8762951 1.2660853 0.86598063
-9.7180347 1.2672646 0.75595021
-9.5988665 1.2728944 0.6747818
-9.5649891 1.2711999 0.65053725
-9.5262051 1.2719082 0.62372208
-9.4831219 1.2677689 0.59218454
-9.4706802 1.2688899 0.58389997
-9.3814774 1.2732838 0.52320528
-9.3240271 1.273441 0.48316646
-9.3149214 1.2722958 0.47640538
-9.2971354 1.2704357 0.46333194
-9.2343044 1.2660146 0.4179132
-9.1144505 1.2688611 0.33527803
-9.0007105 1.2474562 0.24829912
-8.8872843 1.2723055 0.17796254
-8.7634544 1.2519414 0.084311485
-8.6933212 1.2385842 0.030623674
-8.6148491 1.2619375 -0.015850782
-8.4575577 1.2301213 -0.13691986
-8.4110489 1.2367779 -0.16701448
-8.3354511 1.2542555 -0.21356869
-8.2347927 1.2572062 -0.28277016
-8.093091 1.2410764 -0.38739026
-7.9713774 1.2540776 -0.46771765
-7.9535909 1.2522175 -0.48079121
-7.8922248 1.2385789 -0.52846062
-7.702589 1.0871786 -0.71456218
-7.6489649 1.0442973 -0.76721132
-7.6247287 1.0335537 -0.7879405
-7.5868134 1.0353043 -0.81377971
-7.5505958 1.041814 -0.83674467
-7.5378366 1.0432111 -0.84515321
-7.3346233 1.2550845 -0.91174829
-7.1942706 1.2714297 -1.0038964
-7.1157613 1.2513493 -1.0658175
-7.0151072 1.2544657 -1.1349571
-6.9976554 1.2502893 -1.1486194
-6.9413366 1.2605261 -1.1842893
-6.8955436 1.2626201 -1.2155048
-6.823596 1.2571626 -1.2676547
-6.8061438 1.2529864 -1.2813169
-6.7334671 1.2521362 -1.3323398
-6.6600614 1.255893 -1.3822354
-10.787535 1.2220356 1.4862909
-10.955055 1.1586561 1.5806997
-11.050143 1.1801088 1.6546783
-11.067509 1.1748583 1.6649339
-11.051352 1.0658811 1.6149645
-11.052813 0.97528595 1.5838177
-11.051403 0.89199191 1.5532601
-11.048391 0.85706609 1.5387576
-11.013822 0.80418795 1.495857
-10.995918 0.76009172 1.4677057
-10.987222 0.72863513 1.4504678
-10.981924 0.6315363 1.4122953
-10.971643 0.60892391 1.3970916
-10.907557 0.6029433 1.3502426
-10.875099 0.60831296 1.3294969
-10.740543 0.5844838 1.2271299
-10.908321 0.82558376 1.429826
-10.646954 1.2093704 1.3836839
-10.418317 1.180912 1.2140145
-10.413419 1.1796538 1.2101495
-10.243868 1.2822001 1.1282299
-10.66293 1.3325303 1.4385619
-10.597569 1.3442222 1.3970981
-10.580904 1.3354403 1.3823493
-10.537697 1.3213508 1.347193
-10.447802 1.3054544 1.2788115
-10.396373 1.2940782 1.2388802
-10.266592 1.3078468 1.1531951
-10.248463 1.3082818 1.1406972
-10.797099 -0.66832125 0.82178521
-10.812668 -0.78159273 0.79243279
-10.484034 -1.0593702 0.46445417
-10.876741 -0.90472192 0.79343224
-10.980637 -0.72061771 0.93130708
-11.011023 -0.64278203 0.98014927
-11.004038 -0.60033953 0.99034476
-10.961269 -0.3712554 1.0418341
-10.962624 -0.34131396 1.0534101
-10.966238 -0.28873739 1.0746
-10.973007 -0.2359696 1.0980592
-10.926105 -0.15006386 1.0958288
-10.88236 -0.063966855 1.0958676
-10.86985 -0.029427916 1.0994003
-10.867031 -0.025918275 1.0986793
-10.711462 0.087370202 1.0303319
-10.680696 0.077780589 1.0054553
-10.643141 0.060067117 0.97295666
-10.597366 0.039468795 0.93369722
-10.591372 0.034109637 0.9276104
-10.610876 0.029837683 0.93970585
-10.654109 0.014577508 0.9644599
-10.854603 -0.3758651 0.96575499
-10.864429 -0.52300441 0.92037034
-1.8718114 1.3446535 -4.6924219
-1.9472775 1.3284509 -4.6455078
-1.9868484 1.3156919 -4.6224213
-2.0154276 1.3096052 -4.6046371
-1.9421659 1.3045257 -4.6575699
-1.8806863 1.301918 -4.7014017
-1.8178926 1.314317 -4.7408228
-1.7872505 1.3198684 -4.7602367
-1.7137585 1.3233927 -4.8102756
-1.6113253 1.3353113 -4.8775311
-1.5389152 1.331913 -4.9292727
-1.40237 1.3357633 -5.0232
-1.3570952 1.3355085 -5.0548878
-1.3180757 1.3447932 -5.0788226
-1.2673903 1.379151 -5.1019969
-1.2833638 1.3901076 -5.0869589
-1.3321266 1.3928249 -5.0519624
-1.394938 1.3692688 -5.0164905
-1.451735 1.359403 -4.9803548
-1.5307617 1.3700334 -4.9214277
-1.5853944 1.3740126 -4.8818874
-1.7057199 1.389058 -4.7925706
-1.8435931 1.3484327 -4.7107735
-3.2602448 1.3376241 -3.7259355
-3.1259644 1.3267356 -3.8235154
-2.9780152 1.3399192 -3.9220877
-2.9221232 1.3455535 -3.959094
-2.8764379 1.3467422 -3.9905553
-2.8066278 1.3250978 -4.0469608
-2.6881793 1.3263264 -4.1291895
-2.6428931 1.3261731 -4.1608486
-2.6334989 1.3224745 -4.1687183
-2.5105994 1.302639 -4.2615318
-2.4244781 1.3233962 -4.3142657
-2.3227277 1.3309282 -4.3826027
-2.3023272 1.3267058 -4.3983393
-2.3598461 1.312225 -4.3633385
-2.4177256 1.2954369 -4.3289051
-2.4459441 1.2916577 -4.3105536
-2.5027409 1.2817918 -4.2744179
-2.532042 1.2710903 -4.2577686
-2.7224314 1.1494246 -4.1680946
-2.9415131 1.2961961 -3.9630864
-3.0198448 1.3121579 -3.9027517
-3.1043262 1.30109 -3.8477221
-3.1830294 1.314746 -3.7879467
-3.3253202 1.2870779 -3.6984663
-3.4592288 1.3002719 -3.6003275
-3.5489972 1.3059939 -3.5356469
-3.6805947 1.2839546 -3.4516306
-3.756243 1.2669884 -3.4048598
-3.9559486 1.2829493 -3.259819
-4.0358691 1.2808311 -3.2047949
-4.0711832 1.2810162 -3.1800833
-4.1849346 1.2607315 -3.1078992
-4.2298183 1.2635924 -3.0755591
-4.303607 1.2581533 -3.0259933
-4.3492355 1.2564036 -2.994771
-4.467536 1.2561309 -2.9123063
-4.5573044 1.2618529 -2.8476255
-4.6307211 1.2587192 -2.7975011
-4.7330422 1.2472854 -2.7301509
-4.777554 1.2524518 -2.697252
-4.8669505 1.2604792 -2.6320124
-5.0145278 1.249601 -2.532881
-5.059412 1.2524621 -2.5005407
-5.1422505 1.2452577 -2.4452858
-5.1369996 1.2730346 -2.4390883
-5.0510297 1.293324 -2.4918823
-4.9894218 1.2839128 -2.5382197
-4.9334731 1.288986 -2.5754652
-4.8304081 1.3050303 -2.6416972
-4.7870116 1.2929479 -2.6762733
-4.6679668 1.2978314 -2.7576201
-4.5496659 1.298104 -2.840085
-4.4017167 1.3112875 -2.9386575
-4.2837882 1.3092549 -3.0216811
-4.1198587 1.3112775 -3.1353688
-4.0022707 1.3281435 -3.2114449
-3.9714437 1.3342361 -3.2307954
-3.8806534 1.3279605 -3.2963858
-3.792001 1.3153223 -3.3627431
-3.7353079 1.3250064 -3.3988707
-3.6900518 1.3244507 -3.4306521
-3.6440518 1.3285059 -3.4613156
-3.5406148 1.3468559 -3.5269885
-3.4519625 1.3342177 -3.5933461
-3.3621943 1.3284956 -3.6580265
-3.3047571 1.3427904 -3.6930361
-2.7358623 -0.16034134 -4.6237602
-2.7753212 -0.20064099 -4.6105309
-2.8132157 -0.27725917 -4.6112881
-2.8171229 -0.28427023 -4.6110506
-2.8315945 -0.3599295 -4.6278143
-2.8233533 -0.44047928 -4.6621656
-2.7968729 -0.43461287 -4.6785631
-2.7321355 -0.36971295 -4.7006998
-2.712774 -0.32321033 -4.6977015
-2.7327998 -0.16196591 -4.6264744
-6.7027326 -0.32837608 -1.9149584
-6.7873659 -0.34492704 -1.8617697
-6.8907709 -0.40621865 -1.8113656
-7.1134524 -0.83415473 -1.8078978
-6.8194752 -1.0984318 -2.1068966
-6.7277184 -1.0382248 -2.1495564
-6.3281593 -0.77751672 -2.3358414
-6.3232026 -0.74018091 -2.3260443
-6.3182459 -0.70284534 -2.3162472
-6.5199361 -0.37829506 -2.0602553
-6.650456 -0.33228683 -1.9528306
-6.6755214 -0.32898629 -1.9341656
-10.464592 -1.0831093 0.44245744
0 0 0 1 0 0 0 1 0 0 0 1 0 0 0 0 0 484 1 0 0
