ply
format ascii 1.0
comment PCL generated
element vertex 509
property float x
property float y
property float z
element camera 1
property float view_px
property float view_py
property float view_pz
property float x_axisx
property float x_axisy
property float x_axisz
property float y_axisx
property float y_axisy
property float y_axisz
property float z_axisx
property float z_axisy
property float z_axisz
property float focal
property float scalex
property float scaley
property float centerx
property float centery
property int viewportx
property int viewporty
property float k1
property float k2
end_header
-10.758821 -1.165683 -2.2139387
-10.781839 -1.1613179 -2.2079933
-10.850681 -1.0961008 -2.1762302
-11.070759 -1.0177242 -2.1095653
-11.092897 -1.0182606 -2.1051164
-11.110474 -0.98183012 -2.0917046
-11.146338 -0.8244164 -2.0420687
-11.113004 -0.78477204 -2.0383568
-11.080754 -0.7685262 -2.0406923
-10.575583 -0.7199468 -2.1324685
-10.554754 -0.68207103 -2.1266365
-10.515481 -0.66601694 -2.1304805
-10.473324 -0.65414143 -2.1360426
-10.405962 -0.63578486 -2.1450963
-10.359794 -0.63221872 -2.153718
-10.282871 -0.63520849 -2.1704772
-9.9836779 -0.39526936 -2.1682277
-9.8807402 -0.36518168 -2.1815169
-9.6951189 -0.14759019 -2.1616971
-9.6773758 -0.12797478 -2.16012
-9.5924263 0.046896577 -2.1308672
-9.4790621 0.050631583 -2.1533837
-9.3341436 0.011101842 -2.1940434
-9.2882729 0.013557196 -2.2029011
-9.2715101 0.016164899 -2.2056794
-9.2206736 0.017175674 -2.2159548
-9.0656977 -0.15901002 -2.2953324
-9.0595417 -0.17796892 -2.3016918
-9.0318871 -0.23466258 -2.3226259
-9.0502615 -0.30221987 -2.3369234
-9.053277 -0.35962382 -2.3516853
-9.0990219 -0.45664626 -2.3682032
-9.1361847 -0.47963437 -2.3666558
-9.2409849 -0.54077244 -2.3613033
-9.3747807 -0.81858909 -2.4080184
-9.1569042 -1.0949999 -2.5273111
-8.943819 -1.1087942 -2.5752134
-8.8344078 -1.0906489 -2.5930471
-8.7641516 -1.0862653 -2.6064467
-8.7188396 -1.0914624 -2.61724
-8.6847458 -1.0927479 -2.6246574
-8.6422167 -1.10136 -2.6357884
-8.5972118 -1.1036179 -2.6457303
-8.3929186 -1.1132159 -2.6906838
-8.2504778 -1.1055914 -2.7181895
-8.2166786 -1.1037821 -2.7247164
-8.1072674 -1.1248364 -2.7530575
-7.9987001 -1.1254019 -2.7757316
-7.9677038 -1.1371191 -2.7853026
-7.9225292 -1.1745218 -2.8047001
-7.8302088 -1.2249559 -2.8373716
-7.783042 -1.2376759 -2.8505659
-7.7615242 -1.2411904 -2.8559721
-7.6801047 -1.2467879 -2.8743629
-7.6044288 -1.2385355 -2.88785
-7.3666968 -1.0853117 -2.8960948
-7.2324009 -0.62671584 -2.8010244
-7.5132914 -0.4650194 -2.6994095
-7.5735693 -0.47217786 -2.6888235
-7.724936 -0.45278096 -2.6522229
-7.7286363 -0.44737899 -2.6500072
-7.6697211 -0.35096854 -2.6363857
-7.6436329 -0.31994686 -2.633482
-7.6050048 -0.3178792 -2.6409414
-7.3545499 -0.34326392 -2.699703
-7.2669592 -0.34452206 -2.7182112
-7.1444798 -0.34804744 -2.7445645
-7.073854 -0.33391038 -2.7554264
-6.9130712 -0.34231529 -2.791034
-6.8769698 -0.34265953 -2.7986157
-6.822278 -0.35085359 -2.8121579
-6.7384195 -0.35650128 -2.8310685
-6.6997986 -0.35437894 -2.8385115
-6.6225567 -0.35013425 -2.8533976
-6.532187 -0.36800832 -2.8769362
-6.1712589 -0.36635819 -2.9513688
-6.0370479 -0.33752745 -2.9714828
-5.9913869 -0.33596173 -2.9805355
-5.8389802 -0.33433506 -3.0117164
-5.8131876 -0.33548164 -3.0173745
-5.7552562 -0.33229819 -3.0285389
-5.5885987 -0.38999388 -3.078578
-5.147747 -0.19797704 -3.1185617
-5.1210098 -0.21630946 -3.1290226
-4.6628194 -0.10045084 -3.193018
-4.6395855 -0.068992779 -3.1894052
-4.5226617 -0.097540364 -3.2213137
-4.1595006 0.14231476 -3.2323568
-4.1229372 0.14242101 -3.2399135
-4.0442748 0.13025361 -3.2594936
-3.9219522 0.12853891 -3.2853293
-3.8957968 0.12042782 -3.2929294
-3.8829954 0.10101336 -3.3007894
-3.877265 0.092100531 -3.3043673
-3.5903459 -0.20195407 -3.4427125
-3.541714 -0.21558523 -3.4564552
-3.4141741 -0.29678223 -3.5046792
-3.2150173 -0.30656552 -3.5486169
-2.9155016 -0.24524514 -3.5943143
-2.8810487 -0.22927359 -3.5971804
-2.8695624 -0.22952248 -3.5996299
-2.8061934 -0.24433219 -3.6167459
-2.7566311 -0.33455753 -3.6512132
-2.8057733 -0.42932957 -3.6664228
-2.8242297 -0.62728345 -3.7156572
-2.7986815 -0.72042054 -3.7459235
-2.7861187 -0.75683141 -3.7582898
-2.5697184 -1.074037 -3.8882117
-2.4090071 -1.0803688 -3.9232488
-2.2037404 -1.0990229 -3.9708319
-2.1146288 -1.1236674 -3.9959245
-1.910275 -1.1633676 -4.0489597
-1.7443357 -1.1980493 -4.0926809
-1.6734457 -1.1961061 -4.1068664
-1.552062 -1.2184654 -4.138041
-1.4390278 -1.2099924 -4.1592188
-1.2699666 -1.2471565 -4.2042527
-1.0432906 -1.2161797 -4.2429733
-0.96011734 -1.2288435 -4.2636228
-0.87110758 -1.2558266 -4.2893209
-0.83259153 -1.2585067 -4.2980294
-0.71633482 -1.2501779 -4.3199143
-0.65057278 -1.217546 -4.3248096
-0.34947729 -1.2302655 -4.3906817
-0.65630865 -1.2008884 -4.3191547
-0.82141972 -1.1750301 -4.2779703
-0.8612709 -1.1752189 -4.2697539
-0.89772415 -1.1808317 -4.2636962
-1.0127473 -1.18863 -4.2419248
-1.0488234 -1.1948453 -4.2361069
-1.1657338 -1.1996304 -4.2131367
-1.2983418 -1.1568537 -4.17416
-1.5363879 -1.152177 -4.1235237
-1.7680902 -1.1501269 -4.0749073
-1.9282937 -1.1321027 -4.0368409
-2.0052238 -1.1244041 -4.0188179
-11.365921 0.67348623 -1.5949911
-11.371813 0.69284749 -1.5885792
-11.351956 0.82367826 -1.557628
-11.356844 0.87061858 -1.5440314
-11.342415 0.91858375 -1.5341672
-11.325573 0.96667707 -1.5247695
-11.284586 1.0160515 -1.5200372
-11.26947 1.0308646 -1.5192021
-11.235125 1.064031 -1.5174366
-11.236776 1.0564471 -1.5191268
-10.758637 0.79812276 -1.6875632
-10.692493 0.832847 -1.6919768
-10.555366 1.2867719 -1.5987459
-10.549545 1.3039231 -1.5953557
-10.503824 1.3081881 -1.6036977
-10.458522 1.3030901 -1.6144621
-10.241556 1.2969131 -1.6611278
-10.49111 1.2798483 -1.6139319
0.043821812 -0.42058879 -4.2552319
0.021329403 -0.5055986 -4.2733536
0.023896694 -0.44934726 -4.2588072
0.012529373 -0.29060152 -4.2138963
0.014805317 -0.27123827 -4.209178
0.033879757 -0.18585047 -4.1902461
0.03801012 -0.14823227 -4.1810188
0.04399538 -0.092358902 -4.1672835
-0.091826439 0.17988726 -4.0661292
-0.08865881 0.19641137 -4.0623569
-0.057234764 0.2444804 -4.0559907
-0.016112804 0.32264051 -4.04357
0.043669701 0.43347207 -4.0262628
0.056804657 0.57309425 -3.9915607
0.055588722 0.58260727 -3.9887586
0.056319237 0.67665625 -3.9636993
0.056695461 0.70453107 -3.9563055
0.056684494 0.72368073 -3.95117
0.060210705 0.84572816 -3.9191856
0.060586929 0.87360299 -3.9117918
0.058531761 0.92050385 -3.8987932
0.062057972 1.0425514 -3.8668089
-0.17683458 1.2944783 -3.7497194
-0.30460453 1.3187951 -3.7166951
-0.55538464 1.327033 -3.662462
-0.63301849 1.3183863 -3.6486747
-0.68434048 1.3232162 -3.6367331
-0.76167774 1.3216029 -3.6211219
-0.87207222 1.2993671 -3.6041808
-0.98812723 1.2957747 -3.581068
-1.2713614 1.2981092 -3.5216851
-1.3163323 1.3007069 -3.5116594
-1.465445 1.2764921 -3.4872167
-1.7087765 1.308939 -3.4280398
-1.7859154 1.3120145 -3.4112129
-1.8247323 1.3076911 -3.404319
-1.8633518 1.3080566 -3.3962095
-1.9408865 1.3017544 -3.3818142
-2.0347929 1.318009 -3.357976
-2.0742679 1.3171883 -3.3500068
-2.2242193 1.3017442 -3.3230391
-2.3585386 1.3236042 -3.2893147
-2.2859423 1.3273149 -3.3033803
-2.2714233 1.3280569 -3.3061934
-10.932629 0.049487799 -1.8521461
-10.835797 0.10858807 -1.8563914
-10.825346 0.50753081 -1.7516199
-10.809321 0.53726673 -1.7469732
-10.808655 0.54792964 -1.7442533
-10.774433 0.66601872 -1.7196978
-10.755432 0.71373045 -1.7108501
-7.9762564 1.2453444 -2.1448903
-7.8610034 1.2375127 -2.1708989
-7.8967967 1.2449312 -2.161485
-7.7348413 -1.334336 -2.8864758
-7.9739251 -1.3535106 -2.8420174
-8.2423801 -1.2370631 -2.7551115
-8.3014507 -1.2458251 -2.7452059
-8.3244648 -1.2414569 -2.7392607
-8.4135084 -1.23518 -2.719106
-8.6289558 -1.1182282 -2.6430614
-8.6532679 -1.1137754 -2.6368241
-8.7439957 -1.1057204 -2.6158433
-8.8145685 -1.1171204 -2.6042585
-8.8919296 -1.1235946 -2.5899453
-9.0532312 -1.1269397 -2.55738
-9.1689034 -1.1284649 -2.5337925
-9.2144251 -1.1279457 -2.5242097
-9.3319645 -1.1417035 -2.5035138
-9.408124 -1.1474394 -2.4892521
-9.452877 -1.1330873 -2.4761207
-9.5497627 -1.1060733 -2.4487805
-9.7292185 -1.1239244 -2.4163373
-9.7676363 -1.1213144 -2.4076679
-9.8061581 -1.1210431 -2.3996036
-9.858469 -1.1155982 -2.3872921
-9.935936 -1.1244112 -2.3735838
-9.9868584 -1.1301972 -2.3645711
-10.045242 -1.1402177 -2.3551455
-10.090554 -1.1350209 -2.3443522
-10.186026 -1.1190212 -2.3202577
-10.262947 -1.1160314 -2.3034987
-10.439926 -1.1457137 -2.2747409
-10.564774 -1.189574 -2.2605984
-10.623178 -1.1882919 -2.2481384
-10.68604 -1.1726598 -2.2309074
-6.871799 1.2910453 -2.3617609
-6.6785755 1.3039098 -2.398397
-6.6361299 1.302982 -2.4074512
-6.5950251 1.2915504 -2.4190426
-6.433815 1.2927592 -2.4521618
-6.2335691 1.3054312 -2.4903061
-6.1175942 1.3140857 -2.5120454
-5.9816828 1.2964277 -2.5449739
-5.8336945 1.316738 -2.5702298
-5.6731019 1.3039094 -2.6069837
-5.6358204 1.3054655 -2.6143007
-5.3094044 1.2912958 -2.6858144
-5.204237 1.2915437 -2.7075651
-5.1484952 1.2890621 -2.719794
-4.9936976 1.2963507 -2.7499533
-4.9491119 1.283969 -2.7625215
-4.9043007 1.2762691 -2.7738817
-4.9754753 1.2654436 -2.7620184
-5.0913477 1.264659 -2.7381907
-5.1706676 1.2554879 -2.724194
-5.2846189 1.2602302 -2.6992836
-5.3700905 1.2615323 -2.6812034
-5.6607037 1.2660915 -2.6196933
-5.7311349 1.2570097 -2.6075165
-5.8917274 1.2698385 -2.5707626
-5.9761014 1.2634811 -2.5549634
-6.0920763 1.2548267 -2.5332241
-6.2531834 1.2559575 -2.4994991
-6.3756666 1.2591932 -2.4732223
-6.5051723 1.2626215 -2.4454372
-6.5823178 1.260751 -2.4299347
-6.684865 1.2376741 -2.4148471
-6.768827 1.2406754 -2.3966246
-6.8915162 1.2392319 -2.3715596
-6.930243 1.2347873 -2.364717
-6.9765205 1.2229295 -2.3582952
-7.036871 1.2196404 -2.346657
-7.0561829 1.2185879 -2.3429329
-7.1363792 1.2480429 -2.3184004
-7.2200327 1.2580628 -2.2983606
-7.3288822 1.2515554 -2.277524
-7.3741174 1.2590011 -2.266144
-7.4900923 1.2503467 -2.2444048
-7.5639338 1.253656 -2.2281992
-7.6201797 1.2467159 -2.2183912
-7.6610737 1.2429603 -2.2109144
-7.6831098 1.2421613 -2.2065573
-7.7772727 1.2297379 -2.1903532
-11.350295 0.63560975 -1.6083859
-11.255228 0.40798339 -1.6891248
-11.253819 0.38053229 -1.6967758
-11.252079 0.37078765 -1.6997485
-11.24752 0.30614087 -1.7180234
-11.244044 0.28665158 -1.7239687
-11.23292 0.21251634 -1.7461493
-11.196025 -0.14097504 -1.8485591
-0.15023184 -1.1669425 -4.415041
0.00093841553 -0.8994751 -4.3747048
0.0039310455 -0.87153852 -4.367837
0.0042076111 -0.95598698 -4.3905315
-0.0088906288 -1.0314584 -4.4080448
-0.01543951 -1.0691942 -4.4168019
-0.020852089 -1.0972482 -4.4231992
-0.064822197 -1.1464266 -4.4272604
0.0069241524 -0.84360182 -4.3609695
0.0072112083 -0.77729094 -4.3432541
0.015615463 -0.72130013 -4.3299885
0.016896248 -0.73086441 -4.332818
0.050841808 0.057644576 -4.1284943
0.051118374 -0.02680397 -4.1511884
0.045133114 -0.082677335 -4.1649241
0.045983791 -0.13930653 -4.1802807
0.041279316 -0.20474404 -4.1968455
0.045389652 -0.3638421 -4.240346
-0.11736631 1.3309219 -3.7522869
0.19812727 1.3298016 -3.818037
0.20418215 1.3205359 -3.8217769
0.20682287 1.307178 -3.8259053
0.19860172 1.2453892 -3.8407626
0.20907164 1.0641569 -3.8915155
0.20563221 1.0494547 -3.894743
0.19285154 0.89864373 -3.9325178
0.19127083 0.86113214 -3.942245
0.18652916 0.74859774 -3.971427
0.18494844 0.71108627 -3.9811544
0.18336821 0.67357481 -3.9908819
0.18178749 0.63606322 -4.0006094
0.18020725 0.59855163 -4.0103369
0.17862606 0.56104028 -4.0200639
0.17704535 0.5235287 -4.0297914
0.17546463 0.4860172 -4.0395184
0.15820932 0.38198337 -4.0638261
0.14371252 0.34294185 -4.0712843
0.13647985 0.32472661 -4.0746665
0.060947418 0.10517928 -4.1178484
-0.20085812 1.3362297 -3.7335439
-0.3105607 1.3304052 -3.712347
-0.55616617 1.4235616 -3.6364245
-0.61174059 1.3844873 -3.6353698
-0.69605541 1.3511254 -3.6268215
-0.81865931 1.3450764 -3.6030087
-0.89619398 1.3387741 -3.5886135
-0.96767378 1.3232061 -3.5779581
-1.095839 1.3381451 -3.5473654
-1.2152829 1.3497217 -3.5194836
-1.3143487 1.3482491 -3.4993269
-1.3336086 1.3496039 -3.4949682
-1.4042978 1.3527918 -3.4794493
-1.5272975 1.3373649 -3.4580679
-1.6070037 1.3368816 -3.4416623
-1.6495061 1.3406938 -3.4318233
-1.7027431 1.3379728 -3.4215086
-1.7717147 1.3440226 -3.4055786
-1.8492489 1.3377204 -3.3911834
-1.9268827 1.3290735 -3.3773961
-1.9654036 1.3317834 -3.3686786
-2.0100775 1.3414148 -3.3568292
-8.9741192 1.2578754 -1.9345235
-9.1030579 1.2731538 -1.9036794
-9.225626 1.2741821 -1.8779769
-9.2961969 1.2628133 -1.8663843
-9.3733482 1.2610164 -1.8508608
-9.4898624 1.2407757 -1.8321157
-9.6186953 1.2583935 -1.8006663
-9.7178774 1.2918657 -1.7711184
-9.7320023 1.2939476 -1.7676301
-9.8543549 1.2996277 -1.7407254
-9.9318256 1.2908468 -1.7270079
-9.9637833 1.2816495 -1.7228435
-10.009926 1.2680216 -1.7169243
-10.048241 1.2729942 -1.7076429
-10.112426 1.2864259 -1.690727
-7.6895151 1.256391 -2.2014139
-7.5734367 1.2673851 -2.2225475
-7.3805223 1.2732311 -2.2610009
-7.3296227 1.2806729 -2.2695651
-7.3043079 1.2839109 -2.2739487
-7.1810999 1.2671866 -2.3039916
-7.1033363 1.2830943 -2.3158593
-7.0664959 1.2950132 -2.320307
-7.6010628 -1.350808 -2.9186437
-7.2984586 -1.2794528 -2.962292
-7.2602611 -1.2866662 -2.9721498
-7.2110901 -1.2953328 -2.9846735
-7.0923324 -1.2932937 -3.0087633
-6.9947095 -1.2609351 -3.0203414
-6.7497506 -1.2679857 -3.0730484
-6.5244789 -1.1322156 -3.0833871
-6.4998322 -1.1266462 -3.087007
-6.4609995 -1.119856 -3.0932429
-6.4221663 -1.1130657 -3.0994785
-6.331162 -1.1169361 -3.119395
-6.285924 -1.1247061 -3.1308625
-6.2551279 -1.1295778 -3.1385572
-6.2094235 -1.1367991 -3.1499743
-6.1256709 -1.1447809 -3.1694884
-6.0867319 -1.1356566 -3.1751206
-5.8862686 -1.1185997 -3.2121346
-5.6547542 -1.1105336 -3.2580004
-5.5590587 -1.0814912 -3.2700675
-5.3521905 -1.0789945 -3.3123133
-5.2984266 -1.0748289 -3.32235
-5.1778569 -1.1001824 -3.3541586
-4.8451357 -1.0105903 -3.3991663
-4.8080406 -1.0170236 -3.408586
-4.3804336 -1.0588205 -3.5084977
-4.3445215 -1.0551846 -3.5149732
-4.3059354 -1.0557081 -3.523118
-4.2289882 -1.0614374 -3.5406168
-4.1583791 -1.0623423 -3.5555072
-4.0238314 -1.083069 -3.5889754
-3.8246741 -1.0928522 -3.6329131
-3.7475014 -1.0938991 -3.6492033
-3.7458608 -1.0939347 -3.6495533
-3.6288729 -1.0859913 -3.6716933
-3.5987051 -1.0747801 -3.6749463
-3.5329683 -1.0404246 -3.6793742
-3.272409 -1.0459526 -3.7349095
-3.2369478 -1.0516815 -3.7438016
-3.1920233 -1.0570296 -3.7545547
-3.1149635 -1.0604179 -3.7714493
-2.9548438 -1.0790424 -3.8096588
-2.8672841 -1.1069573 -3.8353059
-2.808006 -1.1138541 -3.849452
-2.745393 -1.1176244 -3.8634517
-2.5397203 -1.1269246 -3.9086118
-2.2303784 -1.1203039 -3.9710104
-3.2448397 1.3273684 -3.1044414
-3.2664819 1.3216194 -3.1014929
-3.4027169 1.307264 -3.0770788
-3.5120275 1.3063213 -3.0546548
-3.5576272 1.2976346 -3.0475237
-3.7124243 1.290346 -3.0173645
-3.7958219 1.2985647 -2.9978604
-3.9181445 1.3002793 -2.9720249
-3.9988439 1.3219092 -2.9494855
-4.0938091 1.3106933 -2.9327915
-4.1565647 1.2965276 -2.9235699
-4.3174739 1.298761 -2.8895905
-4.1442285 1.2798244 -2.9306066
-4.1377788 1.277325 -2.9326146
-4.0097952 1.2567246 -2.9646871
-3.9321711 1.2650508 -2.9785583
-3.8996964 1.2740541 -2.982882
-3.7390125 1.2671386 -3.0180697
-3.6616139 1.2707829 -3.0331492
-3.6165774 1.267765 -3.0433011
-3.5456283 1.2739085 -3.0563726
-3.4940298 1.2707322 -3.0679283
-3.3841562 1.2833798 -3.0873315
-3.2551589 1.2838477 -3.1139667
-3.2455966 1.2819623 -3.1164558
-3.1521854 1.2896307 -3.1337786
-3.100812 1.2817725 -3.1465425
-3.0627885 1.2695489 -3.1577072
-2.9789402 1.270694 -3.1747947
-2.8181436 1.2661196 -3.2093782
-2.6946919 1.2919517 -3.2280641
-2.5787356 1.2931995 -3.2517848
-2.5010035 1.3041908 -3.2649641
-2.4294252 1.3221034 -3.2750115
-2.5191691 1.3319876 -3.2537444
-2.5642385 1.3322409 -3.2443268
-2.6029563 1.3302622 -3.2368252
-2.6864474 1.3355699 -3.2180822
-2.8482966 1.3307117 -3.1858087
-2.8796418 1.3350531 -3.1781423
-2.8862762 1.3353173 -3.1766951
-2.9189763 1.3216321 -3.1735797
-2.9544628 1.309772 -3.1693974
-3.0810113 1.300456 -3.1456418
-3.1257102 1.3104969 -3.1336775
-3.1708772 1.3247198 -3.1204948
-3.2341197 1.3282818 -3.1064205
-7.7062812 1.2504638 -2.1995246
-9.7451372 1.3129244 -1.7598186
-9.5454197 1.3136843 -1.8010465
-9.4619064 1.3012731 -1.8216981
-9.4233818 1.300982 -1.8297683
-9.3071766 1.3141532 -1.8503445
-9.1462994 1.308182 -1.8853194
-9.0841684 1.3039373 -1.8993462
-9.0458565 1.2989874 -1.9086211
-8.9470024 1.2995789 -1.9289699
-8.8697414 1.3036784 -1.9438989
-8.7859154 1.2982892 -1.9627334
-8.7474947 1.2956574 -1.9714092
-8.6702347 1.2997568 -1.9863379
-8.6316051 1.3018064 -1.9938023
-8.6466274 1.2958463 -1.9922836
-8.8198166 1.2614692 -1.9655702
-8.9036531 1.2669047 -1.9467213
-5.2539163 -0.6710459 -3.2233467
-5.7980776 -0.63221067 -3.1000495
-9.937767 1.3094018 -1.7208015
-9.9831686 1.317137 -1.7093092
-10.157203 1.3032278 -1.6769341
-10.20282 1.3013035 -1.6679866
-4.3969021 -0.40834668 -3.3307166
-4.7476225 -0.85372567 -3.3773465
-4.3493752 -1.0451189 -3.5112681
-4.1982303 -0.95164013 -3.5175655
-4.1978226 -0.45595858 -3.3847787
-9.776885 1.3084086 -1.7544428
-9.8225021 1.3064843 -1.7454954
-6.4700351 -0.94122529 -3.0434849
-6.2062292 -0.44372356 -2.9648526
-6.0986776 -0.4648073 -2.992816
-5.9853506 -0.91323638 -3.1365306
0 0 0 1 0 0 0 1 0 0 0 1 0 0 0 0 0 509 1 0 0
