ply
format ascii 1.0
comment PCL generated
element vertex 626
property float x
property float y
property float z
element camera 1
property float view_px
property float view_py
property float view_pz
property float x_axisx
property float x_axisy
property float x_axisz
property float y_axisx
property float y_axisy
property float y_axisz
property float z_axisx
property float z_axisy
property float z_axisz
property float focal
property float scalex
property float scaley
property float centerx
property float centery
property int viewportx
property int viewporty
property float k1
property float k2
end_header
-11.185843 0.85962355 0.56592166
-11.186082 0.91590869 0.57432079
-11.18125 0.9551006 0.5800519
-11.173887 0.99996907 0.58657026
-11.164421 1.1118495 0.60303235
-11.132097 1.1512445 0.60814881
-11.127067 1.1569396 0.60888016
-11.037258 1.1967595 0.61271155
-10.827578 1.2464907 0.61520892
-10.787507 1.2662077 0.61720926
-10.74754 1.2713976 0.61704564
-10.667706 1.2932496 0.61843157
-10.627657 1.3048613 0.61922365
-10.54771 1.3127937 0.61853123
-10.507742 1.3179836 0.61836755
-10.427938 1.3169624 0.6163432
-10.387838 1.3205535 0.61593807
-10.332894 1.3307486 0.61616945
-10.049807 1.3081479 0.60615844
-9.9698448 1.3079363 0.60425109
-9.9299212 1.3107008 0.6037268
-9.8365202 1.3011847 0.60011673
-9.7965412 1.3039232 0.5995872
-9.7565632 1.3066617 0.59905779
-9.7299004 1.3072828 0.59852499
-9.6365967 1.2905743 0.59384459
-9.6765556 1.2885952 0.59448683
-9.7298946 1.2926208 0.59633839
-9.8764801 1.2758839 0.5972811
-9.9364338 1.2712556 0.59799731
-9.9764128 1.2685171 0.59852684
-10.036415 1.2705312 0.60023469
-10.359615 1.1234546 0.58588362
-10.387055 1.1110156 0.58467233
-10.581092 0.58882886 0.51135302
-10.612635 0.35012498 0.47649628
-10.398933 0.0306537 0.42384204
-10.398541 -0.06724219 0.40923411
-10.017701 -0.30506241 0.36483535
-10.392438 -0.32998765 0.36990905
-10.424929 -0.33022431 0.37063593
-10.628477 -0.063263312 0.41522136
-10.651049 -0.049503017 0.41780287
-10.691132 -0.0099379532 0.42464328
-10.659649 0.23019215 0.45971414
-10.973481 0.61070555 0.52382016
-11.112436 0.64235991 0.53180027
-11.145075 0.684811 0.53889638
-11.151405 0.70779872 0.54247296
-11.162922 0.75945532 0.55044639
-11.174294 0.81117755 0.55842626
0.50895882 -0.66990072 0.063491806
0.50889063 -0.59159154 0.075171262
0.57016134 -0.43739268 0.096728846
0.58818769 -0.36212376 0.10753046
0.58912897 -0.35078904 0.10919866
0.59006977 -0.33945429 0.11086689
0.62991905 -0.18273212 0.13330328
0.62843943 -0.12142497 0.14248043
0.62938023 -0.11009026 0.14414863
0.63032103 -0.098755524 0.14581686
0.63028669 -0.059600901 0.1516566
0.6297822 -0.026113644 0.15666223
0.63021803 0.018708345 0.16333607
0.62877321 0.040860869 0.16667347
0.62967968 0.091350213 0.17418143
0.63058615 0.14183958 0.18168938
0.63055229 0.18099421 0.18752912
0.64529943 0.26377422 0.19952774
0.66472006 0.36173546 0.21368062
0.66449213 0.40086311 0.2195209
0.66582203 0.63662994 0.25464842
0.66487408 0.66358721 0.25869066
0.62554884 0.51315683 0.23718023
0.62605 0.48013106 0.23224351
0.62665844 0.36891657 0.21564437
0.62492228 0.3055478 0.20623523
0.62452841 0.26038483 0.19950953
0.62292194 0.24405056 0.19711137
0.6246357 0.18219607 0.18784714
0.6260314 0.16130751 0.18469939
0.62608528 0.12221311 0.17886817
0.62563801 0.11614452 0.17797369
0.60879755 0.021231711 0.16421486
0.28861618 -0.19327398 0.13973761
0.25082684 -0.18938118 0.14120458
0.21114922 -0.20081635 0.14043009
0.16967058 -0.26545385 0.13176404
0.077776909 -0.37993726 0.11684737
-0.15039635 -0.60965925 0.08794263
-0.17280579 -0.70515692 0.074227229
-0.49037886 -1.0453427 0.030946761
-0.53226757 -1.043779 0.032162547
-0.69186258 -1.0028558 0.042009056
-0.73223162 -1.0075903 0.042250007
-0.93210077 -1.0815103 0.035915256
-0.85213232 -1.076411 0.034799784
-0.77121592 -1.0672511 0.034267604
-0.73028278 -1.0630878 0.033928216
-0.6112833 -1.0521586 0.032766521
-0.53178453 -1.0527595 0.030811995
-0.4917984 -1.0526568 0.029889315
-0.15238285 -1.0564611 0.021359921
-0.070703506 -1.1049385 0.012214661
-0.030717373 -1.1048348 0.01129213
0.09299612 -1.04037 0.018003315
0.12749052 -1.0190278 0.020376801
0.1688776 -0.98968625 0.023781508
0.16935205 -0.9889133 0.023885638
0.50852299 -0.71472269 0.056817949
-9.2476397 -0.15702298 0.36884743
-9.1677227 -0.14316238 0.36903965
-9.0371752 -0.27426556 0.34642649
-9.0469856 -0.32007578 0.33982518
-9.1210957 -0.51551932 0.31241816
-9.1726809 -0.72312117 0.28266966
-9.1648579 -0.79417163 0.27189076
-8.9236059 -1.0930663 0.22165871
-8.8835669 -1.1058384 0.21881483
-8.8435354 -1.1153154 0.21646249
-8.7234926 -1.1315142 0.21123087
-8.4831696 -1.2177328 0.19273598
-8.4032516 -1.2057319 0.19265085
-8.2833128 -1.1966178 0.19119646
-8.0436459 -1.1327561 0.19509767
-7.9962091 -1.1284453 0.19462772
-7.9637384 -1.1213763 0.19492018
-7.8838205 -1.1021641 0.19591045
-7.8038902 -1.0926096 0.19546026
-7.7239408 -1.0838042 0.19489789
-7.6039848 -1.0804317 0.19258687
-7.586813 -1.0805227 0.19217047
-7.5240078 -1.0798143 0.19080281
-7.3069057 -1.0756719 0.1863277
-7.1869521 -1.0721948 0.18403232
-7.2668552 -1.0834631 0.18422633
-7.3067594 -1.0927351 0.18377973
-7.5239387 -1.1027806 0.18737634
-7.691 -1.1871519 0.17871344
-7.7233505 -1.2192061 0.17469223
-7.8831606 -1.2605323 0.17227834
-8.1227732 -1.3274894 0.16791426
-8.2427998 -1.3178154 0.17217249
-8.2678022 -1.3147787 0.17321187
-8.4027395 -1.3240744 0.17499104
-8.6426439 -1.3352568 0.1789512
-8.6825123 -1.3571244 0.17662543
-8.9224491 -1.3579004 0.1821382
-9.2835312 -1.0918009 0.23029065
-9.3635082 -1.0924184 0.23207468
-9.4035149 -1.0869855 0.23382336
-9.4360313 -1.0831923 0.2351518
-9.603548 -1.0739505 0.24045962
-9.640974 -1.0847746 0.23972344
-9.6734304 -1.0965086 0.23873498
-9.7508917 -1.1028483 0.23960666
-9.8033733 -1.1024048 0.24090391
-9.8833065 -1.112808 0.24122766
-9.9633303 -1.0994959 0.24509002
-10.003353 -1.0940317 0.24684374
-10.043336 -1.0919253 0.2480958
-10.406867 -1.1251242 0.2516728
-10.419275 -1.1359329 0.25035203
-10.446836 -1.1246563 0.25268018
-10.636873 -1.1096685 0.25937316
-10.607107 -1.0362028 0.26963049
-10.406857 -1.1219178 0.25215071
-10.043384 -1.0829885 0.24942961
-9.6950521 -0.72141242 0.29517838
-9.7662725 -0.43976587 0.3388496
-5.3462715 -1.2676836 0.11170092
-5.506165 -1.2819612 0.11332259
-5.5862699 -1.2581789 0.11874823
-5.626297 -1.2511818 0.12073065
-5.6664515 -1.2197157 0.12636498
-5.7693276 -1.146395 0.13971223
-6.0268764 -1.1343864 0.14754465
-6.1067276 -1.1574922 0.14597218
-6.1866198 -1.1671077 0.1464124
-6.2265601 -1.1731389 0.14644992
-6.3065734 -1.1705848 0.14870778
-6.4265881 -1.1659273 0.15221766
-6.5065165 -1.1723019 0.15314204
-6.6669044 -1.0904812 0.16910596
-6.9068727 -1.0893008 0.17491123
-6.986814 -1.0932285 0.17620079
-7.1069131 -1.0796425 0.1810441
-6.9868989 -1.0843 0.17753422
-6.9070315 -1.0697908 0.17782436
-6.8271179 -1.0568695 0.17787662
-6.7871289 -1.0565262 0.17698976
-6.7071519 -1.0558393 0.17521606
-6.6271877 -1.0527055 0.17380756
-6.5070834 -1.0744914 0.16774133
-6.3872423 -1.053092 0.16812125
-6.3072395 -1.0572989 0.16561715
-6.2272878 -1.0517182 0.16457385
-5.9973621 -0.57178444 0.23075032
-6.1103978 -0.45278746 0.25114736
-6.3105578 -0.41290739 0.26178986
-6.3505955 -0.40756309 0.26352605
-6.5105858 -0.40569592 0.26755759
-6.5904789 -0.41531128 0.26799783
-6.6305032 -0.41241387 0.26936883
-6.6705256 -0.4136163 0.27012837
-6.7504206 -0.41913185 0.27118006
-6.8079486 -0.4221375 0.27208135
-6.8703866 -0.42016208 0.27384061
-6.9503636 -0.42084894 0.27561432
-7.0303411 -0.42153573 0.27738804
-7.0703788 -0.41619143 0.2791242
-7.0879269 -0.40245426 0.28158441
-7.0880733 -0.38539112 0.28413239
-7.0707693 -0.3485375 0.28922224
-7.0308189 -0.34085342 0.28943098
-6.8709512 -0.32645136 0.28782848
-6.5922604 -0.093204245 0.31607383
-6.472528 -0.045724537 0.32034552
-6.2734871 0.12562199 0.34122843
-6.190465 0.025213797 0.3243075
-5.9112105 -0.3206563 0.26617882
-5.8712215 -0.32031289 0.26529196
-5.7911806 -0.33186051 0.26169229
-5.7511921 -0.3315171 0.26080543
-5.5244298 -0.20397852 0.27450517
-5.5119972 -0.19163676 0.27605399
-5.1303911 -0.24577191 0.25902927
-5.0731592 -0.20915802 0.26314676
-5.1128759 -0.36489835 0.24085368
-5.1107192 -0.44793749 0.22841989
-5.1129084 -0.56942916 0.21035379
-5.1012602 -0.61573601 0.20317504
-5.0887103 -0.65479243 0.19705635
-4.8736629 -1.0731428 0.12962523
-4.674614 -1.0920031 0.12214334
-4.5542197 -1.0757965 0.12173592
-4.514677 -1.0841873 0.11955705
0.48023129 1.3307732 0.36251613
0.43959427 1.3466539 0.3658376
0.38619852 1.361351 0.36928189
0.32068491 1.3574903 0.37024298
0.28632498 1.3573811 0.37103274
0.16121054 1.3719801 0.37614477
0.080251217 1.3499409 0.37475735
0.0064277649 1.349201 0.37637877
0.0013980865 1.3488342 0.37644207
-0.074457169 1.3490379 0.37825188
-0.11352921 1.3463933 0.37877405
-0.15909386 1.3467441 0.37989524
-0.36869335 1.3333374 0.38281283
-0.15350914 1.3413851 0.37896508
-0.060729027 1.334812 0.37580842
-0.034901142 1.3308737 0.37461522
0.045519352 1.3371853 0.37366992
0.085049152 1.3385683 0.37294886
0.12639809 1.3422351 0.37252569
0.16083002 1.3416808 0.37163532
0.2008152 1.341965 0.3707397
0.50418186 1.0452864 0.31938109
0.50173569 1.0061843 0.31360736
0.50128841 1.0001158 0.31271288
0.66476631 0.74177593 0.27035308
0.6651597 0.78693897 0.27707878
0.50943565 1.0375111 0.31809834
0.50868416 1.0707943 0.32307935
0.51147747 1.1157842 0.32972291
0.50572824 1.1490318 0.33481586
0.50224876 1.2214251 0.34569311
0.50451899 1.2605704 0.35147741
0.50608826 1.2781038 0.35405526
0.50138378 1.3230404 0.36086679
-4.5920238 1.3181353 0.47961774
-4.6320105 1.3180138 0.48053765
-4.6719942 1.315449 0.48109311
-4.5879674 1.3065572 0.47779602
-4.5479808 1.3066608 0.47687346
-4.4284897 1.2988573 0.47290671
-4.3885031 1.298961 0.47198415
-4.3085299 1.2991683 0.47013903
-4.2685413 1.2968248 0.46885151
-4.2334824 1.2985789 0.46829063
-4.1885686 1.2970322 0.46700639
-4.1085958 1.2972397 0.46516132
-4.0735283 1.2941778 0.46388209
-3.9935551 1.2944205 0.46204224
-3.9486456 1.29276 0.46074113
-3.908659 1.2928637 0.4598186
-3.8735948 1.2947848 0.45928252
-3.7940722 1.2914023 0.45691264
-3.7087288 1.2958292 0.45557079
-3.6687422 1.2959328 0.45464823
-3.5887671 1.2936931 0.45243815
-3.5137079 1.2909906 0.45027441
-3.4688077 1.2940042 0.44967049
-3.4337378 1.2936771 0.44879904
-3.3537645 1.2939198 0.4469592
-3.2742381 1.2880939 0.44422489
-3.1542811 1.2909017 0.44182959
-3.1089311 1.2973843 0.4417325
-3.0289607 1.3000389 0.44025242
-2.9889762 1.3025897 0.43969482
-2.9489896 1.3026934 0.43877226
-2.8690166 1.3029008 0.43692717
-2.7697556 1.2946587 0.43336958
-2.7290637 1.3032629 0.43369812
-2.6886048 1.3065869 0.43324471
-2.6479104 1.312745 0.43320841
-2.6726477 1.3141897 0.43400413
-2.7126381 1.3165116 0.43528852
-2.7476439 1.3177667 0.43629685
-2.7676389 1.3201615 0.437123
-2.792618 1.3211555 0.43785721
-2.8326051 1.3210342 0.43877715
-2.9125817 1.3232347 0.44098142
-2.9525652 1.3206699 0.4415369
-2.9925485 1.3181051 0.44209236
-3.0275495 1.3170409 0.44275472
-3.0725217 1.3178624 0.44393218
-3.112505 1.3152975 0.44448763
-3.1924787 1.3150547 0.44632745
-3.2324653 1.3149332 0.44724739
-3.3124387 1.3146905 0.4490872
-3.3524222 1.3121256 0.44964266
-3.4323921 1.3094394 0.45111805
-3.4723821 1.3117613 0.45240238
-3.5123692 1.3116399 0.45332229
-3.5923424 1.3113971 0.45516211
-3.712306 1.3134763 0.45828635
-3.7522926 1.3133547 0.45920622
-3.8322661 1.313112 0.46104604
-3.8722529 1.3129905 0.46196598
-3.992213 1.3126262 0.4647257
-4.0721865 1.3123835 0.46656555
-4.1121731 1.3122621 0.46748543
-4.1921535 1.316906 0.47005415
-4.2321362 1.3143412 0.47060961
-4.2721233 1.3142197 0.47152954
-4.3121138 1.3165418 0.4728139
-4.3521004 1.3164203 0.47373381
-4.4320736 1.3161775 0.47557363
-4.4720602 1.3160561 0.47649354
-4.5120502 1.3183781 0.4777779
-4.5520368 1.3182566 0.47869781
-3.9136372 0.0071503539 0.26820341
-3.5762827 0.032608796 0.26408613
-3.5542512 0.036382087 0.26413199
-3.3939445 0.10646631 0.27082279
-3.3535137 0.11509973 0.27116182
-3.3135431 0.12743653 0.27206391
-3.2730958 0.12385295 0.27058068
-3.2726319 0.11770616 0.26965317
-3.0165942 -0.20632622 0.21532565
-2.769295 -0.31063876 0.19396883
-2.7297831 -0.31134275 0.19293697
-2.6731558 -0.30798912 0.19210871
-2.6493397 -0.30543649 0.19193068
-2.6018493 -0.31265494 0.18974018
-2.3301609 -0.58027589 0.14345789
-2.2911196 -0.58668041 0.14158697
-2.1716135 -0.61164737 0.13506037
-2.1466198 -0.61402994 0.13411877
-2.1660755 -0.68668038 0.12374116
-1.8508782 -1.0382186 0.063924059
-1.8108897 -1.0405627 0.062636435
-1.6899915 -1.0264062 0.061911464
-1.6500006 -1.0311971 0.06025891
-1.490521 -1.04138 0.054999262
-1.3719666 -1.0655136 0.04861927
-1.4919345 -1.0560347 0.052847058
-1.7492862 -1.1276557 0.048203558
-1.8921916 -1.1532975 0.047732055
-2.0116804 -1.1479056 0.05133912
-2.0911829 -1.1424108 0.054023534
-2.1716261 -1.148317 0.055029839
-2.2520716 -1.1517763 0.056401074
-2.3710885 -1.1431307 0.060482278
-2.4520023 -1.1547375 0.060649514
-2.531975 -1.154943 0.062494874
-2.611948 -1.1551487 0.064340219
-2.6519344 -1.1552515 0.065262899
-2.675184 -1.1543474 0.065943137
-2.771894 -1.1555601 0.068030924
-2.8751178 -1.1549544 0.070542708
-3.0746038 -1.149493 0.076036736
-3.1145906 -1.1496143 0.07695666
-3.1545775 -1.1497357 0.077876583
-3.1941166 -1.1437887 0.079690948
-3.3145242 -1.1502215 0.081556201
-3.3540637 -1.1442744 0.083370611
-3.4140706 -1.1249093 0.087666079
-3.5766239 -1.0472137 0.10306564
-3.5939503 -1.0449911 0.10380353
-3.8934639 -1.1202977 0.09959951
-3.9535377 -1.0520645 0.111184
-3.928112 -1.0361465 0.11296132
-3.7933311 -0.90867996 0.12880805
-4.0727201 -0.39476731 0.21199924
-4.3925009 -0.374295 0.22255367
-4.3525743 -0.33019245 0.22819386
-4.2726145 -0.32017601 0.22781184
-4.1926546 -0.31015956 0.22742981
-3.9286122 -0.0075555667 0.26636165
-8.6900301 1.2636893 0.56763053
-8.5967779 1.2712281 0.56656724
-8.5167999 1.2718105 0.56477797
-8.4101181 1.2682281 0.56174111
-8.3701191 1.2660801 0.5604825
-8.3168354 1.2683724 0.55957448
-8.2901516 1.2691247 0.55906063
-8.2501621 1.2694235 0.5581671
-8.1968498 1.2643517 0.55616021
-8.1701536 1.2626809 0.5552848
-8.1301651 1.2629797 0.55439126
-8.0501871 1.2635775 0.55260426
-8.0101891 1.2614295 0.55134571
-7.9568973 1.261205 0.55006206
-7.8902321 1.2647729 0.5490303
-7.8769293 1.2642348 0.54863799
-7.7969418 1.26237 0.54648352
-7.7702551 1.2632227 0.54598463
-7.7302656 1.2635214 0.54509115
-7.6769753 1.2632439 0.54379964
-7.5998859 1.2571486 0.54108232
-7.5503249 1.2608901 0.54047763
-7.5103359 1.2611892 0.53958416
-7.4703393 1.2611676 0.5386427
-7.4503422 1.2591912 0.53787887
-7.4303479 1.2593408 0.53743213
-7.3903494 1.2571931 0.53617358
-7.3503604 1.2574923 0.53528011
-7.2799644 1.2574844 0.53362757
-7.1999478 1.250839 0.53075951
-7.1849651 1.2534165 0.53079242
-7.1104269 1.2592883 0.52991951
-7.0800209 1.2592237 0.52919662
-7.0029674 1.2625399 0.52788359
-6.9904704 1.2626333 0.5276044
-6.9504824 1.2629325 0.52671093
-6.9104934 1.263232 0.52581751
-6.834259 1.2625788 0.5239318
-6.7905159 1.2616827 0.52277207
-6.7201099 1.2599074 0.52085567
-6.6801214 1.2602551 0.51996946
-6.5905719 1.2631794 0.51830488
-6.560142 1.2588516 0.51694572
-6.5118542 1.2662157 0.51691109
-6.4706259 1.2689714 0.51635492
-6.4306269 1.2668238 0.51509631
-6.4181304 1.2669172 0.51481712
-6.3506389 1.2649752 0.51294428
-6.3106289 1.2603804 0.51132053
-6.2706404 1.2606797 0.51042712
-6.2002048 1.2546413 0.50787431
-6.1106849 1.2618768 0.50685334
-6.0706959 1.2621762 0.50595993
-6.0002747 1.2588274 0.50380856
-5.8707571 1.2693425 0.50233841
-5.8307524 1.261525 0.50023413
-5.8003316 1.2605667 0.49937761
-5.7507749 1.2621237 0.4984473
-5.7203541 1.2612623 0.4976052
-5.6707973 1.2627223 0.49666041
-5.5908089 1.2608739 0.49450839
-5.5603867 1.2602067 0.49369526
-5.4708524 1.2642188 0.49219322
-5.4308643 1.2645183 0.49129984
-5.3908854 1.2672646 0.49077153
-5.3109179 1.2703103 0.48934984
-5.2709289 1.2706096 0.48845643
-5.1909513 1.2712083 0.48666954
-5.1509523 1.2690605 0.48541096
-5.1205502 1.2713741 0.48504281
-5.1936035 1.2847095 0.48874515
-5.2709346 1.2762792 0.48930204
-5.2805576 1.2756557 0.48943478
-5.3109131 1.2735329 0.48983032
-5.3909068 1.2810512 0.49282795
-5.4805818 1.2803682 0.49482974
-5.5605717 1.2821196 0.49696738
-5.630825 1.2800307 0.49830386
-5.710813 1.2818792 0.50045592
-5.7680259 1.2827622 0.5019297
-5.8005166 1.2824795 0.50264972
-5.8405056 1.2821318 0.50353593
-5.9507418 1.283306 0.50629699
-6.0307293 1.2851545 0.50844902
-6.0707283 1.2873021 0.50970757
-6.1107531 1.2911215 0.51121604
-6.1507778 1.2949407 0.51272452
-6.240561 1.3104646 0.51714563
-6.2707705 1.3046067 0.51698077
-6.4307723 1.3099749 0.52153468
-6.5506516 1.2927231 0.52177411
-6.6403441 1.2874099 0.52308583
-6.7106323 1.2931974 0.52559769
-6.790626 1.3007156 0.52859539
-6.9105358 1.2908049 0.52993035
-6.9904933 1.2853121 0.53098691
-7.1504488 1.2841148 0.53456062
-7.2703991 1.2751002 0.53603017
-7.3103881 1.2748008 0.53692353
-7.3600874 1.2713604 0.53757638
-7.4000897 1.2734597 0.53882784
-7.4803562 1.2816455 0.54193145
-7.5303235 1.2829337 0.54329568
-7.5903358 1.2832695 0.54475355
-7.6303253 1.2829702 0.54564697
-7.690299 1.2866319 0.54759991
-7.770267 1.2835876 0.54902184
-7.7969408 1.2793311 0.54901278
-7.8769188 1.2787485 0.55080211
-7.9302425 1.2872857 0.55332607
-7.9569159 1.2830606 0.55332172
-7.9968953 1.280322 0.55385113
-8.0501938 1.2782394 0.55479091
-8.0768633 1.2772923 0.55527526
-8.1701965 1.2903861 0.55941731
-8.2901669 1.2862334 0.56161237
-8.330162 1.2916374 0.5633564
-8.3968229 1.2871982 0.56425822
-8.4368019 1.2844597 0.56478763
-8.4768009 1.2866156 0.56604743
-8.5167894 1.2863244 0.5669421
-8.596777 1.2881891 0.56909657
-8.6500883 1.2884371 0.57038414
-8.730092 1.2984359 0.57375193
-8.7467947 1.3017802 0.57464242
-8.7701263 1.3046681 0.57562041
-8.8101158 1.3043692 0.57651395
-8.9175854 1.294607 0.5775792
-9.0100451 1.3036844 0.58110178
-9.0767221 1.3042716 0.58275354
-9.0875492 1.3047427 0.58307773
-9.095047 1.3046867 0.58324528
-9.1300268 1.3019783 0.58366197
-9.2366285 1.2908704 0.58450615
-9.2766171 1.2905791 0.58540082
-9.1966095 1.28382 0.58251601
-9.1699734 1.2829335 0.58175898
-9.1166325 1.2787489 0.57988364
-9.0899906 1.2778283 0.57912135
-8.9966564 1.2658681 0.5751484
-8.9166689 1.2640034 0.57299393
-8.8899841 1.2646418 0.57246315
-8.8499851 1.2624938 0.57120454
-8.8366814 1.2621386 0.57083946
-8.8099861 1.2603461 0.56994593
-8.7566938 1.2602741 0.56868505
-5.0349631 -1.2288761 0.11018533
-3.6328216 -0.65416074 0.16299796
-3.3532929 -1.0417314 0.098644242
-3.2733295 -1.0341582 0.097897783
-2.9929917 -0.8283543 0.12201205
-3.2741675 -0.4233087 0.18901035
-2.2892189 1.3117449 0.42464501
-2.3292031 1.3091941 0.42520255
-2.4098816 1.3004861 0.42579657
-2.4493954 1.3036027 0.42718825
-2.409174 1.3065397 0.42668271
-2.328733 1.3148615 0.42603672
-2.2880387 1.3210195 0.42600042
-2.2480543 1.3235704 0.42544281
-2.2078347 1.3289543 0.42530224
-2.1680834 1.3262249 0.42396271
-2.1278596 1.3267145 0.42309213
-2.0478868 1.3269221 0.42124707
-1.9681489 1.324296 0.41898495
-1.9281645 1.3268468 0.41842738
-1.8082051 1.327158 0.41565973
-1.7282321 1.3273654 0.41381463
-1.6882458 1.327469 0.41289207
-1.6487274 1.3194581 0.41077042
-1.5282934 1.3205422 0.40810692
-1.4480853 1.3235829 0.4066788
-1.3681123 1.3237901 0.40483367
-1.288137 1.3215504 0.40262359
-1.2083998 1.3189243 0.40036151
-1.1684084 1.3141338 0.398709
-1.0884352 1.3143412 0.39686388
-1.0484514 1.316892 0.39630634
-0.9291935 1.3038071 0.39155746
-0.88849878 1.3099653 0.39152116
-0.87100506 1.3100106 0.39111754
-0.76812792 1.3152347 0.38948327
-0.72879267 1.31244 0.38814378
-0.60836697 1.3233129 0.38694021
-0.52863359 1.3255812 0.3854081
-0.48864889 1.328132 0.3848505
-0.40868044 1.3332337 0.38373539
-2.0492978 1.30992 0.41874471
-2.0095487 1.3096374 0.41777015
-1.9293408 1.312678 0.41634205
-1.889354 1.3127817 0.41541949
-1.7696233 1.3029181 0.41113991
-1.6494267 1.3036151 0.40842423
-1.5296981 1.2961986 0.40450963
-1.4890604 1.2992001 0.40400392
-1.4490447 1.2996579 0.40313351
-1.329761 1.2918226 0.39916688
-1.2493181 1.2976973 0.39815593
-1.169992 1.290112 0.39516389
-1.1295934 1.2951742 0.3949711
-1.0896077 1.295278 0.39404857
-1.0098734 1.2975464 0.39251643
-0.96965218 1.3004831 0.39201087
-0.88967705 1.2982435 0.38980079
-0.84968424 1.2910056 0.38778329
-0.81023169 1.2896284 0.38665241
-0.72996616 1.2958249 0.38569361
-0.68974686 1.3012091 0.38555303
-0.6097784 1.3063107 0.38443789
-0.5697937 1.3088614 0.38388029
-0.49005795 1.3086828 0.38198319
-0.44983864 1.3140669 0.38184261
-0.40985394 1.3166177 0.38128504
-9.7894468 -0.28581524 0.36235112
-9.4867916 -0.34144557 0.34695551
-9.3670378 -0.29188433 0.35153711
-9.3197174 -0.25452808 0.35599777
-9.8470993 -0.24626762 0.3696011
-2.2092457 1.3119522 0.42279989
-2.1299787 1.3036591 0.41970369
-2.0895216 1.3094301 0.41961527
-4.7519708 1.3176496 0.48329741
-4.7119842 1.3177711 0.48237747
-4.7919474 1.3101978 0.48312393
0 0 0 1 0 0 0 1 0 0 0 1 0 0 0 0 0 626 1 0 0
