ply
format ascii 1.0
comment PCL generated
element vertex 318
property float x
property float y
property float z
element camera 1
property float view_px
property float view_py
property float view_pz
property float x_axisx
property float x_axisy
property float x_axisz
property float y_axisx
property float y_axisy
property float y_axisz
property float z_axisx
property float z_axisy
property float z_axisz
property float focal
property float scalex
property float scaley
property float centerx
property float centery
property int viewportx
property int viewporty
property float k1
property float k2
end_header
-10.991775 1.3551105 -4.8209124
-10.97743 1.355593 -4.8224053
-10.785379 1.3566501 -4.8423133
-10.777163 1.3568535 -4.8431673
-10.622227 1.3316638 -4.8588009
-10.503147 1.3196656 -4.8709373
-10.463518 1.3248301 -4.8751264
-10.420718 1.3231854 -4.8795319
-10.341391 1.3235176 -4.887753
-10.239077 1.3196229 -4.8982859
-10.218661 1.3198349 -4.9004035
-10.100183 1.3102069 -4.9125161
-10.011987 1.2931355 -4.921371
-9.9691439 1.2892148 -4.9257436
-9.8922205 1.2943521 -4.9337945
-9.8137074 1.2973566 -4.9419751
-9.7665796 1.2952663 -4.9468217
-9.6915121 1.2916254 -4.9545369
-9.5727015 1.3076535 -4.967104
-9.5361328 1.3047655 -4.9708443
-9.4171486 1.3057984 -4.9831839
-9.3773985 1.2986454 -4.9871836
-9.2949238 1.2975684 -4.9957075
-9.2155132 1.2907597 -5.0038204
-9.1371965 1.3014226 -5.0121059
-9.0536852 1.2878722 -5.0205331
-8.9744492 1.2960584 -5.0288734
-8.8982191 1.2935146 -5.036727
-8.8189831 1.3017009 -5.0450673
-8.6967878 1.2959698 -5.0576286
-8.5778608 1.3020014 -5.0700445
-8.53689 1.3076648 -5.0743804
-8.4159155 1.2891175 -5.0866055
-8.3332958 1.2755446 -5.0949402
-8.2176075 1.2908392 -5.107172
-8.0985641 1.2868741 -5.1194363
-7.9795208 1.2829088 -5.1317
-7.8971329 1.2893293 -5.1403379
-7.7252588 1.3112683 -5.1584978
-7.5664768 1.3001326 -5.1747599
-7.5268469 1.3029718 -5.1789107
-7.4443154 1.2994395 -5.1874003
-7.3649969 1.3001194 -5.1956263
-7.285737 1.3057975 -5.203928
-7.2064185 1.3064775 -5.2121539
-7.1667595 1.3068174 -5.2162671
-7.0874696 1.3099964 -5.2245312
-7.0080347 1.3006799 -5.232605
-6.8858442 1.2974877 -5.2452078
-6.7669544 1.3060048 -5.2576604
-6.6480055 1.3095237 -5.2700372
-6.5291157 1.3180408 -5.2824898
-6.4465556 1.3120096 -5.2909417
-6.3243361 1.3063184 -5.3035064
-6.2847056 1.3091573 -5.3076572
-6.1691155 1.3293837 -5.3199596
-6.126215 1.3230126 -5.3242984
-5.9678693 1.3493632 -5.3411293
-5.9429655 1.3395793 -5.3435483
-5.807467 1.301036 -5.3569503
-5.7739477 1.3010386 -5.3604221
-5.727951 1.3017651 -5.3651977
-5.6502094 1.3020519 -5.3732538
-5.4883466 1.264114 -5.3893962
-5.3456879 1.3052578 -5.4048448
-5.1837497 1.296541 -5.4214735
-5.0647955 1.296751 -5.4337964
-4.9425497 1.2954608 -5.4464359
-4.9029255 1.3005288 -5.450623
-4.7443337 1.3033075 -5.4670935
-4.704669 1.3008788 -5.4711614
-4.5857286 1.3035877 -5.4835243
-4.4271364 1.3063664 -5.4999948
-4.3444467 1.2875142 -5.5082498
-4.2651577 1.2901531 -5.5165048
-4.2255063 1.290223 -5.5206127
-4.0669827 1.3054966 -5.5372806
-3.9877622 1.3206298 -5.545733
-3.8382831 1.3243855 -5.5612755
-3.8275313 1.3239081 -5.5623813
-3.7466307 1.3320441 -5.5708933
-3.58655 1.3252645 -5.5873613
-3.5549674 1.3258787 -5.5906425
-3.5473082 1.3252096 -5.5914245
-3.4657519 1.3260361 -5.5998845
-3.4260595 1.3186096 -5.6038737
-3.3071463 1.3263161 -5.6163154
-3.1881647 1.3215286 -5.6285596
-3.1435845 1.3266051 -5.6332598
-2.9866302 1.3228773 -5.6494541
-2.9534988 1.3327796 -5.6530476
-2.8962433 1.3316751 -5.6589594
-2.8281338 1.3431485 -5.6662011
-2.7922533 1.3548117 -5.6701083
-2.591048 1.3496041 -5.6908612
-2.511606 1.3451002 -5.6990151
-2.4718609 1.3403494 -5.7030535
-2.3849757 1.3358917 -5.7119789
-2.272831 1.3367836 -5.723608
-2.1542358 1.337326 -5.7358994
-2.0351443 1.3380666 -5.7482457
-1.9161482 1.3488017 -5.7607455
-1.8764029 1.344051 -5.7647839
-1.8513775 1.3402472 -5.7673135
-1.7150145 1.3510906 -5.7816138
-1.5959945 1.3593271 -5.7940755
-1.5562973 1.3595738 -5.7981906
-1.5138569 1.3508805 -5.8024435
-1.3948131 1.3566183 -5.8148665
-1.2785602 1.3762938 -5.827229
-1.0650935 1.3861558 -5.8494987
-0.99815178 1.3915697 -5.8565202
-0.95575905 1.3878739 -5.8608503
-0.83945894 1.4025519 -5.8731356
-0.75729704 1.3916066 -5.8814654
-0.67795038 1.3970977 -5.8897734
-0.63548613 1.3859056 -5.8939877
-0.47941732 1.393334 -5.9102731
-0.43971968 1.3935807 -5.9143887
-0.38231897 1.374629 -5.920023
-0.26311541 1.3550054 -5.9320469
-0.22057056 1.3386196 -5.9361849
-0.22004032 1.3363053 -5.936202
-0.19027328 1.2562478 -5.9379735
-0.18257856 1.1753296 -5.9374452
-0.1823225 1.0952725 -5.9361606
-0.041606426 0.85589921 -5.9468136
-0.058715343 0.81586319 -5.944386
-0.080786228 0.77581185 -5.9414444
-0.10533762 0.73575294 -5.9382453
-0.13938808 0.41529447 -5.9294701
-0.11917686 0.22351062 -5.9284225
-0.10149336 0.13601686 -5.9288206
-0.056241512 0.022870794 -5.9316545
-0.053652763 -0.091366604 -5.9300513
-0.053514957 -0.13385056 -5.9293699
-0.016020775 -0.29717201 -5.9305782
-0.015761375 -0.37714171 -5.9292951
-0.030256748 -0.49709725 -5.9258294
0.024841309 -0.65703368 -5.928916
0.015307903 -0.77698886 -5.9259644
-0.021645546 -0.85696077 -5.9208274
-0.043843269 -0.89694691 -5.9178734
-0.20866156 -0.93572474 -5.9001684
-0.36649418 -1.0154824 -5.8825159
-0.45977211 -1.211687 -5.8696418
-0.4919858 -1.247726 -5.8657155
-0.53232765 -1.2579458 -5.8613701
-0.65808916 -1.230436 -5.8487959
-0.77708435 -1.2411854 -5.8362956
-0.89627171 -1.2319448 -5.8241034
-0.9358964 -1.2396926 -5.8198724
-1.0577078 -1.2339896 -5.8073502
-1.1730237 -1.1956393 -5.7960353
-1.3357568 -1.2182585 -5.778811
-1.4550414 -1.1990227 -5.7667723
-1.6564398 -1.1738324 -5.7463264
-1.7359304 -1.1643403 -5.7382493
-1.7757244 -1.1545967 -5.7342877
-1.8553352 -1.1326107 -5.7264028
-1.9738617 -1.1231103 -5.714283
-2.053966 -1.1188755 -5.7060561
-2.2129474 -1.0998912 -5.6899014
-2.3272214 -1.0856216 -5.6783004
-2.3757691 -1.0869513 -5.6732507
-2.4540675 -1.0724535 -5.665379
-2.5309825 -1.0544262 -5.6577082
-2.6230214 -1.0485346 -5.6482725
-2.6546147 -1.0494375 -5.6449857
-2.8114865 -1.0597243 -5.6285706
-2.8236947 -1.0612023 -5.6272817
-2.8538074 -1.0635134 -5.6241255
-2.866333 -1.051098 -5.6230316
-3.2083156 -0.89243591 -5.5902119
-3.2242486 -0.89430559 -5.588531
-3.2647455 -0.89478898 -5.5843291
-3.2761669 -0.89383686 -5.5831618
-3.4996889 -0.83512807 -5.5609736
-3.579952 -0.85665417 -5.5523086
-3.621803 -0.86182547 -5.5478897
-3.6978698 -0.83624995 -5.5404305
-3.7550361 -0.81658214 -5.534832
-4.1863365 -0.7826634 -5.4907188
-4.5102654 -0.74495929 -5.457788
-4.9335022 -0.62842369 -5.4158635
-4.9513898 -0.62649125 -5.4140425
-5.5080218 -0.62832862 -5.3563633
-5.5807328 -0.65488464 -5.3483982
-5.6375179 -0.67534411 -5.3421817
-5.8235111 -1.0690594 -5.3164706
-6.0245638 -1.1064616 -5.2950358
-6.1435151 -1.1099348 -5.2826595
-6.2578845 -1.0821818 -5.2712688
-6.2570434 -1.0343525 -5.2721395
-6.185348 -0.91782916 -5.2814732
-6.3802395 -0.38227099 -5.2700605
-6.423048 -0.38338739 -5.2656088
-6.4690342 -0.38279641 -5.2608557
-6.542479 -0.34437585 -5.2538786
-6.991478 -0.25090289 -5.2089076
-7.0986009 -0.61039031 -5.1919255
-7.1556144 -0.77004796 -5.1834059
-7.1770186 -0.77060616 -5.18118
-7.1984229 -0.77116436 -5.1789541
-7.2198277 -0.7717225 -5.1767282
-7.2644362 -0.75324196 -5.172411
-7.5316935 -0.57547832 -5.1476431
-8.0678463 -0.79549915 -5.0885119
-8.069973 -0.8355242 -5.087636
-8.0653553 -0.91547346 -5.0868049
-7.9554234 -1.1208112 -5.0948272
-7.9518538 -1.1579373 -5.0945888
-7.9457264 -1.1947662 -5.0946202
-8.0129509 -1.2359781 -5.0869827
-8.0634403 -1.2557552 -5.08143
-8.232481 -1.1732984 -5.0652733
-8.3911762 -1.169727 -5.0488963
-8.4703836 -1.1804384 -5.0405173
-8.5934677 -1.2020077 -5.0274167
-8.6290512 -1.1793664 -5.0241022
-8.6653671 -1.1618153 -5.0206285
-8.7000809 -1.0765045 -5.0184307
-8.9670277 -0.88494122 -4.9939213
-9.3275642 -1.1288329 -4.9525871
-9.3667746 -1.1691811 -4.9478655
-9.4202251 -1.2087926 -4.9416809
-9.4614878 -1.224352 -4.9371524
-9.5075283 -1.2179421 -4.9324894
-9.5472164 -1.2157996 -4.9284139
-9.6599283 -1.2136389 -4.9167762
-9.7058001 -1.2222258 -4.9118848
-9.7881832 -1.2308038 -4.9032121
-9.9102821 -1.2347398 -4.890502
-10.10861 -1.2340244 -4.8699732
-10.14515 -1.231516 -4.86623
-10.188577 -1.1772506 -4.8626213
-10.487839 -1.0960119 -4.8329582
-10.646561 -1.0896358 -4.8166242
-10.725807 -1.0976938 -4.8082848
-10.765623 -1.0829796 -4.8044024
-10.801385 -1.0421677 -4.8013668
-10.953594 -0.86623895 -4.7884846
-11.265392 -0.56509632 -4.7611246
-11.531174 -0.53011757 -4.7341714
-11.533407 -0.48936212 -4.7346077
-11.562553 -0.37038553 -4.7335377
-11.615881 -0.0033684671 -4.7340255
-11.625475 0.029837176 -4.7335758
-11.610552 0.070664972 -4.7357903
-11.591587 0.11005359 -4.7383995
-11.77444 0.59046954 -4.7273302
-11.403332 0.83217162 -4.7697234
-11.406667 0.95212644 -4.7713428
-11.406953 0.99211484 -4.7719679
-11.402851 1.1121008 -4.7743578
-11.432817 1.23262 -4.7732286
-11.401515 1.2720648 -4.7771163
-11.378582 1.2753359 -4.7795448
-11.299343 1.2881644 -4.7879615
-11.177324 1.3018475 -4.8008232
-11.101257 1.3214849 -4.8090224
-1.2893109 0.42414647 -5.8105211
-1.2896929 0.46412647 -5.8111362
-1.2629995 0.58235699 -5.8158374
-1.2690353 0.65770853 -5.8164463
-1.2769327 0.7051385 -5.8164053
-1.2952304 0.7839511 -5.8158011
-1.5140929 1.0974518 -5.7982688
-1.6705441 1.1300032 -5.7825985
-1.7525625 1.1259562 -5.7740378
-1.8319573 1.1254627 -5.7658072
-1.8716545 1.1252159 -5.7616916
-1.9113512 1.1249691 -5.7575765
-2.0303712 1.1167325 -5.7451148
-2.0700679 1.1164857 -5.7409997
-2.389837 0.78756422 -5.7024946
-2.3851981 0.7367388 -5.7021427
-2.393749 0.69611913 -5.700592
-2.4030757 0.615058 -5.6982985
-2.4145501 0.53606027 -5.695816
-2.4110894 0.41509622 -5.6941934
-2.3860111 0.33509269 -5.6954803
-2.3813386 0.17642534 -5.6933656
-2.3983369 0.11341359 -5.6905732
-2.4071043 -0.0065905303 -5.6876998
-2.4116807 -0.046602353 -5.6865702
-2.4378157 -0.1667165 -5.6818962
-2.4198439 -0.36702794 -5.6804771
-2.4058952 -0.40743339 -5.6812596
-2.3997762 -0.52734327 -5.6799297
-2.0570045 -0.92442536 -5.7089262
-1.9777756 -0.92398739 -5.7171388
-1.8020058 -1.0023285 -5.7340593
-1.73667 -1.0015953 -5.7408381
-1.6971388 -1.0014087 -5.7449355
-1.6567793 -1.0008974 -5.7491236
-1.5365295 -0.99968863 -5.7615976
-1.2970743 -0.71675861 -5.7910309
-1.2999969 -0.63764179 -5.7920241
-1.3251386 -0.51849121 -5.7913718
-1.3117948 -0.35847527 -5.7953744
-1.2830124 -0.23732238 -5.8003397
-1.2833977 -0.19734196 -5.8009548
-1.2862644 -0.15737729 -5.8013124
-1.2874217 -0.037436023 -5.8031569
-1.2828455 0.0025758147 -5.804286
-1.2832308 0.042556226 -5.8049011
-1.2841549 0.14430188 -5.8064718
-1.2819061 0.1625132 -5.807003
-1.2826781 0.242474 -5.8082323
-1.291028 0.34417105 -5.8090334
-4.5070391 -0.56251967 -5.4611101
-4.6687098 -0.23357694 -5.4497542
-4.4323239 0.055518739 -5.4789705
-4.1145563 0.10200328 -5.5126424
-3.872571 -0.33643734 -5.5305233
-3.8733621 -0.61733812 -5.5258408
-4.4894853 -0.58491057 -5.4625616
0 0 0 1 0 0 0 1 0 0 0 1 0 0 0 0 0 318 1 0 0
