ply
format ascii 1.0
comment PCL generated
element vertex 533
property float x
property float y
property float z
element camera 1
property float view_px
property float view_py
property float view_pz
property float x_axisx
property float x_axisy
property float x_axisz
property float y_axisx
property float y_axisy
property float y_axisz
property float z_axisx
property float z_axisy
property float z_axisz
property float focal
property float scalex
property float scaley
property float centerx
property float centery
property int viewportx
property int viewporty
property float k1
property float k2
end_header
-0.26039839 -1.2361622 -5.0795712
-0.33887863 -1.2474043 -5.0757885
-0.37993193 -1.2346915 -5.0744348
-0.66529036 -1.205989 -5.0630193
-0.78420639 -1.2191297 -5.0574188
-0.86531544 -1.2141383 -5.0540676
-0.90448904 -1.2067385 -5.0526166
-0.98526144 -1.2075061 -5.0490866
-1.0642843 -1.2128727 -5.0454779
-1.1048279 -1.2116251 -5.0437608
-1.2243934 -1.2157441 -5.038435
-1.264914 -1.2169927 -5.0366354
-1.3445873 -1.2133378 -5.0333014
-1.3837943 -1.2021936 -5.0319748
-1.5049853 -1.1837586 -5.0273366
-1.6236763 -1.1901772 -5.0219717
-1.7035961 -1.1907482 -5.0184851
-1.7447004 -1.1904637 -5.0167117
-1.864625 -1.1863277 -5.0116477
-1.8972259 -1.1715823 -5.0107288
-2.0242147 -1.1515597 -5.0058923
-1.9445419 -1.1552147 -5.0092258
-1.9045153 -1.1624178 -5.0107203
-1.8636808 -1.1644318 -5.0124245
-1.8242593 -1.1676058 -5.0140281
-1.784277 -1.1698165 -5.0156884
-1.6646891 -1.1681936 -5.0209312
-1.6394444 -1.1662856 -5.0220904
-1.5867276 -1.1641814 -5.0244484
-1.5442033 -1.1713666 -5.0260515
-1.4242129 -1.1829913 -5.0308666
-1.3241348 -1.2022471 -5.0345616
-1.2240543 -1.1898191 -5.0393209
-1.119071 -1.1990546 -5.0435653
-1.0242548 -1.1883919 -5.0480371
-0.98425055 -1.1930989 -5.0496144
-0.93229723 -1.2011758 -5.0515971
-0.90496016 -1.2018446 -5.0527606
-0.86506701 -1.2019914 -5.0544863
-0.74559069 -1.1958086 -5.0598774
-0.7045083 -1.193597 -5.0617342
-0.66459322 -1.1883192 -5.063643
-0.385571 -1.2039909 -5.075222
-0.073517323 -0.94231337 -5.0975528
-0.068281174 -0.90078646 -5.0991755
-0.066373348 -0.94388306 -5.0978098
-0.068656921 -1.023778 -5.0950265
-0.070698738 -1.0621501 -5.0936484
-0.078325272 -1.1436257 -5.09058
-0.1006484 -1.2010685 -5.0876813
-0.1302104 -1.2219884 -5.0856957
-0.1801281 -1.2345157 -5.0831089
-0.22008944 -1.2345508 -5.0813742
-11.482938 0.23239838 -4.6420364
-11.418874 -0.0080847442 -4.636735
-11.428078 -0.088057727 -4.6336484
-11.419802 -0.16789687 -4.6313248
-11.427656 -0.2093989 -4.6295896
-11.39999 -0.40665156 -4.6241617
-11.519699 -0.57101572 -4.6134453
-11.640476 -0.45157403 -4.6122189
-11.641079 -0.42476428 -4.6130939
-11.641327 -0.32090047 -4.6165729
-11.614153 -0.29072902 -4.6187658
-11.5639 0.010780752 -4.6310768
-11.565029 0.125632 -4.6348872
-11.56327 0.15029655 -4.6357923
-11.765724 0.57177383 -4.6411715
-11.485575 0.61445057 -4.6547594
-11.476825 0.43220025 -4.6490149
-11.486261 0.35224593 -4.6459193
-6.5271645 -0.9034214 -4.8188729
-6.5518894 -0.9261111 -4.8170381
-6.5793567 -0.92635161 -4.8158383
-6.6062684 -0.90513474 -4.8153839
-6.6222434 -0.8867749 -4.8153076
-6.931468 -0.46998423 -4.815897
-7.2072282 -0.97540212 -4.7869506
-7.3263526 -1.1146101 -4.7771049
-7.406435 -1.0990808 -4.7741523
-7.6593995 -1.1913421 -4.7600775
-7.6985307 -1.1906004 -4.7584047
-7.7588453 -1.1917025 -4.7557507
-7.816165 -1.1887058 -4.753365
-8.0164461 -1.1710322 -4.7452698
-8.0563412 -1.1764094 -4.7433581
-8.1379356 -1.166801 -4.7401409
-8.1763134 -1.1675652 -4.7384505
-8.257163 -1.1544017 -4.7353849
-8.4988794 -1.1873411 -4.7237916
-8.5777521 -1.2095259 -4.7196245
-8.6965408 -1.1584725 -4.716186
-8.8987188 -1.1636885 -4.7072396
-9.1167316 -1.166824 -4.6976762
-9.2978382 -1.2024759 -4.688621
-9.336216 -1.2032402 -4.6869302
-9.4169502 -1.2000668 -4.6835341
-9.4960823 -1.1997733 -4.6801109
-9.5749836 -1.2194607 -4.6760263
-9.776516 -1.2719988 -4.6655178
-9.9158077 -1.2522975 -4.6601367
-10.077623 -1.2159799 -4.6543369
-10.115256 -1.2131888 -4.6527977
-10.173609 -1.1739795 -4.6515837
-10.474922 -1.1213576 -4.6402798
-10.490697 -1.1181244 -4.6397038
-10.595497 -1.1084168 -4.6354837
-10.634668 -1.109723 -4.6337399
-10.674622 -1.1100287 -4.6319966
-10.754478 -1.115634 -4.6283436
-10.833677 -1.1097556 -4.6251054
-10.87451 -1.0990741 -4.6236925
-10.875666 -1.045361 -4.6254473
-10.811669 -0.96524817 -4.6309156
-10.729713 -0.76188332 -4.641305
-10.719015 -0.65841997 -4.6452456
-10.7584 -0.52015942 -4.6481824
-10.800606 -0.44346803 -4.6489286
-10.841526 -0.3896867 -4.6489601
-0.065649033 -0.81931525 -5.1020269
-0.07370472 -0.7410053 -5.1043091
-0.074026108 -0.62116611 -5.1083217
-0.061565399 -0.74257052 -5.1047831
-5.2963634 -0.18598832 -4.8963776
-5.4235287 0.38126886 -4.9099212
-5.3370295 -0.19790119 -4.8942127
-5.8302064 -0.082270876 -4.8767023
-5.8481226 -0.042475522 -4.8772621
-5.9293385 0.076669976 -4.8777423
-0.069726944 -0.098706566 -5.1260638
-0.063191414 -0.062595606 -5.1275606
-0.057802677 -0.020379037 -5.1292133
-0.055277824 0.10103849 -5.1334023
-0.058157921 0.13174547 -5.1343093
-0.058386326 0.17168756 -5.1356416
-0.063789368 0.21771859 -5.1369538
-0.060025215 0.32810581 -5.1408262
-0.067289352 0.28813469 -5.1391683
-0.067060947 0.24819256 -5.137836
-0.068087101 0.22086661 -5.1368732
-0.06648922 0.14833741 -5.1345053
-0.066737652 0.12669133 -5.1337671
-0.068462372 0.097875074 -5.1327243
-0.068007469 0.059504896 -5.1314545
-0.063145638 -0.02195964 -5.1289282
-0.13347721 1.0085249 -5.1605029
-0.070219994 0.93055791 -5.1606274
-0.06844759 0.92721754 -5.1605921
-0.050508022 0.84740126 -5.1586885
-0.052052021 0.81079954 -5.1573915
-0.051823616 0.77085745 -5.1560593
-0.060135841 0.84903753 -5.1583257
-6.016726 -1.0782808 -4.8351426
-5.8290114 -1.1165893 -4.8419991
-5.8044767 -1.1172049 -4.8430429
-5.7790709 -1.116152 -4.8441806
-5.704597 -1.0755476 -4.8487759
-5.2480202 -1.0974311 -4.8678489
-5.2091169 -1.0903047 -4.8697762
-4.6886544 -1.0953834 -4.8921852
-4.6077347 -1.0881742 -4.8959379
-4.5284624 -1.0709676 -4.8999553
-4.4081764 -1.0669819 -4.9053078
-4.3688765 -1.0703135 -4.9069009
-4.1675797 -1.0463138 -4.9164405
-4.087512 -1.0657945 -4.9192595
-4.0475001 -1.0730387 -4.920752
-4.0064621 -1.0735625 -4.9225149
-3.9664719 -1.0783105 -4.9240904
-3.8465886 -1.0825694 -4.9291482
-3.9714894 -0.50418204 -4.9431643
-4.0116138 -0.38320458 -4.9454885
-4.0174541 -0.26309308 -4.9492712
-4.0128098 -0.22312315 -4.9508157
-4.0384746 -0.1433972 -4.9523811
-4.055069 0.041230723 -4.9578652
-4.055418 0.081170112 -4.9591918
-4.1265879 0.46671259 -4.969059
-4.1262035 0.51780158 -4.9707923
-4.1269016 0.55679256 -4.9720726
-4.1664782 0.59769726 -4.9717298
-4.1687207 0.59816676 -4.9716482
-4.2034473 0.60569876 -4.9703946
-4.2405396 0.52317905 -4.966013
-4.2427058 0.48349559 -4.9645853
-4.2708912 0.35653538 -4.9590964
-4.2850618 0.31772077 -4.9571776
-4.587338 0.092892498 -4.9365087
-4.6143866 0.045296386 -4.9337358
-5.0129375 -0.31007361 -4.9045043
-5.2559738 -0.22558688 -4.8967991
-0.075661182 -0.14338595 -5.1243052
-0.082483768 -0.26165551 -5.1200352
-0.072734833 -0.30316925 -5.1190629
-0.069861412 -0.18017553 -5.1233206
-6.1922665 1.3277304 -4.9083729
-6.1514506 1.3220828 -4.9099541
-6.0715742 1.3253096 -4.913528
-5.9111271 1.3407314 -4.9210067
-5.9086304 1.3407542 -4.9211159
-5.8310814 1.3289775 -4.9240847
-5.671854 1.3114825 -4.9304047
-5.6302872 1.3098092 -4.9321518
-5.590363 1.3126709 -4.93398
-5.4727874 1.3043396 -4.9388008
-5.4652677 1.3019114 -4.9390459
-5.2478356 1.2752458 -4.9475827
-5.2054758 1.2722863 -4.9493213
-5.1283317 1.2773879 -4.9528394
-5.0058002 1.2902266 -4.9585867
-4.8887038 1.2954214 -4.9638414
-4.8469563 1.301391 -4.9658532
-4.7265062 1.3204124 -4.9717178
-4.6157231 1.3177168 -4.9764338
-4.6079502 1.3182625 -4.976789
-4.5489941 1.3212484 -4.9794474
-4.4865923 1.3263866 -4.982327
-4.4057741 1.3257666 -4.9858127
-4.3667145 1.3216735 -4.9873695
-4.2478218 1.3327446 -4.9928999
-4.1644859 1.3220923 -4.9961572
-4.0536871 1.3240913 -5.0010314
-4.0465345 1.323475 -5.0013208
-3.9270785 1.2877494 -5.0053029
-3.8498986 1.285362 -5.0085711
-3.8471632 1.2854394 -5.0086923
-3.7291868 1.2973169 -5.0142097
-3.6076069 1.3184509 -5.0201945
-3.4506998 1.4036937 -5.0298662
-3.4483159 1.4034882 -5.0299625
-3.4091549 1.4021027 -5.0316153
-3.2895617 1.3615954 -5.0354424
-3.1917274 1.3626676 -5.0397229
-3.1293147 1.3653095 -5.0425196
-3.0892379 1.3631176 -5.0441847
-3.0693753 1.3629529 -5.0450406
-2.9241705 1.3345267 -5.050385
-2.7646596 1.3730919 -5.0586014
-2.6849701 1.3695205 -5.0619383
-2.8501768 1.2843883 -5.0519104
-2.9692113 1.3032734 -5.0473809
-3.0892744 1.3227535 -5.0428267
-3.1415982 1.3228424 -5.0405598
-3.2089813 1.315196 -5.0373793
-3.2888846 1.3150098 -5.0339065
-3.3687646 1.3098308 -5.0302668
-3.4096437 1.3130404 -5.0286012
-3.5294161 1.2952863 -5.0228086
-3.6492596 1.2925105 -5.0175161
-3.7282116 1.2840288 -5.0138054
-3.7681518 1.2814392 -5.0119858
-3.8096287 1.2784941 -5.0100875
-3.8483939 1.2806191 -5.0084772
-3.8870912 1.2803534 -5.0067892
-3.9675715 1.2816072 -5.0033398
-3.9996819 1.2775234 -5.0018096
-4.0877066 1.2682123 -4.9976778
-4.1676102 1.2680258 -4.994205
-4.2864428 1.244473 -4.9882579
-4.3673687 1.26756 -4.9855227
-4.4082599 1.2732658 -4.9839406
-4.4291639 1.2765219 -4.9831433
-4.4373441 1.2798787 -4.9829011
-4.6063299 1.3011436 -4.976284
-4.6489811 1.293484 -4.9741764
-4.7670169 1.2940881 -4.9690757
-4.8078966 1.2972977 -4.9674101
-4.8868723 1.2938088 -4.9638667
-4.9675965 1.2744579 -4.9597144
-5.0077868 1.2764386 -4.9580374
-5.0468907 1.2779298 -4.9563909
-5.0883679 1.2749847 -4.9544926
-5.1673322 1.2689995 -4.9508653
-5.2715402 1.2452229 -4.9455457
-5.387321 0.70333445 -4.9223142
-5.3497581 0.58381981 -4.9199281
-5.3393183 0.54396266 -4.9190416
-5.3421421 0.50251365 -4.9175262
-11.147532 1.3141575 -4.6929364
-11.050159 1.3171223 -4.6972609
-10.931065 1.3542051 -4.7036734
-10.729675 1.3050555 -4.7107592
-10.690516 1.3113582 -4.7126698
-10.529903 1.306015 -4.7194581
-10.490035 1.3186922 -4.7216139
-10.45015 1.3288724 -4.7236862
-10.410213 1.3315614 -4.7255092
-10.290315 1.327143 -4.7305627
-10.091284 1.3267221 -4.7391834
-9.9625473 1.3040751 -4.7440076
-9.8833599 1.3008934 -4.7473359
-9.8026781 1.3005614 -4.7508249
-9.8825264 1.2948277 -4.7471681
-9.9214048 1.2965059 -4.7455378
-9.9816618 1.2953275 -4.7428842
-10.043 1.2844321 -4.7398567
-10.081373 1.279421 -4.7380238
-10.326164 0.84140205 -4.7126856
-10.245392 0.71693218 -4.7120075
-10.205997 0.51881522 -4.7070594
-10.205954 0.47843063 -4.7057042
-10.233239 0.43817306 -4.7031679
-10.306116 0.36066759 -4.697402
-10.323406 0.33311588 -4.6957259
-10.361574 0.080805838 -4.6855922
-10.364008 0.045419529 -4.6842976
-10.646997 -0.36322814 -4.658289
-10.317848 -0.58595645 -4.6650848
-10.285288 -0.59569508 -4.6661701
-10.277722 -0.60312796 -4.6662483
-9.9000587 -0.68960297 -4.6797276
-9.50284 -0.74982303 -4.6949368
-9.4624023 -0.72340721 -4.6975789
-9.4036503 -0.68892533 -4.7012863
-9.3430347 -0.6798017 -4.7042227
-9.0234385 -0.44083202 -4.7261181
-8.9852314 -0.28047124 -4.7331638
-8.9536667 -0.24079411 -4.7358665
-8.9462614 -0.23322967 -4.7364421
-8.8728065 0.075834304 -4.7500138
-8.8714886 -0.16802429 -4.7418771
-8.6242819 -0.43497616 -4.7436318
-8.6088104 -0.47729206 -4.7428813
-8.4626503 -0.72778249 -4.7408051
-8.343195 -0.79822171 -4.7436209
-8.1020803 -0.79401195 -4.7542229
-7.8446932 -0.39215267 -4.7788925
-7.8418846 -0.35110942 -4.7803936
-7.8438911 -0.31326327 -4.7815785
-7.8305211 -0.17325434 -4.7868629
-7.8304138 -0.15281077 -4.7875543
-7.7731237 -0.05416505 -4.7933545
-7.7497511 -0.016222745 -4.7956438
-7.7341862 0.0028690547 -4.7969604
-7.6966391 0.067099631 -4.8007474
-7.7398329 0.51997674 -4.8140912
-7.6999536 0.5587405 -4.8171239
-7.9176292 0.75525653 -4.8142834
-7.9580002 0.91735965 -4.8179789
-7.9596791 1.0774281 -4.8232846
-7.8015351 1.2798175 -4.836946
-7.4684014 1.3204824 -4.8527651
-7.7885728 1.2961103 -4.8380561
-7.8824444 1.3001246 -4.8341184
-8.0032501 1.315068 -4.8293796
-8.1229944 1.3039703 -4.8238115
-8.2827206 1.2949997 -4.8165803
-8.3219261 1.2960545 -4.8149152
-8.3634014 1.2953316 -4.8130913
-8.4032974 1.2899678 -4.8111801
-8.5624189 1.2949065 -4.8044429
-8.6430149 1.2877476 -4.8007054
-8.6829958 1.2898747 -4.7990427
-8.8035727 1.2848426 -4.7936425
-8.8826752 1.2805339 -4.7900658
-8.9226274 1.2801639 -4.7883201
-8.9618616 1.2837156 -4.7867374
-9.0432901 1.2826227 -4.7831678
-9.1225338 1.2907982 -4.7800045
-9.1632338 1.2890033 -4.7781787
-9.2039633 1.2897052 -4.7764349
-9.2417021 1.2961069 -4.775013
-9.3630266 1.2896501 -4.7695322
-9.4828281 1.2835463 -4.7641296
-9.5235281 1.2817514 -4.7623038
-9.6428099 1.2970476 -4.7576427
-9.7062387 1.2992963 -4.7549667
-9.7621078 1.2970064 -4.7524657
-2.8333523 0.56606525 -5.0285034
-2.8383811 0.56581187 -5.0282769
-2.8208244 0.24488293 -5.0182548
-2.856777 0.16998024 -5.0141783
-2.8669181 0.14647351 -5.0129485
-2.9114192 -0.013131082 -5.0056548
-2.9128816 -0.021110117 -5.0053234
-2.9502871 -0.13329442 -4.9999309
-2.94924 -0.25311255 -4.9959502
-2.9488909 -0.29305193 -4.9946232
-3.1708119 -0.57494682 -4.975523
-3.4087017 -0.6570611 -4.9624434
-3.488194 -0.65690213 -4.9590001
-3.7289317 -1.080299 -4.934329
-3.4882262 -1.0721118 -4.9450469
-3.3651991 -1.0636989 -4.9506669
-3.2874453 -1.0666654 -4.9539404
-3.246762 -1.0576364 -4.9560089
-3.1256287 -1.0497508 -4.9615293
-3.0489008 -1.0594375 -4.9645324
-3.0088205 -1.058977 -4.9662867
-2.8637679 -1.0492547 -4.9729066
-2.8471377 -1.0422785 -4.9738626
-2.8857198 -1.012473 -4.9731903
-3.1657965 -0.57741249 -4.9756579
-2.8517182 -0.39403212 -4.9954457
-2.8319194 -0.3739402 -4.9969802
-2.7752395 -0.3321704 -5.0008426
-2.7709556 -0.25225669 -5.0037136
-2.7917132 -0.16503277 -5.005744
-2.7020831 0.14765097 -5.0201392
-2.7046988 0.16930477 -5.0207534
-2.7150779 0.18652786 -5.0208817
-2.778367 0.24518119 -5.0201068
-10.887882 1.0366696 -4.6948771
-11.249742 1.2886951 -4.6876469
-11.250572 1.2998 -4.687984
-6.7521229 1.2986714 -4.8831077
-6.6723318 1.3093886 -4.8869295
-6.5119414 1.3298037 -4.8945737
-6.6317697 1.3262119 -4.8892546
-6.3519907 1.3187801 -4.9011426
-6.2315731 1.3362411 -4.9069538
-6.2721148 1.3220069 -4.9047165
-6.1520605 1.3056245 -4.9093742
-5.9922795 1.3095814 -4.9164395
-5.9122338 1.2978275 -4.919517
-5.8719406 1.2988391 -4.9212995
-5.8597965 1.2983067 -4.9218082
-5.7507815 1.2947526 -4.9264183
-5.590775 1.2787353 -4.9328218
-5.5397263 1.2612784 -4.9344501
-5.4310102 1.2138014 -4.937571
-5.3943429 0.70179975 -4.921958
-5.4248462 0.66696054 -4.9194641
-5.4635983 0.5847097 -4.915019
-5.4674797 0.46435684 -4.9108067
-5.4622278 0.4240846 -4.9096808
-5.9401808 0.096053004 -4.877923
-5.9851274 0.095642343 -4.8759594
-6.0188217 0.038431168 -4.8725753
-6.093081 -0.15792575 -4.8627553
-6.6158147 0.096589118 -4.848629
-6.6158609 0.11651607 -4.8492966
-6.5400901 0.49745041 -4.8653841
-6.5801272 0.50457567 -4.8638864
-6.836658 0.37341243 -4.8483496
-6.8707123 0.29319608 -4.8441768
-6.8975811 0.25327373 -4.84167
-6.9773121 0.17126141 -4.8354549
-6.9941235 0.15167953 -4.8340678
-6.9949727 0.073244005 -4.8313951
-7.3338313 -0.25460088 -4.8056779
-7.3738322 -0.25504345 -4.8039279
-7.6835413 0.02283287 -4.7998285
-7.6942387 0.066936091 -4.8008461
-2.5257077 1.369539 -5.0688486
-2.4458981 1.3825814 -5.0727491
-2.3260617 1.3884158 -5.0781446
-2.2055831 1.3535614 -5.0822001
-2.1658931 1.3520964 -5.0838728
-2.1256194 1.3491306 -5.0855203
-2.0856161 1.3444191 -5.0870976
-2.0059433 1.3407388 -5.0904303
-1.9258199 1.3505343 -5.0942359
-1.8458996 1.3510958 -5.0977221
-1.7657104 1.3534029 -5.1012783
-1.6858339 1.3589567 -5.1049304
-1.6458306 1.3542451 -5.1065073
-1.4860559 1.3628564 -5.1137285
-1.646369 1.3507537 -5.1063666
-10.887329 0.95676333 -4.6922159
-10.806274 0.82523364 -4.6913128
-10.7264 0.83061153 -4.6949592
-10.686429 0.82830632 -4.6966157
-10.606503 0.82619315 -4.7000122
-10.322763 0.60156333 -4.7047739
-10.380755 0.32035464 -4.6928091
-10.443394 0.24126513 -4.6874342
-10.443283 0.23894064 -4.6873608
-10.442426 0.21018355 -4.6864314
-10.447076 0.16021813 -4.6845508
-10.454291 0.12022896 -4.6828942
-10.449277 0.08222115 -4.6818347
-10.682373 -0.32105067 -4.6581712
-10.762019 -0.32369149 -4.6546273
-10.801989 -0.34693587 -4.652112
-10.840915 -0.37320971 -4.6495404
-0.3126092 1.3889618 -5.1655149
-0.31249666 1.4099798 -5.1662259
-0.35259771 1.3937995 -5.1639423
-0.60718632 1.3832457 -5.1525426
-0.64743614 1.3652604 -5.1501923
-0.60743141 1.3605487 -5.1517696
-0.39232445 1.3690996 -5.1613889
-0.38029051 1.3670542 -5.1618423
-2.3656144 1.4066035 -5.0770397
-2.3231926 1.4119486 -5.0790596
-2.245872 1.3907229 -5.0817008
-2.2061162 1.3817694 -5.0831246
-2.1657772 1.3713151 -5.0845237
-2.6050892 1.3724691 -5.0655031
-2.4852772 1.4124446 -5.0720444
-8.9392385 0.54584533 -4.7629251
-8.9547901 0.59564447 -4.7639236
-9.0054569 0.50669557 -4.7587366
-8.9935484 0.49040484 -4.7587061
-7.9712925 0.63471872 -4.8079047
-8.0116997 0.67429906 -4.8074818
-8.0555153 0.7937569 -4.8095951
-8.0953369 0.91608769 -4.8119779
-8.0957928 0.95603806 -4.8133006
-8.0962467 0.99598831 -4.8146234
-2.449614 -1.0939175 -4.9893737
-2.4645987 -1.0940244 -4.9887199
-2.4243026 -1.0994979 -4.990284
-2.2647352 -1.1317697 -4.9961224
-2.1843557 -1.1308843 -4.9996395
-2.1041565 -1.1496344 -5.0024886
-2.064466 -1.1510787 -5.0041623
-2.1839852 -1.1285059 -4.9997354
-2.2644877 -1.1275438 -4.9962749
-2.4240556 -1.0952721 -4.990437
-9.5613489 1.2994781 -4.7612586
-9.4422417 1.2953289 -4.7662864
-9.401598 1.3021176 -4.7682781
-9.3231869 1.3000078 -4.7716088
-9.2840385 1.3039466 -4.7734394
-9.2425919 1.3071665 -4.7753458
-9.2036562 1.3004943 -4.7768111
-9.0425835 1.3043791 -4.7839293
-8.9613705 1.3076128 -4.7875614
-8.9221649 1.3065577 -4.789227
-8.8297739 1.3074135 -4.7932639
-8.8025398 1.3072224 -4.7944393
-8.7629871 1.2966253 -4.7957993
-8.6822491 1.2912996 -4.7991228
-8.6032028 1.3006022 -4.8028646
-8.5631943 1.2959784 -4.8044453
-9.6820726 1.3030964 -4.7561426
-9.6414289 1.3098853 -4.7581339
-9.5813856 1.3004525 -4.7604222
-1.9254847 1.3447915 -5.0940571
-1.8461251 1.3443578 -5.0974855
-9.7635298 1.3045003 -4.752656
0 0 0 1 0 0 0 1 0 0 0 1 0 0 0 0 0 533 1 0 0
