ply
format ascii 1.0
comment PCL generated
element vertex 553
property float x
property float y
property float z
element camera 1
property float view_px
property float view_py
property float view_pz
property float x_axisx
property float x_axisy
property float x_axisz
property float y_axisx
property float y_axisy
property float y_axisz
property float z_axisx
property float z_axisy
property float z_axisz
property float focal
property float scalex
property float scaley
property float centerx
property float centery
property int viewportx
property int viewporty
property float k1
property float k2
end_header
-9.930933 -1.105306 -0.043458089
-9.5710888 -1.0910554 -0.062449872
-9.5297966 -1.0908833 -0.064726546
-9.4087734 -1.1045365 -0.072342455
-9.0869484 -1.2914174 -0.10262303
-9.082365 -1.2905701 -0.10282059
-8.926342 -1.3015474 -0.11219776
-8.8876858 -1.308556 -0.1148067
-8.8516312 -1.3104579 -0.1169313
-8.7317133 -1.3490994 -0.12615019
-8.6479359 -1.3264158 -0.129282
-8.5324163 -1.2774225 -0.13242047
-8.4526443 -1.2616959 -0.13579364
-8.3728199 -1.2584155 -0.13999864
-8.1505985 -1.2787709 -0.15366881
-8.0521584 -1.2627826 -0.15805906
-7.9298544 -1.254256 -0.16426867
-7.8541484 -1.1922865 -0.16433665
-7.6335478 -1.0940487 -0.17001848
-7.5922985 -1.0961189 -0.1724422
-7.5300417 -1.0935411 -0.17572048
-7.3129339 -1.0831634 -0.18706037
-7.2317438 -1.089784 -0.19200049
-7.1119952 -1.0884994 -0.19855085
-6.992259 -1.0847253 -0.20493467
-6.9549971 -1.08179 -0.20680407
-6.7940111 -1.0800859 -0.21561165
-6.7553911 -1.0846277 -0.21805428
-6.7127962 -1.0916854 -0.22088474
-6.5571561 -1.0774988 -0.22856474
-6.3947625 -1.0932298 -0.2386115
-6.2322698 -1.1288762 -0.2499902
-6.1923537 -1.128448 -0.25217363
-6.1176224 -1.10524 -0.25476921
-6.032825 -1.0993512 -0.25907606
-5.7527671 -1.225805 -0.28301758
-5.6338444 -1.2574991 -0.29171857
-5.6103921 -1.2591318 -0.29312694
-5.4931383 -1.257874 -0.29954082
-5.4457374 -1.2573653 -0.30213368
-5.3535056 -1.2414385 -0.30618393
-5.3176017 -1.2310259 -0.30748007
-5.1289692 -1.2439308 -0.3187927
-5.0890322 -1.2511513 -0.32148671
-4.9273548 -1.2197168 -0.32835248
-4.8902531 -1.2097297 -0.32974336
-4.7671266 -1.2031331 -0.3361271
-4.6872702 -1.1976709 -0.34018856
-4.5491705 -1.2134366 -0.34889141
-4.5275292 -1.2190894 -0.35046715
-4.4875946 -1.223822 -0.35299534
-4.3212833 -1.1664574 -0.35839093
-4.0757828 -1.2561448 -0.37796873
-4.0478601 -1.2576015 -0.3796131
-4.0097098 -1.2512231 -0.38130239
-3.5717721 -1.1448814 -0.39848828
-3.4919119 -1.144395 -0.40288135
-3.3729587 -1.1407783 -0.40923226
-3.2930984 -1.1402918 -0.41362536
-3.2514925 -1.145823 -0.41629934
-3.2098866 -1.151354 -0.41897333
-3.1325397 -1.1422062 -0.42265028
-3.0917716 -1.1448501 -0.42508551
-3.0119112 -1.1443638 -0.42947862
-2.9694672 -1.152782 -0.43239132
-2.8521907 -1.143391 -0.43826479
-2.7698162 -1.1515659 -0.44337404
-2.6907961 -1.1457044 -0.44736257
-2.5886421 -1.1411638 -0.45272106
-2.4277339 -1.1637871 -0.46314454
-2.3889885 -1.140033 -0.46370959
-2.1478329 -1.0615476 -0.47184604
-2.2283688 -1.042532 -0.46611664
-2.3491285 -1.0402268 -0.45927116
-2.4015372 -1.0405235 -0.45638669
-2.5895309 -1.0340921 -0.44554061
-2.7093246 -1.032281 -0.43878162
-2.7900031 -1.0277313 -0.43400776
-2.8930528 -1.0362548 -0.42886493
-3.0128458 -1.0344964 -0.42210948
-3.0536048 -1.0418042 -0.4203375
-3.2898703 -1.0150054 -0.40545994
-3.5306375 -0.62795132 -0.36633933
-3.0915828 -0.42873126 -0.37740123
-3.0142338 -0.42207137 -0.381244
-2.9743037 -0.42182815 -0.38344055
-2.9560142 -0.40470564 -0.38331366
-2.9177778 -0.36755821 -0.38295847
-2.9330492 -0.3269406 -0.37940699
-3.0001876 -0.31957665 -0.37519604
-3.0534251 -0.31573367 -0.37198994
-3.1324453 -0.32159513 -0.3680014
-3.1740489 -0.31855196 -0.36549324
-3.2372732 -0.3210206 -0.36215407
-3.294673 -0.32137021 -0.35899651
-3.4910128 -0.28935239 -0.34598386
-3.611639 -0.28968275 -0.33932132
-3.6524072 -0.2870388 -0.33688605
-3.7305803 -0.30573902 -0.33379954
-4.090786 -0.13640413 -0.30256069
-4.1308799 -0.12864226 -0.29982191
-4.2182565 -0.096831426 -0.29286125
-4.2281671 -0.17650534 -0.29761848
-4.2205544 -0.32700938 -0.30806416
-4.213892 -0.33900407 -0.30923223
-4.1331558 -0.3836993 -0.31668302
-3.9301791 -0.65436018 -0.34595752
-4.0493174 -1.0888884 -0.36829576
-4.3712811 -1.0722209 -0.34934396
-4.5310111 -1.063242 -0.33989447
-4.5709391 -1.0659732 -0.33786377
-4.6491194 -1.0772096 -0.33427978
-4.7306557 -1.0719217 -0.32940924
-4.7689118 -1.0754513 -0.3275243
-4.8912144 -1.0700074 -0.32038435
-4.9702344 -1.0758688 -0.31639579
-5.0509348 -1.0709802 -0.31159818
-5.0908656 -1.0712234 -0.3094016
-5.1201353 -1.069551 -0.30766824
-5.2106514 -1.0769287 -0.30314362
-5.2622623 -1.0860132 -0.30088866
-5.678925 -1.0830146 -0.27759948
-5.7188287 -1.0859323 -0.27558252
-5.8386021 -1.0822381 -0.2686992
-5.914422 -1.0930786 -0.26521963
-6.1584415 -0.97496116 -0.24383038
-6.4374199 -1.0737247 -0.23494858
-10.767124 0.2460572 0.092882738
-10.700169 0.02759169 0.074622169
-10.46575 -0.25398096 0.042878613
-10.460757 -0.26889938 0.041608348
-10.417544 -0.25507048 0.040134743
-9.9771729 -0.36546659 0.0083788782
-9.9746675 -0.36793119 0.0080759078
-9.9357777 -0.40994155 0.0031228513
-9.8918819 -0.43463022 -0.00095394254
-9.8506622 -0.43678778 -0.0033818483
-9.6917953 -0.45585364 -0.013455331
-9.4502163 -0.97108644 -0.061157882
-9.5925255 -1.0463827 -0.058286667
-9.9322176 -1.1028423 -0.043222815
-10.008836 -1.1079166 -0.03931497
-10.050024 -1.1132268 -0.037386194
-10.173 -1.1051434 -0.030033097
-10.255396 -1.1034639 -0.025355235
-10.535099 -1.0339192 -0.0052236021
-10.652237 -1.0524324 3.4585595e-05
-10.654671 -1.0823597 -0.0018237233
-10.63581 -1.0995671 -0.004014954
-10.571432 -1.137553 -0.01011236
-10.513409 -1.1382396 -0.013373539
-10.490312 -1.1392583 -0.014721274
-10.463511 -1.1377658 -0.016107082
-10.37257 -1.1120186 -0.01943171
-10.210329 -1.1154292 -0.028649494
-10.04743 -1.1158438 -0.0377042
-10.046139 -1.1159077 -0.037780002
-10.006222 -1.1155121 -0.039965689
0.52701759 -0.2655862 -0.56706107
0.54481411 -0.22673719 -0.56545985
0.54553986 -0.10971348 -0.55770612
0.54435396 -0.086233057 -0.55607653
0.54514122 -0.051367342 -0.55379802
0.56752586 0.050835431 -0.5482316
0.5848937 0.18786477 -0.54006767
0.58528423 0.20903204 -0.53867954
0.5844183 0.21166579 -0.53845614
0.50173569 0.38571769 -0.52228212
0.46212292 0.265333 -0.52810478
0.46162319 0.23977046 -0.52977961
0.44605303 0.047661409 -0.54171157
0.42534304 -0.044579431 -0.54670733
-0.052883625 -0.21907751 -0.53182817
-0.13275671 -0.20459369 -0.52643734
-0.17264366 -0.19501707 -0.52358919
-0.47217846 -0.17323117 -0.50553942
-0.59288931 -0.024516344 -0.48894548
-0.67239523 0.22133578 -0.46816549
-0.63196802 -0.079534665 -0.49044427
-0.7548337 -0.33405015 -0.50058681
-0.75398159 -0.38884234 -0.50428325
-0.75478601 -0.40126675 -0.50506622
-0.67228794 -0.75174665 -0.53298038
-0.95235395 -1.0522041 -0.53747147
-0.87167931 -1.051775 -0.54191351
-0.87086582 -1.0517981 -0.54196012
-0.75351858 -1.0435818 -0.5479157
-0.67039776 -1.0531799 -0.55316114
-0.59304428 -1.0353152 -0.55625784
-0.43080807 -1.0592914 -0.56684506
-0.1537261 -1.1134279 -0.58580524
-0.13080692 -1.1146946 -0.58715963
-0.050945282 -1.1142405 -0.59155494
0.014298439 -1.1149561 -0.59521812
0.28135538 -1.0661532 -0.60676682
0.30498791 -1.0619832 -0.60779864
0.30548096 -1.0411258 -0.60643685
0.30577278 -1.0246278 -0.60535425
0.31785727 -0.90412486 -0.59799814
0.50405359 -0.68149394 -0.59348869
0.50481272 -0.60928369 -0.58872145
0.50520182 -0.58562672 -0.58716738
0.50425529 -0.54300386 -0.5842762
0.5039382 -0.5271365 -0.58320183
0.50340223 -0.42117742 -0.57611507
0.37658739 1.3459121 -0.45139641
0.33580589 1.3634835 -0.44796619
0.25928354 1.366376 -0.44353306
0.21935368 1.366133 -0.44133648
0.13780832 1.3813725 -0.4358027
0.018022537 1.375667 -0.42954472
-0.083492279 1.3957608 -0.42258096
-0.11843109 1.395548 -0.42065898
-0.17949533 1.3819802 -0.41817874
-0.43825245 1.3172984 -0.40814757
-0.55722713 1.3116488 -0.40193081
-0.59634495 1.3114326 -0.39977753
-0.63546228 1.3112165 -0.39762419
-0.71451044 1.3107733 -0.39327326
-0.71613741 1.3107518 -0.39318454
-0.75606728 1.3105247 -0.39098692
-0.79762888 1.3152554 -0.38836873
-0.83755732 1.3125387 -0.38633698
-0.87830305 1.3147907 -0.38392907
-0.99728346 1.3166101 -0.37721455
-1.1170778 1.3184187 -0.37045568
-1.2376812 1.3152373 -0.36398432
-1.2767987 1.315021 -0.36183101
-1.277612 1.3150102 -0.36178666
-1.3167257 1.3098148 -0.35996518
-1.1961131 1.3005481 -0.36726615
-1.108768 1.3060238 -0.37174168
-0.7291894 0.98950678 -0.41385674
-0.72082758 0.90740222 -0.41978842
-0.7232933 0.86755389 -0.42230573
-0.69328642 0.78805584 -0.42926329
-0.68411016 0.70347226 -0.43540519
-0.67369032 0.66245538 -0.43871441
-0.67318916 0.5019567 -0.44943166
-0.63339424 0.58208448 -0.44630027
-0.55352926 0.71417934 -0.44192824
-0.57441902 0.8634333 -0.43083006
-0.58951187 1.0226849 -0.41938728
-0.43580341 1.3048825 -0.40911019
-0.18159485 1.3371323 -0.42104936
-0.14249325 1.3415377 -0.42292273
-0.09965086 1.3428406 -0.42521009
-0.062129974 1.3513842 -0.42672032
0.018867016 1.3653162 -0.43028086
0.13949537 1.3631586 -0.43710923
0.21602011 1.3577782 -0.44170821
0.4168787 1.2357851 -0.46096379
0.41076946 1.2706741 -0.4583016
0.4024086 1.3133222 -0.45499784
-5.0967064 1.2926646 -0.15163893
-4.9765487 1.2921313 -0.158333
-4.9332738 1.2882897 -0.16098696
-4.8958507 1.2897305 -0.16296479
-4.7335711 1.2322836 -0.17578363
-4.7735009 1.2320405 -0.17358708
-4.8151073 1.2375715 -0.1709131
-4.8533797 1.2514575 -0.16786738
-5.0455709 1.2801419 -0.15530664
-5.1325274 1.2788035 -0.15057705
-5.1338525 1.2787971 -0.15050405
-5.1737819 1.2808542 -0.14815436
-5.2136164 1.2820107 -0.14586988
-5.256289 1.2849559 -0.14330903
-5.3073664 1.2868842 -0.14035013
-5.2952271 1.2876401 -0.1409725
-5.2165494 1.2921157 -0.14503436
-11.186217 0.88423914 0.1586109
-11.158087 0.68548423 0.14381461
-11.118014 0.64602959 0.13896625
-11.064579 0.64452547 0.13590495
-11.051864 0.64418203 0.13517745
-10.767431 0.32572508 0.09820576
-11.166952 1.0439184 0.16817822
-11.147299 1.1237758 0.17240782
-11.107458 1.1440719 0.17155181
-11.077597 1.1642734 0.17124243
-10.828291 1.2139461 0.16073541
-10.678883 1.3174987 0.15935268
-10.505613 1.3440279 0.15151776
-10.465794 1.3630651 0.15057908
-10.429536 1.3692968 0.14898489
-10.227174 1.2719678 0.13128869
-10.108666 1.2656106 0.12429817
-10.070052 1.2734327 0.12267931
-10.050112 1.2761146 0.12175296
-9.9652348 1.2919142 0.11810176
-9.8879776 1.3000896 0.114365
-9.8480692 1.3029586 0.11234455
-9.8094349 1.3058014 0.11039297
-9.769537 1.3111598 0.10853885
-9.6072769 1.3027699 0.098988399
-9.5648479 1.3131593 0.097329155
-9.5287352 1.3084817 0.095016435
-9.4663057 1.2941364 0.090601489
-9.4089136 1.292192 0.087291583
-9.3702517 1.2875661 0.084840998
-9.3290491 1.2854815 0.082418904
-9.210618 1.2990413 0.076759145
-9.0895224 1.2827773 0.06896542
-9.0508604 1.2781513 0.066514835
-8.9697294 1.2739565 0.061739579
-8.9671803 1.2740082 0.061601713
-8.9272718 1.276877 0.059581295
-8.8465471 1.2536889 0.05356352
-8.806118 1.2456754 0.050789431
-8.4482174 1.2714689 0.032674208
-8.4083004 1.2718481 0.030487403
-8.3271799 1.2701427 0.025878534
-8.2460594 1.2684374 0.021269605
-8.2087002 1.2712544 0.019386992
-8.1687727 1.2691441 0.01703383
-8.1288652 1.2720128 0.015013412
-8.0490093 1.267792 0.010307088
-8.0077877 1.2607282 0.0075523108
-7.9684319 1.2621852 0.005468443
-7.8880529 1.266845 0.001324594
-7.8507042 1.2721516 -0.00039169192
-7.7708778 1.2753997 -0.0045989603
-7.6526418 1.2714547 -0.011413783
-7.6513166 1.2714609 -0.011486784
-7.6099024 1.2694734 -0.013914168
-7.569994 1.2723422 -0.015934616
-7.5326357 1.2751594 -0.017817229
-7.5313606 1.2751852 -0.017886162
-7.4929781 1.2731842 -0.0201464
-7.3732166 1.2719918 -0.026862413
-7.4916272 1.2682116 -0.020552441
-7.5275068 1.267794 -0.018591955
-7.5287819 1.2677681 -0.018523052
-7.5315437 1.2677791 -0.018369272
-7.6100507 1.2669207 -0.01407595
-7.6486168 1.2615156 -0.012298808
-7.7695742 1.2679566 -0.005166918
-7.8069139 1.2601603 -0.0036169887
-1.4713981 -1.1323189 -0.51404428
-1.3907218 -1.1343791 -0.5186522
-1.311677 -1.1289248 -0.5226692
-1.1503735 -1.0633392 -0.5272398
-1.0721421 -1.0578617 -0.53121018
-1.191936 -1.0560507 -0.52445114
-1.2717941 -1.061482 -0.52038753
-1.3915877 -1.0596709 -0.51362854
-1.471451 -1.0576338 -0.50906718
-1.5121999 -1.0503683 -0.50632519
-1.5912464 -1.0533332 -0.50214231
-6.9158692 -0.59157246 -0.17632303
-6.5485115 -0.33795261 -0.17978872
-6.4438558 -0.31193396 -0.18385535
-6.4012728 -0.31650221 -0.18651935
-6.2801533 -0.32518411 -0.19380943
-6.2016544 -0.32182944 -0.19793606
-6.124476 -0.31846595 -0.20198889
-6.044631 -0.32009894 -0.20652229
-5.9647617 -0.32671082 -0.21138863
-5.9221911 -0.32878962 -0.21388613
-5.8437042 -0.32294548 -0.21784626
-5.8024554 -0.32501549 -0.22026996
-5.7688122 -0.33210036 -0.22260617
-5.7585139 -0.33706087 -0.22350721
-5.6386046 -0.36813912 -0.2322219
-5.7595868 -0.38684118 -0.22676322
-5.8405666 -0.42254126 -0.22465339
-5.8778043 -0.43045542 -0.22311696
-6.0786815 -0.43756667 -0.21245894
-7.637536 -1.0890435 -0.16946414
-7.8146296 -1.0960544 -0.16011736
-7.9729977 -1.1001898 -0.15161681
-8.0141754 -1.1079893 -0.14985439
-8.0888119 -1.1165036 -0.14628541
-8.169939 -1.1172309 -0.14183819
-8.2085342 -1.1251581 -0.14022744
-8.4179869 -1.1966289 -0.13338064
-8.4778633 -1.1972224 -0.1301021
-8.8127432 -1.159909 -0.10905951
-8.8523474 -1.1386992 -0.10545222
-8.8911438 -1.1190921 -0.10199644
-9.1531267 -0.8056159 -0.066600546
-9.1550913 -0.64375025 -0.055711135
-9.1466942 -0.53187579 -0.048725456
-9.0951271 -0.35446686 -0.03976731
-9.0790787 -0.32435882 -0.038651392
-9.0780516 -0.28195286 -0.035883978
-9.1129799 -0.28229895 -0.033971474
-9.2628345 -0.24395414 -0.023113385
-9.4393873 -0.054252833 -0.00069527328
-9.4956169 -0.04228656 0.0032176524
-9.5754824 -0.035609886 0.0080881268
-9.6179628 -0.040856212 0.01009278
-9.9300919 -0.28782991 0.010940626
-9.9375763 -0.28790408 0.011350438
-10.017412 -0.28869516 0.015721843
-10.417137 -0.25104326 0.040380344
-10.460911 -0.22906546 0.044269875
-10.662447 0.10885872 0.077944383
-10.661318 0.12647294 0.079054937
-10.633686 0.24980067 0.085737541
-10.628929 0.32456481 0.090453342
-10.600888 0.48664862 0.099694565
-10.596205 0.56636375 0.10474418
-10.597797 0.64849538 0.11030249
-10.605515 0.72314095 0.11570169
-10.608316 0.80278504 0.12116142
-10.607487 0.88989145 0.12691687
-10.506197 1.1647494 0.13960986
-10.224586 1.2620611 0.13048543
-10.144732 1.2578403 0.1257792
-10.064914 1.2635778 0.12173824
-10.024996 1.263957 0.11955141
-10.008892 1.2690508 0.11899824
-9.9503269 1.2820392 0.1166179
-9.8455 1.2980311 0.111874
-9.7244234 1.2867465 0.10441293
-9.6458626 1.2874789 0.10010825
-9.4861622 1.2815269 0.090861961
-9.4049931 1.2673734 0.085421339
-9.2465677 1.2613953 0.076244041
-9.2066307 1.2567954 0.073724553
-9.0855732 1.25049 0.066596165
-9.0057278 1.2487588 0.062056169
-8.9660606 1.2520895 0.060079858
-8.9263029 1.2527766 0.057922438
-6.2438526 -0.39443427 -0.20043322
-6.3385811 -0.38055891 -0.19425972
-6.4436321 -0.35674417 -0.18685216
-6.4822273 -0.35718113 -0.18474253
-6.8761129 -0.62537205 -0.18077724
-6.6383338 -1.0733676 -0.22379109
-6.9561682 -0.58141834 -0.17341354
-7.0373678 -0.58957821 -0.16945735
-7.1182785 -0.59311587 -0.16520926
-7.1956654 -0.58398765 -0.16031289
-7.1974173 -0.63002944 -0.16328226
-7.1979976 -0.64620656 -0.16432753
-7.533937 -1.088371 -0.17516029
-7.5976191 -1.0886153 -0.17164761
-7.9691639 1.2660607 0.0057671219
-8.0515881 1.2752091 0.010943964
-8.131424 1.2744507 0.015317574
-7.1335278 1.3506745 -0.03490442
-7.1734443 1.3502421 -0.032721236
-11.186451 0.92422718 0.16128708
-11.186296 0.88439327 0.15862556
-3.4167616 1.2979304 -0.24438274
-3.015867 1.3866407 -0.26069015
-2.9376824 1.3929014 -0.26460579
-2.795047 1.3985009 -0.27213705
-2.7559311 1.4012067 -0.27412444
-2.7151856 1.3989549 -0.27653232
-2.6752548 1.3991818 -0.27872998
-2.635324 1.3994089 -0.28092763
-2.4723413 1.3904016 -0.29055926
-2.3142781 1.4361014 -0.29627469
-2.1944861 1.4367824 -0.30286762
-1.9940176 1.4354385 -0.31406614
-1.8334503 1.3940336 -0.32572168
-1.5970707 1.3306217 -0.34304404
-1.8733492 1.3514826 -0.32634461
-2.03385 1.3032608 -0.32066208
-2.1528325 1.3075699 -0.31378168
-2.3524857 1.3064349 -0.30279341
-2.3932316 1.3086866 -0.3003855
-2.4331625 1.3084598 -0.29818785
-2.5122087 1.305527 -0.2940028
-2.5920701 1.3050729 -0.28960752
-2.696342 1.2965337 -0.28439796
-2.7371061 1.2942017 -0.28229433
-2.7917123 1.289 -0.27961478
-2.8161285 1.2908282 -0.27813998
-2.8494098 1.2935178 -0.27611655
-2.9757445 1.2894945 -0.26938367
-2.9808404 1.2898251 -0.26907924
-3.0956354 1.2841499 -0.26309583
-3.9350233 1.2993454 -0.2155689
-3.8551583 1.294856 -0.22029364
-3.8169038 1.3008735 -0.22201274
-3.8967643 1.3003871 -0.21761966
-4.5372806 1.2549998 -0.18514816
-4.5763688 1.2468938 -0.18352199
-4.6545506 1.2381451 -0.17977217
-4.5335102 1.2420076 -0.1862224
-4.493999 1.2436944 -0.18829958
-4.4565849 1.255087 -0.18961415
-4.3759046 1.2725896 -0.19291936
-4.3351431 1.2774094 -0.19485715
-4.4137554 1.2825439 -0.19015884
-6.8516197 1.2701569 -0.055889055
-6.7332344 1.278916 -0.061866015
-6.9344187 1.3315172 -0.047214016
-7.0530324 1.3675691 -0.038239896
-7.0538754 1.2729613 -0.044494212
-7.172286 1.269181 -0.038184255
-7.2122021 1.2687485 -0.036001071
-7.2893715 1.265407 -0.03194727
-7.3319502 1.2674514 -0.029451594
-6.5735703 1.2806456 -0.070598662
-6.69063 1.2718927 -0.064694703
-8.4507866 1.2763963 0.033144757
-8.4108782 1.279265 0.031124279
-8.3284645 1.2726065 0.026113793
-8.2885561 1.2754753 0.024093315
-8.2486181 1.2708752 0.021573797
-5.9362254 1.2850678 -0.10562274
-5.9748163 1.2846416 -0.1035126
-6.01472 1.2817198 -0.10149594
-6.0940504 1.2799238 -0.097219437
-6.1357803 1.2779269 -0.095039934
-6.1456041 1.2778044 -0.094503731
-6.2941074 1.2737141 -0.086546808
-6.1703587 1.2700512 -0.093648329
-6.0519476 1.2738316 -0.099958315
-5.9708033 1.277192 -0.10423113
-5.9308872 1.2776245 -0.10641427
-5.8537178 1.2809662 -0.11046807
-5.9349003 1.2850741 -0.10569574
-6.4950504 1.2790145 -0.075058475
-6.5762458 1.285612 -0.070119619
-6.6959939 1.2843149 -0.063570142
-6.3327107 1.2757776 -0.084270149
-6.3726521 1.2803243 -0.081753954
-6.3753023 1.2803117 -0.081607953
-6.3977551 1.2800684 -0.080379933
-6.4351764 1.2796631 -0.078333214
-6.3739519 1.2753389 -0.082013994
-4.2569494 1.2737184 -0.1994361
-4.2228479 1.2880449 -0.20037165
-4.2952127 1.2776525 -0.1970537
-3.5764828 1.2969575 -0.23559655
-3.6180885 1.3024886 -0.23292258
-3.656343 1.2964712 -0.23120347
-3.6155748 1.2938273 -0.23363873
-3.5748067 1.2911832 -0.236074
-3.535712 1.2918257 -0.23819765
-5.3860416 1.2885296 -0.13588074
-5.4173036 1.2881991 -0.13417035
-5.4545574 1.2852898 -0.13229971
-5.535727 1.2869083 -0.12769388
-5.4818187 1.2799991 -0.13114136
-5.4133158 1.2857286 -0.13455588
-5.3361335 1.2865806 -0.13877621
-5.7353201 1.287236 -0.11661156
-5.6568255 1.290584 -0.12073836
-5.6155591 1.2860436 -0.12332755
-5.6128964 1.2835667 -0.12364008
-5.731307 1.2797863 -0.11733009
-5.7725606 1.2818371 -0.11490741
-7.0112839 1.2684271 -0.047156408
-6.9713678 1.2688596 -0.049339578
-6.8902111 1.2697307 -0.053778872
0 0 0 1 0 0 0 1 0 0 0 1 0 0 0 0 0 553 1 0 0
