ply
format ascii 1.0
comment PCL generated
element vertex 498
property float x
property float y
property float z
element camera 1
property float view_px
property float view_py
property float view_pz
property float x_axisx
property float x_axisy
property float x_axisz
property float y_axisx
property float y_axisy
property float y_axisz
property float z_axisx
property float z_axisy
property float z_axisz
property float focal
property float scalex
property float scaley
property float centerx
property float centery
property int viewportx
property int viewporty
property float k1
property float k2
end_header
-8.2505941 1.2684034 -3.4353685
-8.2873611 1.2697948 -3.4457021
-8.4453011 1.262659 -3.4920778
-8.4932814 1.2586981 -3.506438
-8.5554867 1.2643833 -3.5234168
-8.5923681 1.2682245 -3.533412
-8.6949959 1.255664 -3.5647469
-8.835742 1.273217 -3.6024528
-8.8471851 1.272764 -3.605803
-8.8838387 1.2717056 -3.6164751
-9.0053539 1.2705274 -3.6515026
-8.8504238 1.2926619 -3.6037183
-8.7762032 1.2751813 -3.5850801
-8.6176929 1.2700688 -3.5403955
-8.5223007 1.290239 -3.5099838
-8.4854202 1.2863979 -3.4999886
-8.4007854 1.2914174 -3.4749563
-8.3640184 1.2900259 -3.4646225
-8.2903709 1.2847935 -3.4442937
-8.2537184 1.2858518 -3.4336219
-8.2057362 1.2898128 -3.4192615
-8.1578693 1.2962234 -3.404563
-8.0360117 1.2900528 -3.3705502
-7.9146099 1.2936805 -3.3351843
-7.8521757 1.283096 -3.318882
-7.7033138 1.3068622 -3.2725909
-7.6558166 1.3206385 -3.2568829
-7.5337276 1.3096528 -3.2235332
-7.4460096 1.2998172 -3.1998663
-7.3754439 1.3095602 -3.1781533
-7.302011 1.3092973 -3.1571333
-7.2651215 1.3054909 -3.1471303
-7.1800385 1.3007615 -3.123446
-7.0591083 1.3142749 -3.0867181
-7.010684 1.3084519 -3.0737123
-6.9373665 1.3106389 -3.0523548
-6.8269281 1.3041197 -3.0216696
-6.7764473 1.3054401 -3.0069923
-6.7421923 1.30674 -2.9969716
-6.6943474 1.3131665 -2.9822772
-6.5693917 1.2921749 -2.9496205
-6.7053022 1.3029336 -2.9869685
-6.823945 1.2916638 -3.0227005
-6.9338045 1.2859334 -3.0550747
-7.0553141 1.2846695 -3.0901136
-7.1032753 1.2806928 -3.1044705
-7.1913404 1.2978783 -3.1271238
-7.2872624 1.289925 -3.1558375
-11.133112 1.3272256 -4.2531304
-11.048767 1.3394352 -4.2270923
-11.01213 1.34039 -4.2164407
-10.975384 1.3388957 -4.2061286
-10.938528 1.3349525 -4.1961555
-10.90167 1.3310093 -4.186183
-10.864815 1.3270659 -4.1762104
-10.818662 1.3203002 -4.1639986
-10.754466 1.3201343 -4.1456137
-10.680862 1.3146967 -4.1253285
-10.616558 1.3120818 -4.1072826
-10.533657 1.3038218 -4.0847588
-10.496801 1.2998785 -4.0747862
-10.460054 1.2983843 -4.0644736
-10.351351 1.250761 -4.0405111
-10.094957 1.3269595 -3.955441
-9.9325047 1.2800612 -3.9159541
-9.8111038 1.283689 -3.8805885
-9.7743368 1.2822976 -3.8702548
-9.7121315 1.2766122 -3.853276
-9.5286732 1.3510214 -3.7893934
-9.4230652 1.3245739 -3.7631116
-9.3380871 1.3222442 -3.739094
-9.2151985 1.2940265 -3.7081246
-9.1413212 1.2838948 -3.6884718
-9.0791168 1.2782093 -3.6714935
-9.1158838 1.2796009 -3.6818271
-9.2116184 1.2667794 -3.7112241
-9.2967091 1.2715589 -3.7349033
-9.3332481 1.268051 -3.7459135
-9.586113 0.98193246 -3.861764
-9.6086206 0.87743795 -3.8840437
-9.6096783 0.86941993 -3.8855615
-9.6843014 0.71141028 -3.9308925
-9.7278805 0.4290733 -3.9861491
-9.743989 0.19099301 -4.0268254
-9.7215805 0.11052381 -4.0325856
-9.7082815 0.058874205 -4.0365939
-9.7055492 -0.0019970797 -4.0450287
-9.7011681 -0.080040425 -4.0555921
-9.7979918 -0.078917071 -4.0831895
-9.9884253 -0.11609612 -4.143434
-10.005514 -0.095953189 -4.1452847
-10.011597 0.021483667 -4.1292434
-10.03446 0.12419509 -4.1202455
-10.013338 0.26122028 -4.0934358
-9.9923973 0.30377048 -4.080986
-9.7326574 0.43931445 -3.9859681
-9.7491331 0.79206532 -3.9372704
-9.7982635 0.91062713 -3.9334047
-10.079222 1.222946 -3.9666805
-10.215169 1.2344073 -4.003933
-10.251947 1.2358416 -4.0142632
-10.348074 1.232155 -4.0423889
-10.480979 1.2299025 -4.0808458
-10.554891 1.2401099 -4.1004972
-10.676155 1.2337965 -4.1362305
-10.750186 1.2464502 -4.1555452
-10.865444 1.2571045 -4.186986
-10.97121 1.2623949 -4.2165174
-11.116668 1.2338843 -4.2625504
-11.136642 1.3255373 -4.2543983
-8.0921974 1.2657406 -3.3903456
-7.9595823 1.2747209 -3.3509531
-7.8859339 1.2694886 -3.3306241
-7.8490524 1.2656475 -3.3206286
-7.8009567 1.2671587 -3.3066065
-7.6798987 1.2781357 -3.2702262
-7.6320319 1.2845464 -3.2555277
-7.5306292 1.294747 -3.2249019
-3.1319115 1.3221247 -1.9592581
-3.0219057 1.3148997 -1.9288039
-2.9853768 1.3157579 -1.918198
-2.8281991 1.3282287 -1.8712327
-2.7549319 1.3250452 -1.8507026
-2.6101832 1.3603282 -1.8038471
-2.50192 1.3729167 -1.7708921
-2.4286528 1.3697333 -1.750362
-2.3920193 1.3681415 -1.740097
-2.2587876 1.3738811 -1.7010187
-2.1738553 1.3759549 -1.676347
-2.0639541 1.3711797 -1.6455519
-1.9305124 1.3720193 -1.6071553
-1.8939836 1.3728775 -1.5965494
-1.8455322 1.3721699 -1.5827613
-1.6526375 1.4154917 -1.5208806
-1.529285 1.374324 -1.4917393
-1.4056175 1.3258063 -1.4636208
-1.2106788 1.320655 -1.4084949
-1.1375165 1.3199216 -1.3876239
-1.00439 1.3281111 -1.3482047
-0.90646958 1.3254286 -1.3205285
-0.85827565 1.3315442 -1.305781
-0.76014471 1.3239617 -1.2787867
-0.869941 1.3262869 -1.3099227
-0.91813469 1.3201712 -1.3246702
-1.0145223 1.3079401 -1.3541653
-1.1243184 1.3102652 -1.3853014
-1.2090409 1.3032914 -1.4106549
-1.25734 1.2996258 -1.4250616
-1.3805442 1.3165075 -1.4578384
-1.5005777 1.3011115 -1.4945941
-1.5741599 1.3116449 -1.5141014
-1.7325702 1.3176545 -1.5586213
-1.7444453 1.3172971 -1.5620811
-1.8176076 1.3180306 -1.582952
-1.9026453 1.3184068 -1.6072829
-1.9877882 1.3212328 -1.6312728
-2.0609505 1.3219663 -1.6521437
-2.1094594 1.3232006 -1.6658685
-2.1704314 1.3169414 -1.6843024
-2.1950843 1.3164406 -1.6914485
-2.2316129 1.3155823 -1.7020545
-2.2798069 1.3094667 -1.716802
-2.3517516 1.3026364 -1.7384692
-2.4733179 1.3021543 -1.773406
-2.5709605 1.2954293 -1.8024272
-2.6441703 1.2982681 -1.8229929
-2.7291222 1.2961239 -1.8476808
-2.7791429 1.2833494 -1.8639607
-2.8505683 1.2929465 -1.8829913
-2.9373279 1.2839861 -1.9092298
-3.02178 1.2716883 -1.935312
-3.0585332 1.275709 -1.9452435
-3.168792 1.2877713 -1.9750376
-3.205318 1.2868989 -1.9856449
-3.2288461 1.2867444 -1.9924159
-3.3148971 1.284282 -2.017467
-3.4094095 1.2906886 -2.043602
-3.4248157 1.2890044 -2.0482752
-3.4614553 1.2905787 -2.0585446
-3.5346208 1.2912806 -2.0794213
-3.811749 1.2934974 -2.1585624
-3.5311012 1.2954959 -2.0777736
-3.4960847 1.3084283 -2.0657725
-3.3746235 1.3113605 -2.0304952
-3.3384104 1.3195686 -2.0188665
-3.2532678 1.3167427 -1.9948766
-3.2051787 1.3253082 -1.9797881
-0.46818781 1.3163416 -1.1962111
-0.11619473 0.93076247 -1.1536584
-0.14721537 0.82105535 -1.1791693
-0.18216324 0.75674301 -1.1989319
-0.17724323 0.74920666 -1.1986623
-0.18257904 0.19859904 -1.2835801
-0.2179656 0.10858006 -1.3073615
-0.18117666 -0.037270356 -1.3188993
-0.14922333 -0.21700004 -1.3369548
-0.1504693 -0.25205511 -1.3426212
-0.19308186 -0.42297706 -1.3807274
-0.49924088 -0.5608086 -1.4894041
-0.73573613 -0.63030893 -1.5677536
-0.76028299 -0.63322467 -1.5752349
-0.79868746 -0.6651563 -1.5910847
-0.981071 -0.83536744 -1.669168
-1.2643163 -1.0504498 -1.7829726
-1.374217 -1.0456721 -1.8137672
-1.5559549 -1.0502739 -1.8665843
-2.0673897 -1.1631507 -2.0303521
-2.1558919 -1.0922434 -2.0449948
-2.1924961 -1.0908426 -2.0552804
-2.4122422 -1.0799887 -2.116657
-2.4853318 -1.0796368 -2.1375649
-2.6318684 -1.0715843 -2.1783702
-2.736017 -1.0498533 -2.2049477
-2.9797487 -0.73697358 -2.2274625
-2.9789224 -0.68666106 -2.2196059
-2.9729943 -0.61657709 -2.2072918
-2.9737306 -0.56446964 -2.1996117
-3.0427151 -0.40037295 -2.1945434
-3.0487964 -0.3623201 -2.1905246
-3.0511975 -0.32344601 -2.1853259
-3.0980487 -0.25652266 -2.188627
-3.1236484 -0.20002744 -2.1874127
-3.1252112 -0.19823253 -2.1875889
-3.2502 -0.15035284 -2.2161829
-3.2617526 -0.14740388 -2.2190495
-3.2982819 -0.14825763 -2.229655
-3.3357511 -0.19150358 -2.2469501
-3.619767 -0.30556813 -2.3456769
-3.6562963 -0.30642185 -2.3562825
-3.8016138 -0.30755699 -2.3981297
-3.8750904 -0.29946408 -2.4179761
-3.8987358 -0.30259687 -2.4252319
-3.9821777 -0.30839285 -2.4500396
-4.1180162 -0.30526927 -2.4885235
-4.1548591 -0.29877272 -2.4981055
-4.2285452 -0.28577957 -2.5172701
-4.2404199 -0.28612092 -2.5207274
-4.3132696 -0.29272863 -2.5426204
-4.3980989 -0.29722756 -2.5676298
-4.4335828 -0.32258236 -2.581646
-4.57092 -0.78957903 -2.6917574
-4.5734091 -0.83838159 -2.6998622
-4.7062736 -1.0453548 -2.7693117
-4.6930761 -1.0549843 -2.7669852
-4.6447763 -1.0513391 -2.7525814
-4.4788432 -1.1049044 -2.7131059
-4.4399199 -1.1066005 -2.7022002
-4.4180593 -1.1046782 -2.6956396
-4.3462858 -1.0866454 -2.6723249
-4.3160982 -1.0843672 -2.6633224
-4.2334681 -1.0901241 -2.640497
-4.1764188 -1.0825478 -2.6229885
-4.128119 -1.0789025 -2.6085846
-4.0352669 -1.0882784 -2.5833757
-3.9779379 -1.08365 -2.5662336
-3.913595 -1.0902759 -2.5487843
-3.8652949 -1.0866308 -2.5343804
-3.8414946 -1.0877988 -2.5277317
-3.767164 -1.0942113 -2.5073857
-3.6862893 -1.1189567 -2.4879394
-3.502265 -1.0460716 -2.4241254
-3.4160085 -1.0539935 -2.4005878
-3.3673952 -1.0576986 -2.3872073
-3.3309703 -1.0543948 -2.3762608
-3.1975279 -1.0536009 -2.3378708
-3.1364489 -1.0497847 -2.3197763
-3.0512018 -1.0550861 -2.2961314
-2.9659545 -1.0603876 -2.2724864
-2.8371365 -1.0879676 -2.2397199
-2.7769685 -1.0810637 -2.2214189
-2.7036402 -1.0863146 -2.2011845
-2.5066431 -1.1463417 -2.153779
-2.4817612 -1.1531196 -2.1476696
-2.4085522 -1.1559211 -2.1270986
-2.3470657 -1.1640995 -2.1107035
-2.310461 -1.1655002 -2.1004179
-2.1889255 -1.1643254 -2.0653851
-2.1405985 -1.1603491 -2.0509233
-0.44506788 1.3317562 -1.187246
-0.21596622 1.3282658 -1.1220711
-0.09205389 1.3573467 -1.0821304
-0.060334682 1.3633089 -1.0721308
0.037617207 1.360266 -1.0445002
0.13392305 1.3733306 -1.0149024
0.29560423 1.3859173 -0.96662796
0.30967426 1.381848 -0.96320915
0.31076145 1.3423499 -0.9688791
0.30966902 1.3017906 -0.97533512
0.30844212 1.29619 -0.97653508
0.29985619 1.2569861 -0.98493469
0.27770281 1.0618358 -1.0208428
0.28552103 1.0017347 -1.0277028
0.25779676 0.87505823 -1.0548384
0.26651192 0.79924572 -1.0638206
0.26541853 0.75868636 -1.0702767
0.42170191 0.46965232 -1.0692297
0.39142656 0.17959741 -1.12184
0.37511492 0.13342959 -1.13351
0.1038065 0.043622397 -1.2249188
-0.024007797 -0.34488627 -1.3204125
0.027377605 -0.71131247 -1.3611697
-0.013566494 -0.88647717 -1.3994401
-0.011044979 -0.94527686 -1.4076219
-0.075649738 -1.0591514 -1.4433956
-0.083988667 -1.0674353 -1.4470417
-0.21086264 -1.0827961 -1.4857539
-0.24115324 -1.0692527 -1.4923898
-0.47237301 -1.0778954 -1.5600096
-0.52035332 -1.0889425 -1.5754429
-0.60560155 -1.083699 -1.5990968
-0.63025451 -1.084165 -1.6062376
-0.76679015 -1.1084782 -1.6490765
-0.77845383 -1.1137686 -1.6532227
-0.80562139 -1.1158488 -1.661329
-0.81966686 -1.1119771 -1.6647708
-0.9711411 -1.0656399 -1.701194
-1.117676 -1.0592697 -1.7422538
-1.2625687 -1.0703635 -1.7854873
-1.4368176 -1.1416626 -1.8462577
-1.5025868 -1.1641619 -1.8685269
-1.5525746 -1.1286645 -1.8774868
-0.48170137 1.3333479 -1.197511
-0.51822996 1.3324897 -1.208117
-0.56673932 1.333724 -1.2218418
-0.67489719 1.3186855 -1.2551377
-0.61318994 1.3077948 -1.2390902
-0.51659203 1.3151261 -1.2102768
-11.48761 0.63228422 -4.4600425
-11.705008 0.57267797 -4.5314164
-11.753487 0.57856584 -4.5444279
-11.552151 0.17925569 -4.5471611
-11.500029 0.0018685199 -4.5590782
-11.472919 0.20486838 -4.5205593
-11.463005 0.23771611 -4.512742
-11.468477 0.36113706 -4.4956198
-11.479028 0.44126272 -4.4865103
-11.436638 0.63509381 -4.4449987
-10.849836 -1.1052674 -4.5402822
-10.886696 -1.1014374 -4.5502734
-10.889216 -1.0475326 -4.5428324
-10.886377 -1.0311784 -4.5395417
-10.800964 -0.96682793 -4.5053005
-10.708994 -0.84073788 -4.4598284
-10.88559 -0.4484725 -4.451067
-11.123231 -0.40934029 -4.5132933
-11.480109 -0.27853501 -4.5958314
-11.467434 -0.15589413 -4.5736227
-11.48901 -0.037679944 -4.5619073
-11.070724 -0.24191955 -4.4728799
-10.992719 -0.20250061 -4.4445391
-10.954845 -0.24341455 -4.4398737
-10.83333 -0.33053154 -4.4182181
-10.696926 -0.45305774 -4.397655
-10.545107 -0.60958469 -4.3778205
-10.530869 -0.61990303 -4.3752999
-10.511585 -0.68911272 -4.3802509
-10.416107 -0.96746176 -4.3950243
-10.374479 -1.0116233 -4.3897738
-10.332494 -1.0871845 -4.3891764
-10.398636 -1.0944846 -4.4092512
-10.564914 -1.1175917 -4.4604368
-10.592045 -1.1271774 -4.4696693
-10.629725 -1.1212277 -4.4795742
-7.0636616 -1.2591414 -3.4777584
-7.2584991 -1.3057439 -3.540693
-7.6646976 -1.3017619 -3.6565828
-7.749445 -1.304364 -3.6812813
-7.8645716 -1.2951157 -3.7128978
-7.9099107 -1.2576442 -3.7202253
-7.9219284 -1.2458841 -3.7218909
-8.3522167 -1.1192795 -3.8261185
-8.5613966 -1.1587363 -3.8920841
-8.6070786 -1.1628172 -3.9058032
-8.6507397 -1.1611644 -3.9180741
-8.8016205 -1.1230625 -3.955575
-8.8754997 -1.1129308 -3.9752278
-8.9855709 -1.1136541 -4.0069046
-9.1421051 -1.1201473 -4.0527802
-9.1661625 -1.1266927 -4.0606709
-9.2024708 -1.1350985 -4.0723562
-9.3017883 -1.1206387 -4.0986495
-9.4956856 -1.1435591 -4.1577282
-9.6062164 -1.1344849 -4.1880531
-9.473835 -1.1205411 -4.1479754
-9.4486256 -1.1199702 -4.1406593
-9.3273411 -1.1138614 -4.1049514
-9.1217709 -1.0953531 -4.0431933
-9.0833702 -1.0824516 -4.0302267
-9.0118141 -1.0921805 -4.011179
-8.9750481 -1.0935721 -4.0008454
-8.6898155 -0.76848203 -3.8698106
-8.4293394 -1.0891501 -3.8436732
-8.3412342 -1.1089953 -3.8214111
-8.0758953 -1.0933546 -3.7429466
-7.9768071 -1.1029156 -3.7159772
-7.8987708 -1.1040297 -3.6937661
-7.8690591 -1.1017895 -3.684906
-7.8507905 -1.1000359 -3.6794012
-7.7958703 -1.0972248 -3.6632252
-7.7105427 -1.0993536 -3.6390767
-7.6344614 -1.1149549 -3.6196201
-7.4841733 -1.1070192 -3.5753174
-7.2919664 -1.0993972 -3.5190406
-7.2441597 -1.0925983 -3.5043006
-7.0335236 -1.1283568 -3.4493084
-6.9007635 -1.12344 -3.4104896
-6.8323674 -1.1161766 -3.3897746
-6.7203197 -1.1092772 -3.3565958
-6.6582785 -1.1103116 -3.3389597
-6.6307678 -1.1113269 -3.3312237
-6.6918488 -1.1249437 -3.3508034
-6.7428637 -1.1157697 -3.3640444
-6.8274498 -1.121228 -3.3891292
-6.7642789 -0.35371321 -3.2547753
-6.8317108 -0.3554484 -3.2743769
-6.923244 -0.35439891 -3.3004684
-6.8461185 -0.34271178 -3.2765799
-6.7742562 -0.3123669 -3.251375
-6.3478556 -0.36241302 -3.1366677
-6.3341651 -0.35040322 -3.1309228
-6.2497025 -0.34249824 -3.1055026
-6.2109432 -0.33534443 -3.0933037
-6.0510759 -0.36682251 -3.052223
-5.9709992 -0.37119526 -3.0299201
-5.7638717 -0.33336878 -2.9647899
-5.7269692 -0.33715633 -2.9547803
-5.6992364 -0.34183699 -2.9475358
-5.2720628 -0.27019572 -2.814178
-5.2356429 -0.23193517 -2.7979388
-5.2116179 -0.19924378 -2.7860978
-5.2013121 -0.2413373 -2.7895169
-5.2053666 -0.30856529 -2.8008611
-5.2050543 -0.32518181 -2.8032882
-5.2200274 -0.40278697 -2.8193352
-5.2560987 -0.42851996 -2.8335772
-5.5831261 -0.67545533 -2.964762
-5.2889342 -1.0593554 -2.9385316
-5.2523003 -1.0609517 -2.9282672
-5.1175351 -1.0701288 -2.8910081
-5.1861815 -1.0980968 -2.9149308
-5.4673028 -1.1208258 -2.9989951
-5.6644287 -1.1585643 -3.0612438
-5.7261419 -1.149834 -3.0776203
-5.9127054 -1.1043377 -3.124234
-5.9916353 -1.0943598 -3.145359
-6.3275061 -1.117485 -3.2451849
-6.4488716 -1.1216024 -3.2806144
-6.511282 -1.113228 -3.2972448
-6.5367899 -1.1086409 -3.3038652
-6.3272963 -0.71454746 -3.1841011
-4.4797544 1.2870637 -2.3511124
-4.4678788 1.2874211 -2.3476527
-4.3947163 1.2866875 -2.3267817
-4.2848158 1.2819124 -2.2959867
-4.3929739 1.266874 -2.3292825
-4.4779062 1.2648 -2.3539541
-4.5145397 1.2663918 -2.3642192
-4.5877023 1.2671252 -2.3850901
-4.6245456 1.2736168 -2.3946733
-4.6860428 1.2796077 -2.4114027
-4.7707653 1.2726337 -2.4367561
-4.8807712 1.2798589 -2.4672103
-4.9422684 1.2858497 -2.4839396
-4.844348 1.2831671 -2.4562635
-4.7593098 1.282791 -2.4319327
-4.5894446 1.2869389 -2.3825893
-4.6259737 1.2860806 -2.3931952
-0.9728117 0.3352949 -1.4895067
-0.92440748 0.33651051 -1.475441
-0.91441512 0.22009364 -1.4902062
-0.92516541 0.20102191 -1.4961776
-0.92953324 0.19632155 -1.4981421
-0.97717977 0.31584492 -1.4937052
-6.0607486 1.3029966 -2.802109
-5.9265556 1.3022015 -2.7637444
-5.8173819 1.2981746 -2.7330446
-5.717782 1.2789726 -2.7073886
-5.8143988 1.2857187 -2.7340755
-5.8425517 1.286175 -2.7420805
-5.8919106 1.2815317 -2.7569392
-5.9356766 1.279555 -2.7697902
-5.9721036 1.2735616 -2.7811444
-6.0938449 1.2771977 -2.8155077
-6.118969 1.2740875 -2.823184
-6.1416898 1.270771 -2.8302023
-6.2680278 1.2745765 -2.8658583
-6.3256769 1.2800031 -2.8815694
-6.3738699 1.2809262 -2.8952508
-6.4217148 1.2744995 -2.9099455
-6.546555 1.2930413 -2.9429398
-6.4618196 1.2956617 -2.918242
-6.4142065 1.3069881 -2.9028718
-6.3407736 1.306725 -2.8818521
-6.3038836 1.3029188 -2.8718488
-6.2258854 1.3017508 -2.8496568
-5.1716771 1.262979 -2.5531948
-5.2569246 1.2682551 -2.5768437
-5.1827402 1.2659554 -2.5559168
0 0 0 1 0 0 0 1 0 0 0 1 0 0 0 0 0 498 1 0 0
