ply
format ascii 1.0
comment PCL generated
element vertex 455
property float x
property float y
property float z
element camera 1
property float view_px
property float view_py
property float view_pz
property float x_axisx
property float x_axisy
property float x_axisz
property float y_axisx
property float y_axisy
property float y_axisz
property float z_axisx
property float z_axisy
property float z_axisz
property float focal
property float scalex
property float scaley
property float centerx
property float centery
property int viewportx
property int viewporty
property float k1
property float k2
end_header
0.34324026 1.4402877 1.0531881
0.51700687 1.4027921 1.0394803
0.46410084 1.3766408 1.0343502
0.34419489 1.3617715 1.0337188
0.18472195 1.3748413 1.0410136
0.10475302 1.3743503 1.042927
-0.015048027 1.4041936 1.0533663
0.064890862 1.404101 1.0513092
0.104846 1.4037628 1.0502087
0.30451584 1.4226862 1.0498143
-0.5558033 -1.061172 0.45656615
-0.14225006 -1.1029232 0.43570289
0.17760134 -1.0930028 0.43002066
0.21761179 -1.0756894 0.43329027
0.2268405 -0.9691788 0.45943335
0.21652317 -0.88954639 0.47941723
0.21648169 -0.84729743 0.48988149
0.21618605 -0.81230009 0.49855626
0.096522331 -0.80499601 0.50341016
0.058060646 -0.79752994 0.50623786
-0.062547684 -0.84399712 0.4977991
-0.08992672 -0.86549556 0.49317157
-0.13471317 -0.90368068 0.48485449
-8.4703064 -1.1218019 0.64294624
-8.6677818 -1.1021075 0.65284872
-8.7502289 -1.1001287 0.65543675
-9.1006966 -0.82301438 0.73298365
-9.1108465 -0.74305058 0.75304538
-9.0961323 -0.58743864 0.79120904
-9.088747 -0.5404802 0.80265063
-9.011548 -0.36041719 0.84527969
-8.9966469 -0.34195513 0.84947276
-9.1871529 -0.032432526 0.93097526
-9.1075954 0.17516893 0.98036438
-9.1450968 0.19577008 0.98642063
-9.1925793 0.19482797 0.98739558
-9.2325706 0.19509447 0.9884792
-9.2725658 0.19651151 0.9898479
-9.5124989 0.20236236 0.99740231
-9.5923777 0.17620599 0.99295712
-9.6323175 0.17146331 0.99279892
-9.7472706 0.16350293 0.99375266
-9.7522659 0.16288906 0.99372768
-9.6894979 -0.036318272 0.94279581
-9.8713789 -0.34843472 0.87012678
-10.053768 -0.38786107 0.86500376
-10.043724 -0.39695677 0.8624956
-9.98629 -0.38733914 0.86341596
-9.751174 -0.45102602 0.84166074
-9.5907335 -0.68009239 0.78084868
-9.9299259 -1.1000816 0.68546742
-9.9898825 -1.1076182 0.6851266
-10.029832 -1.1123846 0.68496275
-10.209793 -1.1114197 0.68978107
-10.329747 -1.1170636 0.69143569
-10.489707 -1.1135849 0.69636762
-10.850332 -0.6794436 0.81306154
-10.552025 -1.1533771 0.68809867
-10.356657 -1.1465399 0.68482053
-10.196717 -1.1382611 0.68280089
-10.156729 -1.1379601 0.68185794
-10.116749 -1.1329427 0.68208319
-10.029695 -1.1375458 0.67872798
-9.9932518 -1.1384593 0.67757434
-9.9532633 -1.1381398 0.67663592
-9.9132767 -1.1378205 0.67569751
-9.8732891 -1.137501 0.67475909
-9.829752 -1.1383572 0.6734392
-9.7098522 -1.1188245 0.67522556
-9.593421 -1.1099167 0.67446887
-9.3849382 -1.1066206 0.66998005
-9.3534851 -1.1144931 0.66723001
-9.2734966 -1.1209249 0.6636017
-9.1935301 -1.1155722 0.66289246
-9.113555 -1.1149333 0.66101563
-9.0735626 -1.1169708 0.65949339
-8.8031731 -1.3385346 0.5977416
-8.7530775 -1.4083571 0.57917488
-8.673069 -1.412917 0.57600969
-8.4298191 -1.3301864 0.59030855
-8.3084583 -1.2876287 0.59775996
-8.1335115 -1.2862313 0.59365427
-8.0074911 -1.2937784 0.58857846
-7.9100447 -1.288438 0.58742136
-7.8700991 -1.2908747 0.58580136
-7.5365891 -1.2814794 0.57964164
-7.4105239 -1.2076757 0.59471154
-7.2171845 -1.102442 0.61585343
-7.1372089 -1.1017305 0.6139946
-7.2908144 -1.0679033 0.62628073
-7.510675 -1.0719352 0.6308769
-7.570724 -1.0723941 0.63229126
-7.6106606 -1.0842149 0.63037997
-7.6780872 -1.0944519 0.62956047
-7.7505765 -1.0927193 0.63183421
-7.7580624 -1.0950706 0.63144237
-7.8703594 -1.1208429 0.62791729
-7.9902859 -1.1429925 0.62548351
-8.0738077 -1.1419812 0.62785929
-8.1502762 -1.1397727 0.63035214
-8.1902866 -1.1450567 0.63006163
-8.3103008 -1.1344535 0.63574147
-8.3902845 -1.1303563 0.63879144
-1.5568023 -1.0595666 0.48243555
-1.5965109 -1.0491755 0.48601943
-1.7562876 -1.0436702 0.49144858
-1.8037744 -1.0461178 0.49205077
-1.836267 -1.048537 0.49227846
-1.8762527 -1.048613 0.49327716
-1.9162383 -1.0486887 0.4942759
-1.9960661 -1.0443487 0.49738201
-2.0736763 -1.0466297 0.49879202
-2.1161568 -1.0443528 0.5004369
-2.1561465 -1.0467861 0.50085187
-2.1961319 -1.0468619 0.50185061
-2.2361174 -1.0469377 0.50284928
-2.315521 -1.0357705 0.50763541
-2.635376 -0.80259848 0.57352078
-2.4935317 -0.45179173 0.65679049
-2.4338758 -0.40423983 0.66704893
-2.3537941 -0.34513795 0.67964798
-2.3533695 -0.33834067 0.68132061
-2.3933418 -0.33133793 0.68407202
-2.4670415 -0.31108129 0.69096404
-2.5524392 -0.32039028 0.69083166
-2.6560655 -0.30008289 0.69849783
-2.7527952 -0.32990676 0.69357324
-2.8176389 -0.34104711 0.69246429
-3.0288424 -0.31288454 0.70481324
-3.0563269 -0.30824628 0.70666134
-3.0966988 -0.30143484 0.7093755
-3.1758535 -0.28016001 0.71665853
-3.2553856 -0.24492171 0.7274093
-3.5357487 0.015188843 0.79896122
-3.5432341 0.024579167 0.80147725
-3.6299365 0.0058509111 0.79904538
-3.9360244 -0.31976262 0.72619438
-3.9560585 -0.35273945 0.71853727
-4.5354996 -0.3093279 0.74403304
-4.5453939 -0.30696258 0.7448706
-4.5378041 -0.58978599 0.67463481
-4.5145035 -0.6366207 0.66244304
-4.8581934 -1.0540546 0.56780905
-5.1719484 -0.70691013 0.6617651
-5.1779785 -0.65982318 0.67357987
-5.2124853 -0.39820042 0.73925012
-5.2125015 -0.39176694 0.74084383
-5.2525625 -0.36640632 0.74814391
-5.4201188 -0.36143211 0.75363952
-5.4926052 -0.33576936 0.76183951
-5.8129196 -0.057307303 0.8389529
-6.0930748 0.010206372 0.86280197
-6.1256418 0.037982255 0.87050951
-6.1731548 0.075626373 0.88104129
-6.2057753 0.09412986 0.88645387
-6.2132812 0.098787725 0.88779843
-6.2532048 0.08286953 0.88487208
-6.2756596 0.07524246 0.88355458
-6.2730622 0.056273997 0.87879086
-6.2679567 0.0094231069 0.86705804
-6.2753344 -0.066096097 0.84854311
-6.4124575 -0.29852092 0.7944712
-6.7319999 -0.42456824 0.77138615
-6.8920879 -0.36003241 0.79144239
-6.939569 -0.36275241 0.79197705
-7.2045822 -0.34645498 0.80275679
-7.2920027 -0.38013613 0.79663998
-7.3318973 -0.40175596 0.79230094
-7.2918391 -0.42175907 0.78632772
-7.151897 -0.41125995 0.78536683
-6.9319348 -0.42844978 0.77551246
-6.7317719 -0.56841779 0.73575526
-6.9709125 -1.0654658 0.61874402
-7.0972281 -1.0990169 0.61364919
-7.0172529 -1.0983053 0.61179036
-6.9707279 -1.0997393 0.61025131
-6.9307365 -1.1017929 0.60872513
-6.8573093 -1.0945245 0.6086567
-6.8507719 -1.0941089 0.60859329
-6.7708688 -1.0893328 0.60774285
-6.7373533 -1.0910995 0.60645247
-6.6973591 -1.0931014 0.60493898
-6.6508265 -1.097302 0.60271466
-6.6173906 -1.0900321 0.60366422
-6.5308781 -1.0869552 0.60222483
-6.4974279 -1.0889647 0.60087597
-6.4508915 -1.0934205 0.59858829
-6.3774652 -1.0878973 0.59808767
-6.3309398 -1.0854318 0.59751439
-5.8511395 -1.1222545 0.57618588
-5.6911325 -1.1450527 0.56646818
-5.6111131 -1.1512431 0.56289887
-5.4911904 -1.1572435 0.55836129
-5.3311524 -1.1582682 0.55403507
-5.2975621 -1.1655247 0.55138326
-5.2511263 -1.1691751 0.54929757
-5.1797976 -1.1659641 0.54827774
-5.171155 -1.1662076 0.54799753
-5.139812 -1.1658683 0.54728401
-5.0998263 -1.1657724 0.54629022
-5.0911794 -1.1655982 0.54611337
-4.8596206 -1.0898571 0.55897874
-4.739666 -1.0919216 0.55541503
-4.6188955 -1.0725198 0.55714679
-4.5395308 -1.0843118 0.55220687
-4.4997516 -1.0913467 0.54945242
-4.3795853 -1.0815763 0.5488143
-4.2194357 -1.0740626 0.54659992
-4.1796536 -1.0787454 0.54442787
-4.0598974 -1.0808845 0.54085076
-3.7800884 -1.1531277 0.51583922
-3.7798903 -1.153053 0.51585269
-3.6992941 -1.1267655 0.52031207
-3.6112061 -1.1051637 0.52342033
-3.27775 -1.1378115 0.50684965
-3.2202938 -1.1564903 0.50076175
-3.1399159 -1.1467415 0.50113076
-3.0597405 -1.1417711 0.50032151
-2.9003844 -1.1369071 0.49747109
-2.877893 -1.1368533 0.49691209
-2.7787998 -1.0983908 0.50391597
-2.6366999 -1.0685315 0.50769484
-2.556309 -1.0639479 0.50678432
-2.4367726 -1.0681705 0.50269681
-2.2771246 -1.1420641 0.48033422
-2.0362113 -1.0583465 0.49493691
-1.9566488 -1.0556097 0.49359015
-1.916667 -1.0578914 0.49200767
-1.8366961 -1.0577399 0.49001026
-1.7967019 -1.0529487 0.49017909
-1.6768255 -1.0575049 0.48600033
-1.6367688 -1.0573606 0.48501673
-10.8917 0.025638252 0.98873132
-10.609554 0.063807845 0.99100465
-10.891214 -0.22920646 0.92560536
-10.964006 -0.09307912 0.96117032
-10.991515 -0.064737499 0.96888924
-10.971533 -0.037175149 0.97520673
-10.944141 -0.017469794 0.97938985
-9.7143383 1.2610056 1.2647167
-9.7943239 1.2483757 1.2636242
-9.8743076 1.2524729 1.2666743
-9.9318552 1.2707818 1.2726729
-10.171788 1.2843925 1.2821491
-10.211769 1.2772864 1.2814066
-10.331759 1.294974 1.2888403
-10.251783 1.2955785 1.2869549
-10.171798 1.2870213 1.2828003
-9.9543381 1.2830776 1.2762902
-9.9318781 1.2870179 1.2766945
-9.91436 1.2898836 1.2769583
-9.7545128 1.2975168 1.2747812
-9.67453 1.2934196 1.2717313
-9.5945663 1.3011097 1.271601
-9.5545521 1.3040009 1.2712988
-9.4746227 1.3138236 1.2716975
-9.4346418 1.3152829 1.2710416
-9.2346821 1.3062468 1.2637155
-9.1946974 1.3089132 1.2633584
-9.1147108 1.3024584 1.2597244
-9.034688 1.2938712 1.2555615
-8.9147291 1.2971551 1.2533222
-8.7947617 1.2957242 1.2499151
-8.7148342 1.3055469 1.2503139
-8.5948114 1.2901961 1.243458
-8.474844 1.2887651 1.2400509
-8.4348221 1.2869414 1.2385808
-8.2748241 1.2789717 1.2325357
-8.1548061 1.2659783 1.2262639
-8.0347958 1.2577 1.2211598
-8.1147718 1.2570822 1.223042
-8.2347298 1.2537981 1.2252811
-8.2747259 1.2582042 1.2273901
-8.3547449 1.264434 1.2309691
-8.3947363 1.2664826 1.2324941
-8.4747076 1.2635075 1.2337923
-8.5546436 1.2583997 1.2345614
-8.6346235 1.2601395 1.2370274
-8.6746073 1.2574732 1.2373846
-8.7545862 1.259213 1.2398506
-8.8745966 1.2674915 1.2449546
-8.954525 1.2576687 1.2445558
-8.9945087 1.2550025 1.244913
-9.0744963 1.2614571 1.248547
-9.1144876 1.2635058 1.2500719
-9.2344513 1.2625792 1.2528951
-9.3144264 1.2619616 1.2547772
-9.354414 1.2616526 1.2557182
-9.5144234 1.2766947 1.2635151
-9.5544071 1.2740284 1.2638721
-11.078499 0.97024298 1.2274208
-11.083431 0.93247497 1.2181929
-11.08341 0.93139255 1.2179244
-11.078335 0.88453829 1.2061915
-11.080746 0.82846558 1.1923661
-11.080668 0.78157353 1.1807511
-11.078093 0.73470044 1.1690772
-11.062899 0.62162352 1.1406865
-11.060389 0.61248052 1.1383584
-10.930325 0.55450964 1.1206919
-10.930447 0.62942863 1.1392491
-10.93047 0.64896524 1.144088
-10.930472 0.6501106 1.1443717
-10.930477 0.65354621 1.1452227
-10.938322 0.85702825 1.1958157
-10.641564 1.2274154 1.2799926
-10.371758 1.301746 1.2915353
-10.571759 1.326986 1.3028754
-10.661635 1.2741563 1.2920789
-10.731544 1.2314515 1.2832818
-10.771507 1.2170006 1.2807198
-10.971357 1.1729388 1.274893
-11.011307 1.148618 1.2698865
-11.033756 1.1204209 1.2634746
-11.051182 1.0781128 1.2534403
-11.066102 1.0355531 1.2432798
-11.068581 1.0172105 1.2388002
-7.0152125 1.2702872 1.1983324
-7.2151585 1.2734566 1.2042053
-7.2551899 1.2799623 1.206835
-7.3751526 1.2790344 1.2096579
-7.4951587 1.2849215 1.2141696
-7.5151281 1.2891051 1.2157137
-7.4151912 1.290256 1.2134558
-7.2952242 1.2888261 1.2100489
-7.1352777 1.2924212 1.2068692
-7.015286 1.2768434 1.199958
-6.8953514 1.2942772 1.2012236
-6.7753844 1.292847 1.1978167
-6.6554298 1.298491 1.1961621
-6.5753517 1.2760476 1.1885662
-6.415452 1.2888157 1.1876594
-6.3355241 1.2986075 1.1880505
-6.2155609 1.2995355 1.1852276
-6.1755257 1.2906717 1.1820138
-6.0156264 1.30344 1.181107
-5.8556247 1.2931463 1.1744863
-5.703155 1.2848936 1.1685627
-5.6931581 1.2849709 1.1683275
-5.6556578 1.278187 1.1656932
-5.4957662 1.2956712 1.1659546
-5.3757558 1.2874261 1.1608588
-5.3357806 1.2948092 1.16167
-5.2957888 1.2927607 1.160145
-5.1758852 1.3099356 1.1613474
-5.1649151 1.3140124 1.1620779
-5.0840821 1.3348652 1.1651852
-4.9250064 1.3121141 1.1555029
-5.0957212 1.273862 1.1503737
-5.1756883 1.2685274 1.1510874
-5.2556605 1.2625548 1.1516433
-5.2956452 1.2616723 1.1524422
-5.3356128 1.2573496 1.1523887
-5.4505916 1.2593271 1.1558042
-5.5755882 1.2604597 1.1592654
-5.6630735 1.2668568 1.1630759
-5.6955514 1.2643123 1.1632721
-5.7342544 1.2571329 1.1624789
-5.7755041 1.2638878 1.1652015
-5.8954625 1.2606019 1.1674402
-6.0154729 1.268847 1.172536
-6.0554647 1.2708956 1.1740611
-6.1353927 1.261104 1.1736699
-6.1753888 1.2655106 1.175779
-6.2553601 1.2625339 1.1770768
-6.3353786 1.2687304 1.1806476
-6.4153066 1.2589388 1.1802565
-6.5352659 1.2556528 1.1824952
-6.6152411 1.2550342 1.1843772
-6.6952167 1.2544155 1.186259
-6.8151875 1.2582036 1.1902499
-6.8552222 1.2670672 1.1934638
-6.8952494 1.2712151 1.1955097
-6.9752164 1.2658806 1.1962234
-3.564651 1.3283454 1.1249065
-3.684603 1.3304735 1.1284859
-3.8045638 1.3278854 1.1308975
-3.8845346 1.3277322 1.1328946
-3.96451 1.3252208 1.1343077
-4.1244516 1.3249143 1.1383017
-4.2048473 1.3179483 1.1386224
-4.2843814 1.3316821 1.1440475
-4.4047623 1.3246393 1.1453665
-4.4843044 1.3336569 1.1496239
-4.5247102 1.3291255 1.1495298
-4.6842237 1.3379897 1.1557841
-4.7646232 1.3286657 1.1555209
-4.844594 1.3285123 1.1575179
-3.6859062 1.2935289 1.1193696
-3.765873 1.2957337 1.1219505
-3.8054378 1.3001117 1.1240416
-3.9258189 1.293069 1.1253606
-3.9658046 1.2929924 1.1263591
-4.0457716 1.2951971 1.12894
-4.1257381 1.297402 1.131521
-4.2061419 1.2857198 1.1306738
-4.2856722 1.3018116 1.1366827
-4.4056201 1.3062978 1.140846
-4.5264463 1.2806522 1.1375693
-4.6450996 1.3173667 1.1496811
-4.765481 1.3103242 1.1510003
-4.8054667 1.3102474 1.1519988
-4.8854418 1.3077362 1.1534119
-2.5850146 1.3255062 1.0992752
-2.4254978 1.319 1.0936048
-2.3459554 1.3099825 1.0893476
-2.1851475 1.3333467 1.0910418
-2.1051767 1.3335001 1.0890448
-1.8265605 1.3088822 1.0758584
-1.7870002 1.3021463 1.0731835
-1.6266332 1.3092656 1.0708659
-1.7865753 1.3089589 1.0748599
-0.82653236 1.2987465 1.0479012
-0.94690943 1.2940619 1.0498041
-0.86694241 1.291857 1.0472231
-0.74698591 1.2920871 1.0442277
-0.66701508 1.2922404 1.0422307
-0.50749826 1.2857343 1.0365603
-0.055003166 1.4045321 1.0544668
-0.38857126 1.036974 0.97192729
-0.34897614 0.94700146 0.9486376
-0.34933329 0.87581694 0.93101746
-0.51028872 0.63595259 0.87570953
-0.51146698 0.91839325 0.94568741
-1.2663474 1.3120519 1.0623879
-1.3467474 1.3027279 1.0621247
-1.3867331 1.3026512 1.0631232
-1.4662704 1.3140267 1.0679643
-1.5062566 1.3139502 1.0689628
-1.3854465 1.3301636 1.0699041
-1.5453715 1.3392893 1.0762336
-2.2664132 1.3009652 1.0850903
-2.346384 1.3008118 1.0870873
-2.4267838 1.2914877 1.0868239
-2.6467168 1.2839928 1.0905644
-2.7466803 1.2838005 1.0930605
-2.7666733 1.2837627 1.0935597
-2.8866212 1.2882489 1.0977231
-3.0061615 1.2901156 1.1012273
-3.2464991 1.282843 1.1055419
-3.4055748 1.3055942 1.1152242
-3.2452083 1.3127134 1.1129066
-2.6449931 1.3253919 1.1007732
-2.7449651 1.3204836 1.1021016
-2.9653225 1.3061757 1.1041654
-3.4455605 1.3055176 1.1162227
-3.5659416 1.2984749 1.1175419
-3.645921 1.2936056 1.1183711
-1.0664287 1.307719 1.0562277
-1.1459746 1.3143784 1.059901
-1.1064219 1.3029262 1.0560584
-0.98690319 1.2892691 1.0496348
-2.1864338 1.3058344 1.0842611
-2.1464443 1.3082693 1.0838464
-2.1056013 1.3266873 1.0873685
0 0 0 1 0 0 0 1 0 0 0 1 0 0 0 0 0 455 1 0 0
