ply
format ascii 1.0
comment PCL generated
element vertex 517
property float x
property float y
property float z
element camera 1
property float view_px
property float view_py
property float view_pz
property float x_axisx
property float x_axisy
property float x_axisz
property float y_axisx
property float y_axisy
property float y_axisz
property float z_axisx
property float z_axisy
property float z_axisz
property float focal
property float scalex
property float scaley
property float centerx
property float centery
property int viewportx
property int viewporty
property float k1
property float k2
end_header
-10.833693 1.1268245 -0.9226681
-10.80723 1.1739066 -0.91884512
-10.805145 1.1735961 -0.91879761
-10.480227 1.2454423 -0.90380299
-10.446621 1.2697867 -0.9011848
-10.408879 1.2651253 -0.90026385
-10.287043 1.2803701 -0.8953793
-10.25606 1.2861668 -0.89401597
-10.199862 1.2956539 -0.891608
-10.180199 1.2980475 -0.8908239
-10.132002 1.3012465 -0.88907027
-10.085509 1.3108697 -0.88696623
-10.045616 1.3135155 -0.88551486
-9.9657812 1.3138256 -0.88292497
-9.9502525 1.311745 -0.88255632
-9.8260574 1.3118801 -0.87854928
-9.7462921 1.3196625 -0.87549007
-9.6264267 1.3076737 -0.87238747
-9.5909538 1.3081588 -0.87121481
-9.4645596 1.3106196 -0.86699021
-9.4068146 1.3010541 -0.8657347
-9.3347607 1.3036512 -0.86325103
-9.2293854 1.299426 -0.86012506
-9.2025347 1.3041648 -0.85896152
-9.1626177 1.3043197 -0.85766661
-9.1473532 1.3020618 -0.85731763
-9.0353823 1.3048139 -0.85353899
-9.012929 1.3049012 -0.85281062
-8.9090881 1.3016839 -0.84967041
-8.8950806 1.3007245 -0.84928
-8.8295279 1.3017032 -0.84710771
-8.7106009 1.3012962 -0.84330451
-8.6709595 1.3011605 -0.84203678
-8.6502914 1.299358 -0.84148514
-8.428731 1.2923987 -0.834791
-8.3044453 1.2825705 -0.83140975
-8.1891823 1.2883474 -0.82733428
-8.1093941 1.2936389 -0.8244316
-7.9916821 1.2743429 -0.82185942
-7.9120526 1.2670059 -0.81975871
-7.899579 1.2670543 -0.81935406
-7.7876306 1.2722971 -0.81541896
-7.7077966 1.2726072 -0.81282914
-7.6704359 1.2748317 -0.81148589
-7.630517 1.2750397 -0.81018758
-7.5924206 1.2659302 -0.80953586
-7.2291493 1.2769752 -0.79714322
-7.5926242 1.1445571 -0.81720144
-7.6327286 1.0710925 -0.82312846
-7.6702423 1.0483232 -0.825773
-7.7482476 1.0882992 -0.82576185
-7.9086461 1.1673841 -0.82593542
-8.1448002 1.2705915 -0.82702583
-8.2249088 1.2699907 -0.82964289
-8.3031473 1.2608523 -0.83273846
-8.3907623 1.2628292 -0.8354345
-8.5105133 1.2623643 -0.83931935
-8.5880117 1.2494351 -0.84263027
-8.6656923 1.2564325 -0.84468967
-8.7100525 1.2566075 -0.84610683
-8.7898645 1.2538066 -0.84885317
-8.8275833 1.2559772 -0.84993058
-8.8997059 1.2608526 -0.85194492
-8.9872284 1.2528663 -0.85526675
-9.0293217 1.2478948 -0.85693568
-9.0648632 1.254882 -0.85763901
-9.1469193 1.254737 -0.86028999
-9.2336693 1.2823206 -0.86134237
-9.3047085 1.2913135 -0.86306202
-9.353673 1.2941641 -0.86445856
-9.3635149 1.2942706 -0.86476874
-9.4258862 1.2940284 -0.86679202
-9.4734249 1.2936989 -0.86834335
-9.5122423 1.2947067 -0.86952955
-9.5628042 1.2911794 -0.87137997
-9.6603985 1.2931175 -0.87439978
-9.6736975 1.292197 -0.87488604
-9.6906319 1.2953173 -0.87523437
-9.8304558 1.3072286 -0.87898439
-9.8703041 1.2996012 -0.88074863
-9.9745312 1.2995409 -0.88410807
-10.039611 1.2916447 -0.88670164
-10.207254 1.2856617 -0.89247656
-10.249279 1.2732178 -0.89461482
-10.291418 1.2732277 -0.89597082
-10.497553 1.1703013 -0.90910244
-10.534707 1.1249446 -0.91316074
-10.763361 0.8940565 -0.93509209
-10.783669 0.81050426 -0.94101834
-10.813174 0.88343567 -0.93736607
-10.812165 0.9247418 -0.93472701
-10.832668 1.0448034 -0.92781091
-10.802912 -0.3745386 -1.0164175
-10.814572 -0.29719317 -1.0119122
-10.805391 -0.25513113 -1.0089624
-10.728295 -0.016287148 -0.99140853
-10.727699 -0.0055972189 -0.99071479
-10.728588 0.091543391 -0.98461354
-10.728701 0.10400434 -0.98383081
-10.731741 0.16377346 -0.98015714
-10.600393 0.38261217 -0.96211892
-10.602382 0.49368 -0.95517421
-10.59783 0.37514955 -0.96250731
-10.599505 0.25529146 -0.97012466
-10.627371 0.1488793 -0.97773671
-10.633534 0.064512983 -0.9832589
-10.630971 0.026986197 -0.98554444
-10.622826 -0.015153363 -0.98794132
-10.566047 -0.22167534 -0.99914545
-10.561535 -0.22947775 -0.99949253
-10.561171 -0.26933029 -1.0019957
-10.790955 -0.45420015 -1.0210595
-10.801071 -0.46935833 -1.0223417
-10.805719 -0.44661123 -1.0210559
0.57158566 0.58480185 -0.5896731
0.57519913 0.42807275 -0.59944683
0.57387304 0.40412551 -0.60100067
0.5556922 0.50617075 -0.59514666
0.53536606 0.16686483 -0.61721224
0.57236624 0.24207433 -0.61127508
0.57340908 0.30584764 -0.60721719
-3.9006588 -1.2652092 -0.85040027
-4.0628476 -1.2705275 -0.85595757
-4.1520214 -1.2602695 -0.8581813
-4.3486681 -1.2574537 -0.8643347
-4.5021982 -1.1935904 -0.86524773
-4.5926933 -1.184706 -0.86760062
-4.6325846 -1.1847264 -0.86888623
-4.8666267 -1.1818452 -0.87623954
-4.9858856 -1.216583 -0.88227117
-5.025835 -1.23171 -0.88451195
-5.166647 -1.2065933 -0.88746047
-5.2254143 -1.214389 -0.88984448
-5.3462839 -1.2075109 -0.8933019
-5.4861827 -1.1907902 -0.89675087
-5.5660729 -1.1862168 -0.89903438
-5.7456131 -1.1345453 -0.90155417
-5.7716379 -1.1358531 -0.90247452
-5.7905226 -1.1347747 -0.90301448
-5.9742527 -1.1603388 -0.91054296
-6.0940108 -1.1609505 -0.91443723
-6.1317806 -1.1587939 -0.91551715
-6.1738758 -1.1588677 -0.91687709
-6.2936077 -1.1619701 -0.92092764
-6.331377 -1.1598135 -0.92200756
-6.3335533 -1.1596835 -0.92206943
-6.5317478 -1.0861139 -0.92380798
-6.6472321 -1.0795139 -0.92710954
-6.3197627 -0.65689999 -0.8898983
-6.3084402 -0.33567324 -0.86926341
-6.3117609 -0.25598538 -0.8643418
-6.3336978 -0.17492415 -0.85993284
-6.3482738 -0.13426512 -0.85783643
-6.2943254 -0.13501745 -0.85614705
-6.2522559 -0.13245296 -0.85463077
-6.1316724 -0.21154177 -0.85573924
-6.0913401 -0.25118813 -0.85694253
-5.9753451 -0.63507307 -0.87743229
-5.9357314 -0.65787506 -0.87759578
-5.9148211 -0.69703329 -0.87939358
-5.6469693 -1.0845083 -0.89522076
-5.5671558 -1.0816097 -0.89246821
-5.529387 -1.0837663 -0.89138836
-5.4873176 -1.0812018 -0.88987207
-5.4118562 -1.0780432 -0.88724321
-5.289948 -1.0750709 -0.88313079
-5.1492519 -1.0801926 -0.87892419
-5.1067715 -1.0699577 -0.87691069
-5.0296144 -1.0751526 -0.87475437
-4.9471898 -1.0723646 -0.87192476
-4.9020128 -1.0668504 -0.87012231
-4.8646402 -1.0870005 -0.87019062
-4.5509057 -1.0773951 -0.8594836
-4.5110145 -1.0773746 -0.85819799
-4.3885746 -1.0919899 -0.8551783
-4.3115244 -1.08225 -0.85208297
-4.1907363 -1.0985821 -0.84922481
-4.1067133 -1.0866101 -0.84576416
-4.0218763 -1.0487164 -0.84064156
-3.9420943 -1.0486754 -0.83807039
-3.900948 -1.0498987 -0.83682287
-3.790406 -1.0643011 -0.83417273
-3.7106066 -1.0667492 -0.83175802
-3.6255744 -1.056236 -0.82835698
-3.5405424 -1.045723 -0.82495588
-3.4208517 -1.0481504 -0.82125556
-3.3037689 -1.058303 -0.81812674
-3.26386 -1.0607716 -0.81699759
-3.1388659 -1.0601945 -0.81293696
-3.0192289 -1.0551546 -0.80876714
-2.97932 -1.0576231 -0.80763805
-2.9074845 -1.0633335 -0.80568558
-2.7998865 -1.0511158 -0.80145043
-2.7599969 -1.0511122 -0.80016595
-2.7573135 -1.0512307 -0.80008703
-2.7174091 -1.0537179 -0.79895926
-2.595057 -1.0538256 -0.79502684
-2.4780414 -1.0586776 -0.79156566
-2.4009457 -1.0585518 -0.78907561
-2.1589406 -1.0561583 -0.78113306
-2.0392871 -1.0536568 -0.77712291
-1.8398395 -1.0536389 -0.77070051
-1.8371563 -1.0537574 -0.7706216
-1.635056 -1.048877 -0.76380694
-1.5206933 -1.0585915 -0.76073796
-1.480804 -1.0585878 -0.75945348
-1.3983564 -1.0562087 -0.7566489
-1.3611345 -1.0585771 -0.75559998
-1.2414513 -1.061057 -0.75190318
-1.2042298 -1.0634254 -0.75085431
-1.1217823 -1.0610462 -0.74804974
-1.2410097 -1.1332854 -0.75644684
-1.3207736 -1.1357832 -0.7591725
-1.4032207 -1.1381624 -0.76197702
-1.4404421 -1.1357939 -0.76302594
-1.477664 -1.1334255 -0.76407486
-1.5148849 -1.1310571 -0.76512372
-1.6053362 -1.1405523 -0.76863503
-1.6797791 -1.1358155 -0.77073288
-1.7196684 -1.1358191 -0.77201736
-1.7595577 -1.1358227 -0.77330184
-1.8393369 -1.1358299 -0.7758708
-1.9590054 -1.1358405 -0.7797243
-1.9988952 -1.1358442 -0.78100878
-2.0786741 -1.1358514 -0.78357774
-2.1265678 -1.142971 -0.78556895
-2.1637893 -1.1406026 -0.78661788
-2.275454 -1.1334972 -0.78976464
-2.4829051 -1.1406313 -0.79689378
-2.6371274 -1.1359016 -0.80156058
-2.7100515 -1.1530972 -0.80499351
-2.8297243 -1.1531588 -0.80885029
-2.9493968 -1.1532204 -0.81270713
-2.9892879 -1.1532409 -0.81399274
-3.0690696 -1.153282 -0.8165639
-3.1063175 -1.1505557 -0.81759107
-3.1462088 -1.1505764 -0.81887668
-3.2312763 -1.1561111 -0.82196474
-3.2685242 -1.1533849 -0.82299197
-3.3084152 -1.1534054 -0.82427752
-3.3456633 -1.150679 -0.82530475
-3.4281058 -1.150978 -0.82797784
-3.5871725 -1.2207558 -0.8375023
-3.6269743 -1.2332221 -0.8395704
-3.749006 -1.2758566 -0.84618962
-3.8633931 -1.2704246 -0.84952956
-6.1825533 1.2818041 -0.76314282
-6.3044839 1.281325 -0.76709867
-6.4306536 1.2711736 -0.77180135
-6.2709489 1.2695152 -0.76676428
-6.1911621 1.2749126 -0.76385486
-6.1889906 1.2747675 -0.76379412
-6.0692573 1.2778823 -0.75974268
-6.0271664 1.2779452 -0.75838357
-5.9451299 1.2757255 -0.75588244
-6.0228753 1.2826363 -0.75794941
-6.0627947 1.2824283 -0.75924778
-3.7913275 1.304409 -0.68472975
-3.4720581 1.2846605 -0.67569697
-3.7939529 1.2991731 -0.68514472
-3.8737702 1.3041103 -0.6874029
-3.916286 1.2988536 -0.68910342
-3.9934075 1.2990704 -0.69157273
-3.9482484 1.3070736 -0.68961376
-3.9057148 1.3098412 -0.68806976
0.25328445 1.355324 -0.55129874
0.33311987 1.3478978 -0.54919696
0.31302404 1.3451419 -0.55001789
-0.06323576 1.3628846 -0.56101215
0.088256836 1.3746394 -0.55539298
0.16818094 1.3547674 -0.55407381
-0.031273365 1.3546647 -0.56050181
-0.068450451 1.3474344 -0.56215501
-0.09057188 1.3504249 -0.56267846
-0.17798328 1.3476343 -0.56566882
-0.18678427 1.346257 -0.56603909
-0.18475533 1.3884866 -0.56330895
-9.6893816 -1.1665071 -1.0305425
-9.8710003 -1.189617 -1.0378481
-9.9087372 -1.1873732 -1.0389215
-10.031956 -1.1715865 -1.0418923
-10.069692 -1.1693425 -1.0429657
-10.091717 -1.1619042 -1.0432054
-10.236325 -1.112301 -1.044731
-10.480227 -1.1178827 -1.0529357
-10.55793 -1.1083946 -1.0548388
-10.471454 -1.106089 -1.0519091
-10.231928 -1.1076494 -1.0442959
-10.152117 -1.1048485 -1.0415497
-10.066998 -1.1059489 -1.0388787
-9.7705851 -0.93498051 -1.0185468
-9.7714005 -0.48461735 -0.99015391
-9.7915516 -0.46477944 -0.98955083
-9.8141985 -0.44495225 -0.98902881
-9.8467035 -0.40764886 -0.98772132
-9.8323603 -0.37280419 -0.98506075
-9.8074837 -0.36522573 -0.98378164
-9.7527409 -0.35004747 -0.98106134
-9.7128468 -0.34738564 -0.97960901
-9.6750622 -0.3546105 -0.9788484
-9.5133057 -0.34154803 -0.97281629
-9.4358196 -0.32618749 -0.96935225
-9.3981552 -0.32096007 -0.9678098
-9.2763157 -0.30806896 -0.96307367
-9.2387238 -0.29537022 -0.96106201
-9.1989737 -0.27776572 -0.95867139
-9.1591759 -0.26514214 -0.95659351
-9.0771112 -0.26736504 -0.95409167
-9.0785789 -0.28660965 -0.95535326
-9.0780582 -0.32630587 -0.95784146
-9.0759277 -0.36697257 -0.96033907
-9.0760288 -0.37943521 -0.96112877
-9.2309685 -0.64169288 -0.98266637
-9.2289944 -0.76032859 -0.99008906
-9.2219439 -0.80104929 -0.99243164
-8.949151 -1.1160938 -1.0035292
-8.9341345 -1.1210104 -1.003356
-8.9028692 -1.1679428 -1.005311
-8.9187088 -1.198236 -1.0077325
-8.9280605 -1.2030879 -1.0083398
-9.0673809 -1.1602283 -1.0101206
-9.1515799 -1.1654016 -1.013158
-9.1723156 -1.1690995 -1.0140588
-9.2356415 -1.1704239 -1.0161812
-9.3945761 -1.1476386 -1.0198604
-4.8735619 1.2834256 -0.72089696
-4.7990832 1.280462 -0.71868604
-4.7591743 1.2779936 -0.71755695
-4.7166409 1.280761 -0.71601295
-4.5917654 1.2862304 -0.71164739
-4.5517912 1.2863369 -0.71035367
-4.4667592 1.29685 -0.70695263
-4.4268508 1.2943815 -0.70582354
-4.2674112 1.3118876 -0.69958562
-4.2301631 1.3091612 -0.69855845
-4.11308 1.2990087 -0.6954295
-4.2753048 1.2986686 -0.70067388
-4.3975668 1.2883928 -0.70525861
-4.5128918 1.2853274 -0.70916498
-4.5570774 1.2808433 -0.7108705
-4.5995579 1.2706084 -0.71288407
-4.7965827 1.303122 -0.71717566
-4.871079 1.3085747 -0.71923
-5.0276446 1.2614567 -0.72724402
-5.0701785 1.2586894 -0.72878802
-5.1551924 1.245687 -0.73234558
-5.2376351 1.2453883 -0.73501873
-5.3061824 1.2566383 -0.7365157
-5.3861256 1.2661849 -0.73848706
-5.3418627 1.2661026 -0.73706722
-5.2297421 1.258607 -0.73393047
-5.1421604 1.2571801 -0.73120075
-5.1074085 1.2589264 -0.72997171
-3.3549929 1.276997 -0.67241156
-3.2725501 1.2772959 -0.66973841
-3.196161 1.2863491 -0.66670775
-3.1082387 1.2870808 -0.66383088
-2.9955502 1.2876536 -0.66016668
-2.9736068 1.28715 -0.65949196
-2.8938251 1.2871913 -0.65692073
-2.8364995 1.2897099 -0.65491617
-2.7912877 1.290246 -0.65342677
-2.7540393 1.2875196 -0.65239954
-2.7141662 1.2900294 -0.65095747
-2.6515741 1.2989399 -0.64837998
-2.6266432 1.2989427 -0.64757717
-2.6093817 1.2990974 -0.64701164
-2.5721905 1.3017452 -0.64564717
-2.4897132 1.2991107 -0.64315802
-2.4870298 1.2989581 -0.64308125
-2.3248339 1.3062956 -0.63739628
-2.2051501 1.3038181 -0.63369936
-2.1280241 1.298998 -0.63152039
-1.9657829 1.2988632 -0.62630546
-1.9245744 1.3025275 -0.62474751
-1.8860188 1.3013629 -0.62357968
-1.8806524 1.3010578 -0.6234262
-1.8502984 1.2977138 -0.62265992
-1.7689881 1.2940564 -0.62027287
-1.6466665 1.2988986 -0.61602914
-1.6032901 1.3044628 -0.61428148
-1.5441151 1.3060766 -0.61227453
-1.5270433 1.3063842 -0.61170542
-1.4499025 1.2990733 -0.60968322
-1.3701081 1.2965914 -0.60727078
-1.3292327 1.2999635 -0.60574198
-1.2849927 1.3012768 -0.60423481
-1.2477713 1.2989429 -0.60318375
-1.2095647 1.2999767 -0.60188842
-1.0470052 1.3026249 -0.59648764
-1.0134354 1.3014597 -0.59548032
-0.67149544 0.95217961 -0.60651207
-0.88882637 1.3089459 -0.59099615
-1.0057969 1.3062892 -0.5949297
-0.019052029 -1.131754 -0.71700871
0.018138885 -1.1291062 -0.71564424
0.025051117 -1.1080238 -0.7140913
0.030446529 -1.0719702 -0.7116425
0.29759741 -0.72572458 -0.6811924
0.29685402 -0.71385539 -0.68046731
0.14146805 -0.4072299 -0.66612107
0.14171171 -0.30935955 -0.65993726
0.1388011 -0.27184564 -0.65766376
0.13766479 -0.22276111 -0.654603
0.077824116 -0.19054066 -0.65449637
-0.025348186 -0.095597498 -0.65182686
-0.14422846 -0.11495231 -0.65687561
-0.43688202 0.024338648 -0.65750808
-0.59557199 0.32466871 -0.64366543
-0.59698105 0.39104235 -0.63952243
-0.62413073 0.51147276 -0.632797
-0.64608431 0.43176585 -0.63853359
-0.68227005 0.23250087 -0.65227282
-0.63616228 -0.0030762702 -0.66565394
-0.64823198 -0.067833915 -0.67012894
-0.67717457 -0.22723727 -0.68111956
-0.64652681 -0.34678507 -0.68767667
-0.64129734 -0.3866348 -0.69002295
-0.62110853 -0.42648315 -0.6918875
-0.5959568 -0.49360925 -0.69531357
-0.63249779 -1.0415527 -0.73106688
-0.55544758 -1.0339549 -0.7281068
-0.48798943 -1.0265957 -0.72547054
-0.42832994 -1.0289621 -0.72369909
-0.17912483 -1.0470859 -0.71681952
-7.6160722 -1.0937204 -0.9591983
-7.5543737 -1.0950787 -0.95729756
-7.494164 -1.0907482 -0.95508581
-7.5478544 -1.0853424 -0.95647329
-7.6096478 -1.0841482 -0.95838737
-7.6474175 -1.0819916 -0.95946729
-7.785181 -1.0839552 -0.96402657
-7.8250751 -1.086617 -0.96547896
-7.8715601 -1.0915438 -0.96728647
-7.8294849 -1.0864667 -0.96561146
-7.7873859 -1.0838801 -0.96409285
-7.6559911 -1.0939244 -0.96049637
-7.6719465 -1.0931774 -0.96096289
-8.100462 -1.1572808 -0.97880429
-8.1551542 -1.2030784 -0.98345506
-8.1693058 -1.2022369 -0.98385757
-8.3066235 -1.1544063 -0.98526037
-6.9496078 1.2684687 -0.78868002
-7.0337906 1.2683431 -0.79139829
-7.1449666 1.2771009 -0.79442495
-7.0273538 1.2753797 -0.79074699
-6.9874082 1.2730969 -0.78960496
-6.9032001 1.270732 -0.78704309
-6.7921014 1.2694461 -0.78354734
-6.7101164 1.2722079 -0.78073353
-6.7834668 1.273847 -0.78299165
-3.4348457 1.2869124 -0.67435676
-3.1935322 1.3843696 -0.6604377
-3.1908891 1.3871166 -0.66017926
-3.1882463 1.3898633 -0.65992087
-3.1855855 1.3901211 -0.65981895
-3.0740721 1.4143008 -0.6547029
-3.0293093 1.4066001 -0.65374768
-2.9861667 1.3952022 -0.65307796
-2.7644329 1.4177186 -0.64451826
-2.7218633 1.4406 -0.64170384
-2.7045534 1.4354298 -0.64147276
-2.4998717 1.4231892 -0.6356554
-2.4453046 1.4382927 -0.63294548
-2.4027472 1.4406354 -0.63142753
-2.2110465 1.3912998 -0.62836885
-2.1604695 1.3981665 -0.62630713
-2.0388908 1.3873335 -0.6230765
-1.8464775 1.3586547 -0.61869133
-1.8437943 1.3585021 -0.61861461
-1.7586789 1.3631877 -0.61557859
-1.6865554 1.3815278 -0.61209923
-1.5195994 1.4055572 -0.60520768
-1.4105878 1.3937266 -0.60244453
-1.3453269 1.3834653 -0.60099095
-4.9903965 1.2587304 -0.72621679
-7.0949187 -1.09369 -0.94241756
-7.1326623 -1.0940241 -0.94365382
-7.2147546 -1.0868299 -0.94584286
-7.1263418 -1.0744891 -0.94221759
-7.0464258 -1.0815532 -0.94009042
-6.9331169 -1.0880232 -0.93685067
-7.0107803 -1.0885611 -0.93938506
-7.0151315 -1.0883009 -0.93950874
-5.7034407 1.2768286 -0.74803156
-5.7853732 1.2690858 -0.751158
-5.7098513 1.2673016 -0.74883914
-5.545908 1.2753155 -0.74305522
-10.762073 -1.096386 -1.0606534
-10.722042 -1.1086848 -1.0601407
-10.635565 -1.106379 -1.057211
-10.717667 -1.1015425 -1.0595491
-7.9913378 -1.0895674 -0.97101808
-8.0312319 -1.0922291 -0.9724704
-8.0733309 -1.0948159 -0.97398907
-8.106657 -1.0927222 -0.97492993
-8.146575 -1.0928936 -0.97622585
-8.1887465 -1.0880088 -0.97727537
-8.2761164 -1.113374 -0.98168886
-8.3058376 -1.1359166 -0.98406827
-6.5439754 1.2775859 -0.77504516
-6.504056 1.277794 -0.77374685
-6.5027103 1.2734452 -0.77397794
-6.5504642 1.2755308 -0.77538377
-6.565434 1.2754527 -0.77587068
-0.57603121 0.83263367 -0.61098224
-0.55619431 0.71234864 -0.61793393
-0.57627344 0.8724857 -0.60847521
-6.8953996 -1.0851984 -0.93545812
-6.8888721 -1.0855887 -0.93527257
-7.2881432 -1.0801561 -0.94778448
-7.3280883 -1.0778694 -0.94892627
-7.3744316 -1.0876456 -0.9510352
-0.67625523 0.83218414 -0.61423737
-6.7756157 -1.0870773 -0.9317202
-6.6957769 -1.0866694 -0.929124
-6.6893268 -1.0795878 -0.92846948
0 0 0 1 0 0 0 1 0 0 0 1 0 0 0 0 0 517 1 0 0
