ply
format ascii 1.0
comment PCL generated
element vertex 612
property float x
property float y
property float z
element camera 1
property float view_px
property float view_py
property float view_pz
property float x_axisx
property float x_axisy
property float x_axisz
property float y_axisx
property float y_axisy
property float y_axisz
property float z_axisx
property float z_axisy
property float z_axisz
property float focal
property float scalex
property float scaley
property float centerx
property float centery
property int viewportx
property int viewporty
property float k1
property float k2
end_header
-0.64003515 -1.2451404 -5.5257907
-0.67511415 -1.250385 -5.5202446
-0.79315233 -1.2549028 -5.5029683
-0.83242273 -1.2597028 -5.4968729
-0.91713572 -1.2735767 -5.4833522
-0.99386644 -1.2710464 -5.4726987
-1.0317211 -1.2692192 -5.467504
-1.276793 -0.83215702 -5.478754
-1.2659492 -0.71221125 -5.4929566
-1.2637644 -0.59364408 -5.5057817
-1.2393594 -0.5101707 -5.5180655
-1.2845397 -0.39481705 -5.5238099
-1.2744408 -0.23788103 -5.541811
-1.2583327 -0.11485286 -5.5570884
-1.2710605 0.052314483 -5.5729203
-1.2843475 0.12690112 -5.5789013
-1.2881675 0.18790892 -5.5847969
-1.2879319 0.24999985 -5.5913835
-1.2785892 0.30644259 -5.5986705
-1.293539 0.42789665 -5.6093616
-1.2774458 0.51310813 -5.6206455
-1.2775092 0.54810417 -5.62433
-1.2721481 0.71070379 -5.6422544
-1.2773395 0.82929206 -5.6540318
-1.2807107 0.86882764 -5.6577249
-1.2917342 1.0269606 -5.6728458
-1.0694418 1.3888429 -5.7426777
-0.95168686 1.4056985 -5.7612157
-0.75878477 1.3979872 -5.7878561
-0.68007278 1.4001663 -5.7992887
-0.54384232 1.39016 -5.8176212
-0.50451374 1.3923541 -5.8234501
-0.17833281 1.0412494 -5.8328161
-0.19836092 0.96774513 -5.8222075
-0.18010664 0.91573602 -5.8193164
-0.12872076 0.61792785 -5.795198
-0.13106585 0.57506317 -5.7903399
-0.12327671 0.49734893 -5.783246
-0.13394594 0.35754541 -5.7669725
-0.13767529 0.33086643 -5.7636256
-0.14831877 0.24694362 -5.7532535
-0.14496183 0.21536437 -5.7503982
-0.12862301 0.013130307 -5.731379
-0.10216188 -0.14089763 -5.7188883
-0.093135357 -0.3054356 -5.7028069
-0.092441559 -0.34745064 -5.6984711
-0.091135025 -0.42653784 -5.69031
-0.089174747 -0.54516876 -5.6780682
-0.10187054 -0.62850088 -5.6674662
-0.097449303 -0.74715638 -5.6555719
-0.094335079 -0.78672463 -5.6518393
-0.08940506 -0.86721843 -5.6440454
-0.087971687 -0.90594763 -5.6401615
-0.39458609 -1.2232363 -5.5630355
-0.43943596 -1.2240558 -5.5565662
-0.50662899 -1.2242447 -5.5469828
-0.59663057 -1.2383145 -5.5326886
-6.5016518 0.069786884 -4.8303347
-6.4915071 0.54445529 -4.8818769
-6.5127268 0.58353049 -4.8829808
-6.577836 0.64124268 -4.8798056
-6.5958052 0.66284478 -4.879528
-6.6588869 0.73785698 -4.8784676
-6.5599327 1.3143097 -4.953392
-6.4815865 1.3264761 -4.9658265
-6.4402552 1.3282341 -4.9718943
-6.3935218 1.3248743 -4.9781909
-6.363606 1.3261834 -4.9825869
-6.2839952 1.3277664 -4.9940844
-6.2012239 1.310256 -5.0040164
-6.0392108 1.3091625 -5.0269589
-5.9998837 1.3090649 -5.0325456
-5.9559741 1.3132085 -5.0392323
-5.6208072 0.99254006 -5.0530896
-5.5386682 0.79323679 -5.0437446
-5.5125232 0.66866231 -5.0343175
-5.5059223 0.61000651 -5.0290661
-5.5459495 0.43142059 -5.0045209
-5.5739269 0.31149873 -4.9878817
-5.9894876 0.089509569 -4.9053087
-6.076303 -0.0030786246 -4.8831806
-6.4621611 0.024796285 -4.8312068
-11.781583 0.035450347 -4.0752587
-11.75633 0.015821233 -4.0767813
-11.499968 -0.35889399 -4.0737185
-11.502004 -0.37051851 -4.0722017
-11.474058 -0.52890378 -4.0594625
-11.463657 -0.56427288 -4.0572095
-11.569359 -0.87478673 -4.0093932
-11.608845 -0.97802085 -3.9928775
-11.609957 -1.0369956 -3.986495
-11.570002 -1.0669079 -3.9890244
-11.489193 -1.0578682 -4.0014796
-11.210346 -1.1168014 -4.0349455
-11.166115 -1.1251873 -4.0403552
-11.087364 -1.1306194 -4.0509901
-10.964857 -1.1221861 -4.0693159
-10.851532 -1.1271366 -4.0849218
-10.754048 -1.1231074 -4.0992212
-10.695631 -1.1184642 -4.1080256
-10.665677 -1.1187109 -4.1122627
-10.601504 -1.1233568 -4.1209054
-10.562129 -1.126073 -4.1262226
-10.492718 -1.1374717 -4.1348982
-10.330676 -1.1391715 -4.1577811
-10.166004 -1.1521161 -4.1798515
-10.126378 -1.1645707 -4.1841764
-10.086931 -1.1696004 -4.1892595
-10.008217 -1.1722351 -4.2001848
-9.9293232 -1.1822947 -4.210351
-9.8131332 -1.2403214 -4.2207632
-9.7198505 -1.2426679 -4.2337918
-9.6558237 -1.240641 -4.2431183
-9.5355091 -1.205368 -4.2639642
-9.4132423 -1.1894076 -4.2830501
-9.3599901 -1.1854361 -4.2910485
-9.3393478 -1.185968 -4.2939301
-9.3000193 -1.1860479 -4.2995191
-9.2606916 -1.1861278 -4.3051076
-9.2167816 -1.1823822 -4.3117523
-9.1640053 -1.1586114 -4.3217726
-8.8979349 -1.1643465 -4.359035
-8.8143406 -1.1755304 -4.3697519
-8.7308044 -1.1842395 -4.3807216
-8.6082401 -1.1806538 -4.3985438
-8.5782547 -1.1809597 -4.4027791
-8.4510479 -1.1760235 -4.4214044
-8.4163017 -1.1799288 -4.4259377
-8.363287 -1.1660575 -4.4349465
-8.2154388 -1.1616533 -4.4564538
-8.132082 -1.1629375 -4.4681816
-8.0233221 -1.1683531 -4.483089
-7.8564301 -1.1783464 -4.5057869
-7.8297043 -1.1855803 -4.5088272
-7.8104458 -1.1880161 -4.5113106
-7.7830019 -1.1856751 -4.5154638
-7.7269216 -1.1841114 -4.5236101
-7.6531343 -1.1883357 -4.5336661
-7.5278702 -1.1620672 -4.5542665
-7.4491539 -1.1647639 -4.5651846
-7.3714676 -1.1254325 -4.5803924
-7.3041434 -1.0930685 -4.59339
-7.292531 -1.084582 -4.5959382
-6.8455033 -1.1537071 -4.6522646
-6.4940395 -1.1367972 -4.7040706
-6.3349676 -1.1254992 -4.7279024
-6.2957606 -1.120667 -4.7339926
-6.1860952 -1.0919994 -4.7526259
-6.0167966 -1.0801222 -4.7779746
-5.9287438 -1.0817422 -4.7903357
-5.8153372 -1.0863255 -4.8059921
-5.7274661 -1.0805287 -4.8191099
-5.6975355 -1.0792456 -4.8235049
-5.5744901 -1.0951134 -4.8393426
-5.5255723 -1.0853648 -4.8473334
-5.4897823 -1.0796098 -4.8530345
-5.3002958 -1.0965122 -4.8782187
-5.2903395 -1.0974238 -4.8795395
-5.2754612 -1.0963205 -4.8817735
-5.1722283 -1.1080178 -4.8952312
-5.0981641 -1.1278011 -4.9036841
-5.0194612 -1.1332167 -4.9143138
-4.8920727 -1.1150753 -4.9343586
-4.852778 -1.1153128 -4.9399261
-4.7401543 -1.1032159 -4.957232
-4.6615648 -1.1036904 -4.9683666
-4.4895635 -1.1010656 -4.9931235
-4.4092836 -1.1075501 -5.0038648
-4.3813801 -1.1046147 -5.0081458
-4.3134255 -1.074531 -5.0209923
-4.0973511 -1.0713208 -5.0520835
-4.0578861 -1.0789698 -5.0568929
-3.8956151 -1.0853157 -5.079318
-3.7433007 -1.09075 -5.1004219
-3.699084 -1.0889726 -5.1069026
-3.6157427 -1.0800204 -5.119709
-3.5421309 -1.0800394 -5.1301832
-3.5028927 -1.077806 -5.1360035
-3.4242465 -1.0807511 -5.1468859
-3.3243008 -1.0918094 -5.1599431
-3.288959 -1.0956911 -5.1645637
-3.1838386 -1.0678068 -5.1824675
-3.0223033 -1.0420355 -5.2081776
-2.9780302 -1.0427284 -5.2144055
-2.8793499 -1.0651306 -5.2260857
-2.8200016 -1.0807362 -5.2328849
-2.7248549 -1.0909574 -5.2453475
-2.6813364 -1.0890727 -5.2517405
-2.6025681 -1.0893549 -5.2629209
-2.5508957 -1.0784774 -5.2714233
-2.4038796 -1.0819041 -5.291985
-2.2828465 -1.110692 -5.3061724
-2.1997156 -1.1188306 -5.3171449
-2.1601031 -1.1288537 -5.3217249
-2.1247389 -1.1359615 -5.3260078
-2.0416081 -1.1441001 -5.3369799
-1.9666882 -1.1587605 -5.3460956
-1.9189789 -1.1573205 -5.3530374
-1.8442302 -1.1645694 -5.3629107
-1.8072228 -1.1749322 -5.367084
-1.7255068 -1.1896977 -5.3771558
-1.6216097 -1.2123026 -5.3895569
-1.5670571 -1.2297902 -5.3954754
-1.48347 -1.2576927 -5.4044266
-1.4440284 -1.2603043 -5.4097643
-1.3244786 -1.2788841 -5.424818
-1.2136436 -1.3142952 -5.4368548
-1.1841059 -1.3144009 -5.4410477
-1.0408907 -1.3021326 -5.4627252
-0.92565155 -1.3235027 -5.4768705
-0.8074069 -1.3618268 -5.4896545
-0.75657082 -1.324954 -5.5007815
-0.6254077 -1.2813879 -5.5240469
-0.52703094 -1.2823486 -5.5379467
-0.39670229 -1.2532001 -5.5595717
-0.36579943 -1.2523956 -5.564055
-0.28292084 -1.246369 -5.5764866
-0.20839691 -1.2465582 -5.5870728
-0.20419884 -1.2446861 -5.5878682
-0.047083378 -1.2215483 -5.6126709
0.0019850731 -1.1363964 -5.6286421
0.0024824142 -1.0705092 -5.6356668
0.0040569305 -1.0537801 -5.6376562
-0.00087690353 -1.0161121 -5.6409297
0.04847765 -0.76732457 -5.674212
0.047393322 -0.63772196 -5.6877365
0.048202515 -0.60670686 -5.6911254
0.047385693 -0.3812879 -5.7148004
0.038449764 -0.28729796 -5.7234488
-0.034116268 -0.08669357 -5.7342935
-0.034257412 0.033837534 -5.746995
-0.034650803 0.073652618 -5.7511411
-0.039461136 0.10885262 -5.7541714
-0.090760231 0.19282553 -5.7557335
-0.12014675 0.33921385 -5.7670016
-0.09637785 0.44869062 -5.781939
-0.047680378 0.68998867 -5.8143373
0.057575703 0.84242129 -5.8454061
0.062400341 0.84732842 -5.8466105
0.060734749 0.89119917 -5.8510036
0.020607471 0.93609005 -5.8500304
-0.18490124 1.2488189 -5.8537889
-0.19060564 1.2883873 -5.8571529
-0.19135809 1.2928631 -5.8575182
-0.21931076 1.3375287 -5.8582544
-0.30265856 1.3685104 -5.8496618
-0.43549967 1.4033754 -5.8344355
-0.51415491 1.3987261 -5.8227506
-0.59722757 1.4043871 -5.8115249
-9.8644104 1.2949507 -4.4810476
-10.071093 1.3369553 -4.4560657
-10.15279 1.3296926 -4.4436717
-10.193646 1.3336093 -4.4382701
-10.271915 1.3143593 -4.4250994
-10.332587 1.3102908 -4.4160347
-10.47319 1.314019 -4.3964176
-10.477839 1.3148195 -4.3958402
-10.593166 1.3188422 -4.3798513
-10.640026 1.3265771 -4.3739982
-10.684011 1.3276441 -4.3678513
-10.712008 1.3256502 -4.363656
-10.757982 1.3249036 -4.3570337
-10.800058 1.3176334 -4.3502779
-10.831804 1.3147445 -4.3454552
-10.979141 1.3214564 -4.3251944
-11.037975 1.327569 -4.3174658
-11.068163 1.3336533 -4.3138118
-11.126648 1.3224555 -4.304306
-11.15976 1.3148497 -4.2987909
-11.278133 1.3052394 -4.2809296
-11.542676 1.2731848 -4.2398958
-11.554016 1.2763937 -4.2386208
-11.60161 1.284243 -4.2326756
-11.606258 1.2850436 -4.2320986
-11.677954 1.3053094 -4.2240334
-11.684761 1.3058776 -4.2231245
-11.685179 1.2979406 -4.2222276
-11.689598 1.203232 -4.2116022
-11.587944 1.166603 -4.2222042
-11.371284 0.88843268 -4.2236805
-11.658194 0.55770171 -4.1479406
-11.687883 0.53037035 -4.14083
-11.697019 0.49773464 -4.1360855
-11.695765 0.44340625 -4.1305299
-11.744896 0.11894714 -4.0892925
-11.783364 0.074205898 -4.0790958
-3.6148202 -0.7814855 -5.1513486
-4.0137453 -0.42590445 -5.132102
-3.4907944 -0.52173728 -5.1964149
-3.0318685 -0.29068843 -5.2861161
-2.9518855 -0.22510412 -5.3044214
-2.9049957 -0.25870302 -5.307549
-2.369247 -0.11989577 -5.398448
-2.3769081 -0.0012934059 -5.4098754
-2.3626904 0.079115309 -5.4203858
-2.3660915 0.1379436 -5.4261107
-2.3667026 0.19629499 -5.4321823
-2.3668919 0.21812451 -5.4344592
-2.3608127 0.30591971 -5.4445906
-2.3647799 0.34206197 -5.4478407
-2.9365258 0.45785674 -5.3786898
-2.9684718 0.45816186 -5.3741755
-2.9724202 0.53724921 -5.3819609
-2.965687 0.57446229 -5.3868465
-2.9637873 0.61649734 -5.3915539
-2.9225483 0.57770252 -5.3933282
-2.4110506 0.74538636 -5.4838238
-2.3966126 0.89889783 -5.5020809
-2.4122412 1.0223349 -5.5128846
-2.8205054 1.3411169 -5.4884253
-2.9035645 1.3225935 -5.474649
-2.9867632 1.3114821 -5.4616351
-3.016583 1.3158162 -5.4578485
-3.0706658 1.3241892 -5.451035
-3.1247284 1.3247056 -5.4433951
-3.2662725 1.2874238 -5.4193153
-3.3400199 1.2827418 -5.4083252
-3.384413 1.2984333 -5.4036636
-3.458533 1.3135173 -5.3947067
-3.5766735 1.3245269 -5.3790545
-3.6450553 1.31619 -5.3684425
-3.7431178 1.3047751 -5.353281
-3.90025 1.2988647 -5.3302937
-4.160481 1.0139036 -5.2631812
-4.1624322 0.60968411 -5.2202406
-4.1316338 0.55346429 -5.2186904
-4.130795 0.50899088 -5.2141156
-4.1695547 0.47971746 -5.2055097
-4.2081733 0.44303176 -5.1961417
-4.180934 0.014378898 -5.1547766
-4.178431 0.0098490864 -5.1546545
-4.0584273 -0.19300804 -5.1503239
-4.0507984 -0.3116248 -5.1388903
-2.6648886 1.3699226 -5.5136127
-2.6258161 1.3719653 -5.5193896
-2.6011438 1.3694037 -5.5226307
-2.5482211 1.369208 -5.5301418
-2.544529 1.3691944 -5.5306659
-2.4594994 1.3532324 -5.5410829
-2.3496137 1.3487116 -5.5562449
-2.2762229 1.3682015 -5.568747
-2.2705355 1.3690294 -5.569644
-2.1486151 1.3524952 -5.5852509
-2.0259874 1.3392774 -5.6013083
-1.9907365 1.3370899 -5.6060944
-1.9038711 1.3482932 -5.6196399
-1.8294065 1.3533711 -5.630774
-1.7901931 1.3606366 -5.6371217
-1.7071767 1.3574462 -5.6486001
-1.6328831 1.3699353 -5.6604919
-1.5555015 1.3731745 -5.6718469
-1.5150142 1.3818501 -5.6785245
-1.4391909 1.4139651 -5.6927056
-1.3270626 1.4177943 -5.7090683
-1.313735 1.4188769 -5.7110791
-1.0472946 1.4212866 -5.7492537
-0.91521931 1.4253252 -5.7684774
-0.91016865 1.4254479 -5.7692089
-0.83387518 1.4200839 -5.7795014
-0.75482225 1.4074403 -5.7894177
-0.7153244 1.4023539 -5.7945023
-2.7058017 1.3683763 -5.507627
-2.7354741 1.3666044 -5.5032167
-2.7479889 1.3654199 -5.5013108
-2.8573632 1.347707 -5.4838748
-2.9008811 1.345811 -5.4774814
-2.9359045 1.3381169 -5.4716845
-2.9442286 1.3365036 -5.4703298
-3.0954521 1.328921 -5.4480066
-9.5452147 1.298417 -4.5268421
-9.4666767 1.3031814 -4.5385227
-9.3922615 1.286448 -4.5473475
-9.4453096 1.2764429 -4.5387416
-9.5194178 1.2808131 -4.5286555
-9.5588093 1.2833762 -4.5233197
-9.7249908 1.2654684 -4.4977784
-9.8037128 1.2681217 -4.4868546
-9.8778219 1.2724921 -4.4767685
-9.9608517 1.2610655 -4.4637456
-10.004795 1.2594391 -4.4573197
-10.145643 0.71822691 -4.3801522
-10.084671 0.63451666 -4.3799949
-9.9548321 0.52558798 -4.3869772
-9.9358921 0.48440966 -4.3853264
-9.867651 0.24944672 -4.3702402
-9.8621197 0.21408439 -4.3672953
-9.8883486 0.16362202 -4.3582358
-10.043925 -0.34664655 -4.282238
-9.9915409 -0.56487554 -4.2666607
-9.9860077 -0.57574719 -4.2663012
-10.000252 -0.65232825 -4.2561913
-9.734827 -1.0670413 -4.2501965
-9.6168575 -1.0675937 -4.2669277
-9.3229799 -0.70020306 -4.3475294
-9.2445021 -0.69293803 -4.3594651
-9.1541996 -0.66179585 -4.3756042
-8.9781399 -0.40547925 -4.4277139
-8.836422 -0.082488291 -4.4819732
-8.8453655 -0.0071108118 -4.488656
-8.8476028 0.075922452 -4.4971013
-8.8482208 0.11168601 -4.5007877
-8.8356428 0.17537698 -4.5093002
-8.8107328 0.075847559 -4.5023408
-8.8101883 0.059263922 -4.500668
-8.818327 -0.0071657151 -4.4924984
-8.8273563 -0.12354171 -4.4789305
-8.6831684 -0.43533799 -4.4665432
-8.6540337 -0.47403547 -4.4666057
-8.3743515 -0.70571995 -4.4819579
-8.3314095 -0.71035558 -4.4875803
-8.2878103 -0.71715486 -4.4930677
-8.2513704 -0.71945876 -4.4980106
-8.2118053 -0.72943842 -4.5025883
-7.8399096 -0.38211524 -4.5921755
-7.8288069 -0.31468752 -4.600872
-7.8058443 -0.23530054 -4.6125188
-7.7949038 -0.07693474 -4.6307907
-7.7907381 -0.05578481 -4.6336155
-7.7790537 0.033079483 -4.6446576
-7.8751783 0.44255224 -4.6741943
-7.8810759 0.48212561 -4.6775317
-7.9028854 0.56339532 -4.6830053
-7.9772978 0.68434566 -4.6851802
-8.0004025 0.72395861 -4.6860728
-8.0402184 0.84272951 -4.6929417
-8.0289822 0.96085805 -4.7070088
-8.0555744 1.0759238 -4.7153687
-8.290638 1.269081 -4.7023001
-8.4038935 1.2661238 -4.6858692
-8.6052818 1.2698042 -4.6575956
-8.6447353 1.2748399 -4.6525121
-8.7187223 1.2742649 -4.6419215
-8.7976284 1.2843362 -4.6317544
-8.9065161 1.2929862 -4.6171703
-9.0774937 1.2807796 -4.591548
-8.9593191 1.2730905 -4.6075554
-8.9156189 1.2846074 -4.6149902
-9.7070274 1.2921165 -4.5031476
-6.9739122 0.18942818 -4.7757487
-6.887753 0.26446712 -4.7959313
-6.8312569 0.37379247 -4.8155107
-6.8012714 0.6505968 -4.8489933
-6.7906322 0.69862968 -4.855577
-6.7766218 0.72826052 -4.8606982
-6.9519539 1.2886206 -4.894887
-6.9572315 1.2887937 -4.8941541
-7.0012646 1.2895947 -4.8879719
-7.1144161 1.2842394 -4.8713026
-7.1929474 1.2794901 -4.8596249
-7.2323971 1.2845322 -4.8545423
-7.3208828 1.2847517 -4.8419719
-7.3993611 1.2785146 -4.8301444
-7.4383202 1.2814821 -4.824913
-7.4729414 1.2808764 -4.8199215
-7.5105495 1.2825644 -4.8147473
-7.5684676 1.2768607 -4.8059025
-7.6344628 1.2621918 -4.7949615
-7.6783113 1.2555759 -4.7880225
-7.86551 0.73601097 -4.706543
-7.8044987 0.67554879 -4.7088451
-7.7855082 0.63355625 -4.7071157
-7.7432566 0.56389207 -4.7057767
-7.7471113 0.55253756 -4.7040296
-7.7860956 0.46861669 -4.6896238
-4.0385389 -1.056087 -5.0620613
-3.9252367 -1.0736371 -5.0763345
-7.502368 1.3306034 -4.820982
-7.4798403 1.3332053 -4.8244629
-7.3815236 1.3329613 -4.8384295
-7.1403027 1.3094219 -4.8702765
-7.100853 1.3043799 -4.8753586
-6.9968042 1.2987804 -4.8895764
-6.8998814 1.3180224 -4.9054012
-6.7035542 1.329896 -4.9345965
-6.6205025 1.3413588 -4.9476261
-6.551198 1.3400981 -4.9573569
-6.5119944 1.3449452 -4.963448
-6.4681463 1.3515612 -4.970387
-6.3851557 1.3654964 -4.9836688
-6.3065014 1.3653011 -4.9948425
-6.227725 1.3601615 -5.0055118
-6.1442428 1.3543183 -5.0167766
-5.9831514 1.390309 -5.0435019
-5.8621821 1.3523152 -5.0567083
-5.7892566 1.3468187 -5.0665073
-5.6759801 1.3118221 -5.0789356
-5.5805416 1.3102019 -5.0923476
-5.4252257 1.2819314 -5.1114688
-5.3203087 1.3029912 -5.1286235
-5.2684097 1.3013195 -5.1358333
-5.1631761 1.3089014 -5.1516109
-5.0407057 1.322108 -5.170435
-4.9226584 1.3160399 -5.186595
-4.8833871 1.3181353 -5.1924052
-4.8000021 1.3193635 -5.2044024
-4.7608237 1.3264003 -5.210721
-4.7251253 1.3276287 -5.2159314
-4.6034584 1.3199568 -5.2324376
-4.564187 1.322052 -5.2382479
-4.5343671 1.317718 -5.2420349
-4.4021187 1.3200585 -5.2611036
-4.2136669 1.3656402 -5.2927351
-4.1720314 1.3726535 -5.2994013
-3.9439189 1.3554789 -5.3300543
-3.8626866 1.3712782 -5.3432827
-3.846179 1.3728061 -5.3457932
-3.7596893 1.3747894 -5.3583121
-3.6068196 1.3461561 -5.3770471
-3.5279503 1.3330513 -5.3868885
-3.4243832 1.3333992 -5.4016652
-3.2902789 1.3324671 -5.4206529
-3.2085173 1.3246144 -5.4314604
-8.3167419 1.2990481 -4.7017479
-8.2289152 1.3047734 -4.7148519
-8.1549902 1.3078212 -4.7256947
-8.1109238 1.3045024 -4.731616
-7.9928703 1.3017584 -4.7481279
-7.9628897 1.3031797 -4.7525449
-7.9140868 1.2966324 -4.7587996
-7.8402233 1.3021526 -4.7698946
-7.7787604 1.304973 -4.7789402
-7.752213 1.3004602 -4.7822418
-7.6653619 1.300439 -4.7946005
-7.0122557 0.14996919 -4.7661271
-7.0276566 0.11403602 -4.7601428
-7.3743534 -0.24315977 -4.6731
-7.7169619 -0.047395304 -4.6450014
-7.7245736 -0.037480608 -4.6449642
-7.7589655 0.015717633 -4.6456842
-5.3244743 0.55722916 -5.0493197
-5.3245778 0.51423216 -5.0447669
-5.3359461 0.47717842 -5.0392385
-5.4356761 0.43539956 -5.0206351
-5.4994478 0.38723272 -5.006475
-5.531693 0.35227698 -4.9981966
-5.3261399 -0.16559203 -4.9727936
-5.2938957 -0.16557705 -4.9773841
-5.2917671 -0.16784406 -4.977448
-5.0116453 -0.26827499 -5.0067153
-4.9898691 -0.26643124 -5.0100093
-4.7286849 -0.086063176 -5.0662184
-4.6959071 -0.025456026 -5.07728
-4.6646585 0.0082700849 -5.0852871
-4.6289053 0.052943893 -5.0950909
-4.4900346 0.22042233 -5.1325312
-4.4288135 0.28703958 -5.1482754
-4.3237762 0.44638333 -5.1800423
-4.3007994 0.52746099 -5.1918697
-4.2968426 0.5714429 -5.1970749
-4.4401159 1.0123602 -5.2232199
-4.7746983 1.3006964 -5.2060337
-4.8973551 1.2973728 -5.1882262
-4.9806004 1.2887324 -5.1754665
-5.0545335 1.2939334 -5.165493
-5.1769571 1.2782561 -5.1464148
-5.444037 1.0682861 -5.0862422
-5.4401021 0.71228933 -5.0492291
-8.5573387 1.2978737 -4.6673818
-8.5874424 1.3013977 -4.6634693
-8.6311407 1.2898808 -4.6560345
-4.2803445 -0.7776801 -5.0570312
-4.0406671 -0.43477136 -5.1273346
-8.390728 1.2984731 -4.6911573
-8.4740028 1.296937 -4.6791434
-9.2697163 1.2903663 -4.5652022
-9.1955462 1.2835233 -4.575036
-9.2439814 1.2752351 -4.5672679
-9.2835579 1.2852159 -4.5626888
-11.142206 1.2150888 -4.29076
-11.024851 1.2440829 -4.3105226
-10.94611 1.2386632 -4.321157
-10.906689 1.2334785 -4.3262205
-10.862595 1.2321175 -4.3323522
-10.827997 1.2305337 -4.3371091
-10.74951 1.2374887 -4.3490138
-10.587504 1.2378979 -4.3721137
-10.548134 1.235188 -4.3774309
-10.508863 1.2374281 -4.3832564
-10.430274 1.2394331 -4.3946533
-10.196887 0.72118407 -4.3731713
-10.188765 0.68987721 -4.3710232
-10.168627 0.63926148 -4.368547
-10.150967 0.61198318 -4.3681812
-10.145926 0.60702658 -4.3683758
-10.032931 0.43271044 -4.3660593
-10.007839 0.36799139 -4.3627996
-10.002724 0.34577256 -4.3611827
-9.9840603 0.28954723 -4.3579049
-11.450871 -0.010609955 -4.117465
-11.438215 -0.16040377 -4.1034565
-11.420336 -0.20167032 -4.1016455
-11.384068 -0.28091431 -4.0984435
-10.940215 -0.35253948 -4.1540542
-10.881103 -0.35771582 -4.161921
-10.860867 -0.35726067 -4.1648488
-10.737957 -0.39355153 -4.1785116
-10.32823 -0.32889554 -4.243649
-10.321029 -0.32150811 -4.2454534
-10.203175 -0.2898367 -4.2655692
-11.305962 1.0673113 -4.2518568
-11.345369 0.87624305 -4.2260823
-11.344937 0.84085572 -4.2224088
-11.324703 0.74736577 -4.2154212
-11.323339 0.72206801 -4.2129455
-11.323051 0.66576099 -4.2070436
-11.321161 0.60712594 -4.2011242
-11.314958 0.55979162 -4.197011
-11.428885 0.36250404 -4.1599741
-11.429239 0.28340334 -4.1515751
-11.419957 0.2312516 -4.1473918
-11.422153 0.16064379 -4.139627
-11.431419 0.12495726 -4.134542
0 0 0 1 0 0 0 1 0 0 0 1 0 0 0 0 0 612 1 0 0
