ply
format ascii 1.0
comment PCL generated
element vertex 479
property float x
property float y
property float z
element camera 1
property float view_px
property float view_py
property float view_pz
property float x_axisx
property float x_axisy
property float x_axisz
property float y_axisx
property float y_axisy
property float y_axisz
property float z_axisx
property float z_axisy
property float z_axisz
property float focal
property float scalex
property float scaley
property float centerx
property float centery
property int viewportx
property int viewporty
property float k1
property float k2
end_header
-11.877929 0.069993302 -4.4724007
-11.880211 0.027492005 -4.4713488
-11.63574 -0.40882725 -4.4701257
-11.635289 -0.44860104 -4.4692335
-11.493792 -0.64788085 -4.4697418
-11.473303 -0.70268452 -4.469223
-11.45604 -0.72859532 -4.4692483
-11.434624 -0.56758457 -4.47369
-11.478222 -0.4889119 -4.4739275
-11.495041 -0.28916225 -4.4778872
-11.800721 0.067908175 -4.4751129
-1.6568069 -1.1605495 -4.8096566
-1.6067996 -1.1651762 -4.8113384
-1.5367241 -1.1796466 -4.8135128
-1.4566212 -1.1953442 -4.8160176
-1.3766885 -1.1959503 -4.818861
-1.3265586 -1.2069774 -4.8204012
-1.176558 -1.2183589 -4.8255029
-1.2964969 -1.2167474 -4.8212528
-1.3364573 -1.2158458 -4.8198447
-1.4565396 -1.1967487 -4.8159885
-1.5366154 -1.1872442 -4.813343
-1.6391416 -1.1706195 -4.8100581
-1.7765627 -1.1814198 -4.8048992
-1.8565295 -1.179513 -4.8020844
-1.9365578 -1.1615248 -4.7996345
-2.0165927 -1.1484289 -4.7970729
-2.0916989 -1.1326945 -4.7947474
-2.1367705 -1.1291244 -4.7932177
-2.2167034 -1.1199311 -4.7905707
-2.1366889 -1.1305292 -4.7931886
-11.165619 1.3269488 -4.5265598
-11.205589 1.3267418 -4.5251265
-11.245027 1.3124946 -4.5233912
-11.284449 1.2957489 -4.5215998
-11.245811 1.2956001 -4.5229774
-11.204475 1.2911656 -4.524354
-11.086147 1.3136804 -4.5290976
-10.966045 1.3020462 -4.5331249
-10.844279 1.2914815 -4.5372362
-10.562982 0.9998796 -4.5406337
-10.522263 0.92066622 -4.5402803
-10.481819 0.84085834 -4.5399041
-10.279514 0.4014841 -4.5371037
-10.141235 0.49382022 -4.5441546
-10.152884 0.5220176 -4.5443821
-10.16041 0.52697605 -4.5442262
-3.4040895 -1.0694745 -4.74928
-3.5647197 -1.0718265 -4.7434845
-3.6423714 -1.0659571 -4.7408428
-3.5631859 -1.0692279 -4.7435985
-3.4048963 -1.0657778 -4.7493353
-3.3649302 -1.0655146 -4.7507701
-10.475441 -0.59328967 -4.5073886
-10.098768 -0.57226861 -4.5213327
-10.098799 -0.57230788 -4.5213308
-9.8592014 -1.0909643 -4.5180535
-9.8392172 -1.0907655 -4.5187721
-9.4625397 -0.76649857 -4.5396399
-9.4259434 -0.68616068 -4.5427823
-9.3786259 -0.68588495 -4.5444798
-9.3379593 -0.69215894 -4.5457902
-9.2592907 -0.70574439 -4.5482922
-9.2187986 -0.7097159 -4.5496488
-9.0994139 -0.70415395 -4.5540433
-8.8635635 -0.4806315 -4.5675769
-8.8610935 -0.47810772 -4.5677228
-8.8215618 -0.43772748 -4.5700579
-8.8663883 0.092902124 -4.5805702
-8.7414818 -0.4063167 -4.573637
-8.661767 -0.42864037 -4.5759768
-8.6212463 -0.43511087 -4.5772777
-8.6210423 -0.43737403 -4.5772333
-8.3382626 -0.72470075 -4.580781
-8.2582684 -0.72890335 -4.5835447
-8.2579975 -0.79446453 -4.5820575
-7.8940611 -1.135147 -4.5872879
-7.7596226 -1.0966674 -4.5929718
-7.6541634 -1.1402582 -4.5957465
-7.6539936 -1.147637 -4.5955839
-7.7338285 -1.1660426 -4.59231
-7.7935367 -1.1891291 -4.5896487
-7.9337568 -1.1605337 -4.5852895
-8.1162262 -1.1523521 -4.5789537
-8.4941835 -1.1748542 -4.5649304
-8.5742035 -1.1681526 -4.562223
-8.6136761 -1.1704204 -4.56076
-8.6541424 -1.1689478 -4.5593472
-8.73419 -1.1597472 -4.5566959
-8.7961731 -1.1597399 -4.5544806
-8.8141289 -1.1605425 -4.5538206
-8.8261499 -1.1600381 -4.5534024
-8.8546219 -1.1565709 -4.552464
-8.9346704 -1.1473703 -4.5498128
-9.0684643 -1.1624484 -4.5446858
-9.093708 -1.1630507 -4.5437698
-9.1737709 -1.1716175 -4.5407124
-9.293848 -1.200927 -4.5357513
-9.3740597 -1.176733 -4.5334363
-9.5328331 -1.1920596 -4.527411
-9.668067 -1.249635 -4.5212626
-9.707098 -1.2487752 -4.5198874
-9.752532 -1.2498511 -4.5182385
-9.7900038 -1.2502239 -4.516891
-9.8926754 -1.2718626 -4.5127268
-10.052094 -1.2119861 -4.5083957
-10.173331 -1.1515704 -4.5054412
-10.310986 -1.0916802 -4.5018883
-10.413435 -1.0389696 -4.4994297
-10.513309 -0.77242631 -4.501945
-10.633897 -0.6805495 -4.4997325
-10.67457 -0.60085589 -4.5000982
-10.876202 -0.37950575 -4.4979444
-10.75693 -0.30858773 -4.5038271
-10.694818 -0.32164541 -4.5057492
-10.676785 -0.33043078 -4.5061932
-10.636288 -0.40033108 -4.5060449
-5.5725365 1.3410219 -4.7268038
-5.5875511 1.3433776 -4.7263212
-5.6287565 1.3417357 -4.7248106
-5.7855716 1.3071451 -4.7184157
-5.9055862 1.3159968 -4.7143278
-6.0649562 1.3384211 -4.7091432
-6.0662346 1.3383436 -4.7090955
-6.2252874 1.3079549 -4.7027164
-6.3058348 1.3186369 -4.7000813
-6.3454618 1.3317969 -4.6989655
-6.4253469 1.326039 -4.6959786
-6.4658189 1.3271079 -4.6945562
-6.5461001 1.312806 -4.69136
-6.6670928 1.3220583 -4.6872463
-6.8380628 1.3720812 -4.6822772
-7.0246744 1.3003424 -4.6739688
-7.0879717 1.2876567 -4.6714168
-7.1844716 1.2913249 -4.6680512
-7.2645435 1.3030554 -4.6654568
-7.5054941 1.2701432 -4.6560926
-7.2647533 1.2770228 -4.664855
-7.2243614 1.2834491 -4.6664457
-7.145401 1.2846111 -4.6692944
-7.1256838 -0.69437593 -4.6248169
-7.1272078 -0.5342164 -4.6284189
-7.085886 -0.53360897 -4.6299095
-6.7682562 -0.93045002 -4.6322031
-6.7631836 -0.93789947 -4.6322141
-6.4943824 -1.1288851 -4.6374621
-6.4419994 -1.1209104 -4.6395164
-6.321671 -1.1137632 -4.6439805
-6.2012405 -1.1166095 -4.6482205
-6.1612825 -1.1239369 -4.6494813
-6.1211734 -1.1283705 -4.6508141
-6.0818434 -1.1243263 -4.6523123
-6.0767293 -1.124017 -4.6525021
-6.0418587 -1.1137038 -4.6539841
-6.002017 -1.1008465 -4.6557016
-5.882288 -1.0822618 -4.6604056
-5.8018489 -1.0804108 -4.6633229
-5.6819696 -1.0793805 -4.6676316
-5.6019535 -1.0861448 -4.6703372
-5.4824901 -1.0886015 -4.6745515
-5.3616915 -1.0803999 -4.6790566
-5.2824435 -1.0868392 -4.6817422
-5.2411838 -1.090741 -4.6831279
-5.1624255 -1.1010375 -4.685708
-5.0824137 -1.1105031 -4.6883521
-5.0024223 -1.1174707 -4.691052
-4.9624362 -1.1197056 -4.6924305
-4.884078 -1.1167817 -4.6952982
-4.8316426 -1.1139383 -4.6972375
-4.8041863 -1.1112593 -4.6982799
-4.7634735 -1.1071992 -4.6998277
-4.684329 -1.1054739 -4.7026963
-4.6827755 -1.1053735 -4.702754
-4.6428499 -1.1001145 -4.7043014
-4.5237789 -1.0931301 -4.7087169
-4.4837933 -1.095365 -4.7100949
-4.3925371 -1.0671947 -4.7140002
-4.1236548 -1.0517298 -4.7239642
-4.0443697 -1.0674903 -4.7264385
-3.9651444 -1.0757573 -4.7290816
-3.8828325 -1.0813252 -4.7318969
-3.8444605 -1.0761665 -4.733386
-3.7238364 -1.0690818 -4.7378597
-0.34374142 1.3785172 -4.9145613
-0.2640214 1.3851029 -4.9175615
-0.30386782 1.3986679 -4.9164467
-0.38389683 1.3883492 -4.9133506
-0.59782743 1.3591044 -4.905036
-0.63784838 1.3589494 -4.9036021
-0.77514887 1.3417811 -4.8983021
-0.9178586 1.3800534 -4.8940749
-0.99779558 1.3739535 -4.8910785
-1.2123551 1.3386003 -4.8826017
-1.2372985 1.3368547 -4.8816705
-1.3172722 1.3373431 -4.8788228
-1.3572645 1.3412251 -4.8774819
-1.397244 1.3446132 -4.8761301
-1.4771762 1.3452127 -4.8732867
-1.369648 1.3335044 -4.876863
-1.3171024 1.3238945 -4.8785219
-1.2371564 1.3244761 -4.881393
-1.1571493 1.317564 -4.8840947
-1.1172581 1.3193077 -4.8855605
-0.99733829 1.3201802 -4.8898668
-0.91743279 1.3257576 -4.8928504
-0.8774395 1.3235505 -4.8942299
-0.79733658 1.3163666 -4.8969288
-0.63747835 1.3188466 -4.9026995
-0.38377523 1.3771049 -4.9130983
-0.17214775 -1.219768 -4.8613729
-0.17204285 -1.2249683 -4.861258
-0.21220732 -1.2246069 -4.8598309
-0.25211143 -1.2228601 -4.8584442
-0.3772788 -1.1985539 -4.8545251
-0.65201283 -1.2019902 -4.8446264
-0.3771019 -1.2087531 -4.8542986
-0.33193016 -1.2301486 -4.8554249
-0.2121172 -1.2223122 -4.8598862
-4.063077 -0.38942245 -4.741251
-4.009675 -0.5495159 -4.7395048
-3.7253695 -1.0716802 -4.7377453
-4.1204672 0.22126994 -4.7531424
-4.0803614 0.33755371 -4.7572308
-4.0679522 0.35757282 -4.7581315
-4.0418053 0.68739712 -4.7665963
-4.0542555 0.67737043 -4.7659225
-4.1242523 0.52107722 -4.7598519
-4.1985893 0.37098527 -4.753768
-4.3988414 0.17056316 -4.7420344
-4.4398203 0.12046657 -4.7394257
-4.4447966 0.11545661 -4.7391334
-4.5118685 0.0099079013 -4.7343264
-4.6110668 -0.17689943 -4.7265153
-4.9685869 -0.23550618 -4.7123981
-5.0095372 -0.23068935 -4.7110443
-5.0910625 -0.22632018 -4.7082295
-5.1636186 -0.23290789 -4.7054858
-5.2969904 0.33419994 -4.7136664
-5.2404151 0.4155412 -4.7175455
-5.2004519 0.47358039 -4.7202992
-5.2414346 0.66784894 -4.7232695
-5.2414546 0.67284507 -4.7233829
-5.2416463 0.72030896 -4.7244596
-5.0421972 1.2692277 -4.7441216
-5.001647 1.2755953 -4.7457166
-4.9217381 1.2833095 -4.7487488
-4.8421168 1.2778238 -4.7514696
-4.804307 1.2786365 -4.7528396
-4.7616515 1.2791474 -4.7543759
-4.6038837 1.3053857 -4.7606144
-4.4845562 1.299458 -4.7647443
-4.402113 1.2797427 -4.767241
-4.33147 1.2761576 -4.7696843
-4.3114853 1.2762126 -4.7704
-4.2834053 1.2775496 -4.7714343
-4.1647177 1.2803527 -4.7757406
-4.1622949 1.2804023 -4.7758284
-4.1223555 1.2880065 -4.7774296
-4.0424366 1.2932225 -4.7804055
-3.9625072 1.2959405 -4.7833247
-3.8426285 1.3037647 -4.7877884
-3.9649405 1.2983891 -4.7832937
-4.043047 1.2944593 -4.7804117
-10.525122 1.3196706 -4.5492878
-10.565045 1.3119676 -4.5476851
-10.644502 1.3050094 -4.5446858
-10.792868 1.3173349 -4.5396643
-10.884329 1.3567808 -4.5372953
-10.885525 1.3568934 -4.5372553
-11.084874 1.3417587 -4.5297842
-9.8776588 1.2956394 -4.5718827
-9.7574759 1.2846142 -4.5759268
-9.6775904 1.2903816 -4.5789142
-9.7696571 1.2979821 -4.5757966
-9.7972164 1.3052126 -4.5749764
-9.8771286 1.3019437 -4.5720453
-9.9170723 1.29906 -4.5705519
-10.085029 1.3278961 -4.5652065
-10.205444 1.3363181 -4.5610948
-10.284948 1.3368555 -4.5582652
-10.395654 1.3193917 -4.5539093
-2.7882226 0.02127892 -4.7961969
-2.7859285 0.046276975 -4.7968497
-2.7856913 0.1249598 -4.7986546
-2.7866447 0.14278761 -4.7990274
-2.7870305 0.18108544 -4.7998881
-2.7870369 0.18132937 -4.7998934
-2.7871485 0.20523578 -4.8004355
-2.78736 0.2211341 -4.8007908
-2.8390503 0.12637326 -4.7967796
-2.8585365 0.062029921 -4.7946138
-2.8659697 0.045893386 -4.7939801
-2.8828318 -0.019390292 -4.7918868
-2.9030485 -0.10070176 -4.7893076
-2.8812978 -0.21532443 -4.787468
-2.8833673 -0.25921282 -4.7863922
-2.8806436 -0.29525912 -4.7856665
-2.8827472 -0.33784667 -4.7846189
-2.8502402 -0.35886306 -4.7853012
-2.8087411 -0.35600147 -4.78685
-2.765394 -0.33437687 -4.7888927
-2.7944431 -0.13734499 -4.7923532
-2.7872412 -0.098623104 -4.7934947
-1.6968207 -1.1558492 -4.8083334
-1.7767062 -1.1553469 -4.8054895
-1.9366262 -1.150336 -4.7998877
-2.0567155 -1.136131 -4.7959194
-2.4193974 -1.0924933 -4.7839518
-2.4969034 -1.0831258 -4.7813954
-2.6567957 -1.084308 -4.7756529
-2.496856 -1.0832297 -4.7813945
-4.0804372 -0.30830318 -4.7424827
-4.1307955 -0.25867262 -4.7418156
-8.2793579 1.2690202 -4.6284056
-7.9722033 0.83257908 -4.6294203
-7.9713449 0.75262851 -4.6276255
-7.967989 0.67270195 -4.6259208
-7.8731594 0.63245881 -4.6283917
-7.8464546 0.71286106 -4.6311817
-7.8872824 0.79242641 -4.6315389
-7.6794586 1.2576834 -4.64959
-7.5454369 1.2672641 -4.6545992
-8.1999102 1.2891558 -4.6317053
-8.0789795 1.2798115 -4.6358147
-7.9600658 1.288969 -4.640274
-7.8787675 1.2902293 -4.643209
-7.7854924 1.2874657 -4.6464796
-7.7460256 1.2892959 -4.6479325
-7.7188349 1.2867733 -4.6488466
-7.6649752 1.2771646 -4.6505523
-7.5845346 1.2764763 -4.6534119
-9.9978466 1.2913003 -4.5674877
-10.077705 1.2830344 -4.5644441
-10.164802 1.2931815 -4.5615625
-10.196859 1.296363 -4.5604897
-10.522995 0.97985971 -4.5416055
-9.9574585 1.2951802 -4.5690198
-4.7226524 1.3225675 -4.7567616
-4.6439142 1.3202645 -4.7595234
-4.482976 1.3582004 -4.7661419
-4.4174242 1.3596405 -4.768518
-4.4023604 1.3598393 -4.7690611
-4.3974395 1.3596954 -4.7692337
-4.3836522 1.3572139 -4.76967
-4.2422848 1.2926729 -4.7732496
-4.2041073 1.2865005 -4.7744732
-2.2365353 1.3260452 -4.845706
-2.1565382 1.3177874 -4.8483772
-2.116631 1.3274938 -4.8500252
-1.9718454 1.3330748 -4.8553281
-1.9392653 1.3293604 -4.8564076
-1.9218106 1.3308045 -4.8570647
-1.8768771 1.3325309 -4.8587103
-1.8518577 1.3313135 -4.8595767
-1.7171912 1.3537313 -4.864902
-1.7971244 1.3543307 -4.8620586
-1.8770299 1.3487532 -4.8590751
-1.9568679 1.3405417 -4.8560338
-2.0368948 1.3499519 -4.8533883
-2.1169629 1.3558189 -4.8506598
-2.1970301 1.3702248 -4.8481269
-2.2444506 1.3697436 -4.8464208
-2.2720001 1.3721774 -4.8454919
-2.3570437 1.3840491 -4.8427229
-2.4368021 1.3676032 -4.8394966
-2.4767604 1.3667364 -4.8380485
-2.5242286 1.3663909 -4.8363438
-2.6365938 1.3495404 -4.8319426
-2.7164595 1.3389671 -4.8288465
-2.8053517 1.335314 -4.8255858
-2.8853111 1.3400905 -4.8228364
-2.9252908 1.3424786 -4.8214622
-2.9652503 1.3398706 -4.8199739
-3.0832965 1.3283365 -4.8154912
-3.3084285 1.4026608 -4.8091412
-3.3231168 1.4032505 -4.8086295
-3.3459001 1.4025578 -4.8077993
-3.5649395 1.3177636 -4.7980337
-3.6430764 1.321328 -4.7953219
-3.6834013 1.3154335 -4.793746
-3.7227399 1.3090907 -4.7921953
-3.8032801 1.3076093 -4.7892823
-6.5632372 -0.96907854 -4.6386495
-6.4431958 -0.9574616 -4.6432052
-6.4032264 -0.95709634 -4.6446424
-6.1648021 -0.84556854 -4.6557112
-6.0857425 -0.76502156 -4.6603761
-6.0880084 -0.37138709 -4.6692824
-6.2895727 -0.2441552 -4.6649823
-6.3703012 -0.22365263 -4.6625648
-6.4899778 -0.20633763 -4.6586823
-6.4924169 -0.20622864 -4.6585975
-6.6104689 -0.14484259 -4.6557794
-6.5903378 -0.0093351416 -4.6595926
-6.6965003 0.32982263 -4.6635413
-6.7363925 0.36796641 -4.6629863
-6.7364192 0.3704648 -4.6630425
-6.6977267 0.49076745 -4.667172
-6.6992621 0.56920779 -4.6689081
-6.7134666 0.65261835 -4.6703048
-6.6990366 0.70522696 -4.6720214
-6.5815125 0.77015424 -4.6777048
-6.4253969 1.2850159 -4.6950402
-6.3060975 1.297601 -4.6995916
-6.2665777 1.2944344 -4.700932
-6.2268462 1.2942908 -4.7023487
-6.1460876 1.2866316 -4.7050605
-6.1061177 1.2870122 -4.7064981
-6.0358024 1.2987207 -4.7092791
-5.9867029 1.2972955 -4.7110014
-5.9062715 1.2889154 -4.713685
-5.8657999 1.2878464 -4.7151074
-5.7463408 1.2854413 -4.7193222
-5.6263533 1.2790879 -4.7234664
-5.5302877 1.2646009 -4.7265692
-5.4657068 1.2541772 -4.7286396
-5.3400259 0.7131716 -4.7207804
-5.3784003 0.58589816 -4.7165027
-5.3827333 0.54640102 -4.715446
-5.4176483 0.4234584 -4.7113914
-5.4180946 0.42247516 -4.7113528
-5.4585214 0.34474471 -4.7081332
-5.971952 0.081129953 -4.6837621
-6.4527092 0.095392376 -4.666903
-6.5291786 0.29039371 -4.668622
-6.5325279 0.37031794 -4.6703272
-6.5288086 0.49028751 -4.6731992
-6.5167441 0.53038049 -4.6745458
-6.5399294 0.61044216 -4.6755447
-6.5411491 0.61323696 -4.6755648
-6.5570388 0.6520195 -4.6758823
-8.3192673 1.2790023 -4.6272068
-0.65707684 -1.1994253 -4.8445039
-0.69702959 -1.202219 -4.8430119
-0.77707148 -1.1940153 -4.8403382
-0.81825304 -1.199316 -4.8387451
-0.89688826 -1.2073916 -4.8357501
-0.97682095 -1.2067856 -4.8329067
-1.0566177 -1.2199701 -4.8297534
-0.97665787 -1.2181821 -4.8326526
-0.85682678 -1.2121959 -4.8370724
-0.79195261 -1.2017236 -4.8396306
-0.73696899 -1.2038153 -4.841548
-5.4657636 1.3051934 -4.7298026
-5.3238978 1.2921531 -4.7345757
-5.2839184 1.289765 -4.73595
-5.2033882 1.2937443 -4.7389197
-5.1229086 1.3102142 -4.7421722
-5.0423889 1.3166916 -4.7451982
-5.0023441 1.3169593 -4.7466359
-4.96246 1.3194097 -4.7481174
-4.9225001 1.3220177 -4.7496052
-4.8825307 1.3221277 -4.7510366
-4.8425713 1.3247358 -4.7525244
-4.761888 1.3189591 -4.7552767
-3.2155142 1.2830064 -4.8097305
-3.4035332 1.2962183 -4.8033113
-3.4829121 1.3072523 -4.8007259
-3.5234926 1.3083789 -4.7993011
-3.5640628 1.3070076 -4.7978196
-3.6046233 1.3031381 -4.7962813
-3.7245421 1.3053064 -4.7920446
-3.8050723 1.301327 -4.7890749
-2.5563505 1.3248709 -4.8342476
-2.6361959 1.3117998 -4.8310952
-2.7561831 1.313561 -4.8268466
-2.8046398 1.3090965 -4.8250127
-2.8433979 1.3090112 -4.8236251
-2.882767 1.3101627 -4.8222442
-2.9233372 1.3087914 -4.8207626
-3.0050685 1.3022891 -4.8176928
-3.0850081 1.3020693 -4.8148303
-3.1642959 1.2906204 -4.8117352
-3.203249 1.2825679 -4.8101587
-7.0634661 1.2868458 -4.6722741
-6.9065628 1.2872957 -4.6778932
-6.825726 1.2951512 -4.6809616
-6.7457871 1.2959126 -4.6838365
-2.4366939 1.3496774 -4.8390913
0 0 0 1 0 0 0 1 0 0 0 1 0 0 0 0 0 479 1 0 0
