ply
format ascii 1.0
comment PCL generated
element vertex 615
property float x
property float y
property float z
element camera 1
property float view_px
property float view_py
property float view_pz
property float x_axisx
property float x_axisy
property float x_axisz
property float y_axisx
property float y_axisy
property float y_axisz
property float z_axisx
property float z_axisy
property float z_axisz
property float focal
property float scalex
property float scaley
property float centerx
property float centery
property int viewportx
property int viewporty
property float k1
property float k2
end_header
-10.856565 -0.9870376 0.53380442
-10.841588 -0.98971933 0.53293628
-10.574076 -1.1110673 0.5029093
-10.481321 -1.1365316 0.49578223
-10.441317 -1.141067 0.493983
-10.321305 -1.1303848 0.49338761
-10.241374 -1.1372554 0.49022597
-10.20137 -1.141791 0.48842677
-10.081415 -1.1361327 0.48683935
-9.9977989 -1.1290464 0.48635405
-9.9613228 -1.1276507 0.48580709
-9.9214935 -1.1229694 0.48583412
-9.8377342 -1.107703 0.48696291
-9.6353312 -1.077009 0.48846534
-9.4129829 -1.0979034 0.4793182
-9.3579454 -1.1119349 0.47530237
-9.2380438 -1.1003559 0.47488672
-9.1980038 -1.105926 0.47288215
-8.919672 -1.3713326 0.41412896
-8.9159222 -1.3713045 0.41404989
-8.7197227 -1.3698392 0.40991342
-8.6773434 -1.3553772 0.41181666
-8.4998837 -1.3221653 0.41437966
-8.3799152 -1.3212693 0.41185033
-8.2375689 -1.3036535 0.41212195
-8.117528 -1.3391604 0.40239373
-7.9975891 -1.3367398 0.40016654
-7.9276667 -1.2793779 0.40993026
-7.6779203 -1.2512164 0.40986398
-7.6579056 -1.2463678 0.41037107
-7.6078539 -1.2309574 0.41228873
-7.5578365 -1.2235353 0.41262782
-7.54072 -1.2159085 0.41374958
-7.4609108 -1.1893156 0.41720685
-7.3013959 -1.1017878 0.4309136
-7.0614567 -1.099782 0.42589724
-6.9014978 -1.0984449 0.42255297
-6.7815485 -1.0851612 0.42247331
-6.6616011 -1.0868087 0.41944164
-6.5416107 -1.0906211 0.41598091
-6.3613591 -1.1416003 0.40183529
-6.3213706 -1.1561971 0.39804721
-6.2613006 -1.1600258 0.39593506
-6.1414165 -1.1584257 0.39354688
-6.1014271 -1.1576247 0.3928031
-6.0213728 -1.1630782 0.38991889
-5.9413824 -1.1648171 0.38777053
-5.9013929 -1.1719484 0.38545841
-5.7814226 -1.1560144 0.38590229
-5.7014432 -1.1628115 0.38275415
-5.5814738 -1.1618087 0.38024592
-5.4615049 -1.1682714 0.37626171
-5.3815255 -1.1676028 0.37458962
-5.2215652 -1.1588001 0.37272137
-5.1415863 -1.1655971 0.36957324
-5.1015964 -1.1577973 0.37021318
-5.0646 -1.1407802 0.37274304
-4.9061785 -1.0918372 0.37884575
-4.8262053 -1.0892489 0.37755334
-4.7862167 -1.0915593 0.37619442
-4.7057457 -1.083534 0.37596571
-4.5862823 -1.088693 0.37225068
-4.5063086 -1.0885078 0.3704831
-4.3863444 -1.0930359 0.36688149
-4.2663822 -1.0951612 0.36375499
-4.1864076 -1.0949759 0.36198741
-4.1064358 -1.0899845 0.36117017
-4.0664496 -1.0874888 0.36076152
-3.9864743 -1.0897067 0.35851884
-3.9065037 -1.0823121 0.35817671
-3.7856617 -1.0899419 0.35394207
-3.744298 -1.0875138 0.35348895
-3.5466006 -1.1199279 0.34262031
-3.5066123 -1.1222383 0.34126142
-3.3056636 -1.1445446 0.33231783
-3.1044848 -1.1244812 0.3317461
-2.9462953 -1.1131015 0.33042735
-2.8658409 -1.0714328 0.3368507
-2.8393507 -1.0622733 0.33806407
-2.7453909 -1.0464931 0.3390643
-2.7221217 -1.0467391 0.33849072
-2.483536 -1.1617656 0.31036615
-2.4035623 -1.1616189 0.30859098
-2.283082 -1.1539211 0.30739495
-2.2430952 -1.1538478 0.30650735
-2.1231346 -1.1536279 0.30384457
-2.0431609 -1.1534812 0.30206937
-2.0031743 -1.1534081 0.30118179
-1.9631872 -1.1533346 0.30029419
-1.7227435 -1.0515205 0.31499979
-1.6432893 -1.0540367 0.31270984
-1.523329 -1.0610396 0.30861902
-1.442836 -1.0606378 0.30688256
-1.4028492 -1.0629721 0.30551898
-1.2034352 -1.0845292 0.29675817
-1.1634481 -1.0820482 0.2963466
-1.0434878 -1.0890512 0.29225576
-1.0029814 -1.0863152 0.29188293
-0.92352748 -1.0936465 0.28864095
-0.84251404 -1.0809515 0.2893233
-0.76306057 -1.0882829 0.28608131
-0.68269706 -1.0801202 0.28588223
-0.64258003 -1.080585 0.28488529
-0.60259318 -1.0756965 0.28494972
-0.52365875 -1.0808755 0.28214502
-0.28321886 -1.1251867 0.26795995
-0.26348495 -1.1288723 0.26678607
-0.18351126 -1.1287239 0.26501122
-0.10249805 -1.1136851 0.26615697
-0.079746246 -1.1099207 0.26638794
0.097177505 -1.0568372 0.27289188
0.21762466 -1.072511 0.26707578
0.25761127 -1.0712328 0.26642638
0.42957067 -0.92378128 0.29170001
0.59008408 -0.50319892 0.37123322
0.59910297 -0.46988219 0.37761688
0.5991044 -0.43135425 0.3852343
0.59806728 -0.33066109 0.40516597
0.59910679 -0.31577045 0.4080866
0.59910727 -0.27724248 0.41570401
0.59910822 -0.23871456 0.42332146
0.59910917 -0.20018663 0.4309389
0.59910965 -0.16165869 0.43855631
0.59911108 -0.12313071 0.44617373
0.60822582 -0.060272589 0.45839596
0.59911394 0.030981034 0.47664347
0.6256032 0.15291163 0.50015306
0.62533998 0.19148567 0.50778556
0.62574625 0.19868019 0.50919884
0.61449051 0.39855194 0.54896986
0.61467934 0.42160821 0.55352414
0.59401274 0.49466008 0.56843364
0.57411242 0.53683829 0.57722169
0.53334665 0.7521109 0.6207034
0.55342722 0.85608786 0.64080793
0.59302521 0.9333232 0.65518498
0.59321022 1.0179291 0.67190844
0.63261366 1.1336575 0.69390047
0.69419193 1.301641 0.72572368
0.69389248 1.3156245 0.72849512
0.69438887 1.383841 0.74197119
0.65455627 1.4061718 0.74728489
0.62738848 1.4102864 0.74871129
0.53500605 1.3928695 0.74735188
0.41496515 1.4089625 0.75324172
0.25607729 1.4464664 0.76424116
0.014753819 1.3555462 0.75170928
-0.025243759 1.357703 0.75303799
-0.10520315 1.3547986 0.75426769
-0.22511101 1.3444278 0.75492227
-0.30505848 1.3391178 0.75567603
-0.47504997 1.3352351 0.75874329
-0.51503682 1.337569 0.7601068
-0.63551712 1.3226774 0.75988054
-0.79494476 1.3274181 0.76441449
-0.87491894 1.3200459 0.76476109
-0.99487925 1.3270476 0.7688517
-1.1548266 1.3363831 0.77430576
-1.2353199 1.3287895 0.77462029
-1.3552804 1.328567 0.7772826
-1.3947477 1.3335302 0.7791543
-1.4747214 1.343014 0.78283346
-1.5952015 1.3329382 0.78355938
-1.7151623 1.3351238 0.78669775
-1.7546291 1.3424952 0.78904551
-1.794616 1.3448288 0.79040903
-1.8751094 1.3348274 0.79024756
-1.9550829 1.3370872 0.79249847
-2.1155505 1.3245292 0.79363573
-2.2349913 1.3317523 0.79775834
-2.3949387 1.3266399 0.80035591
-2.4749126 1.3240836 0.80165464
-2.5548861 1.3239353 0.80342948
-2.6548538 1.3213427 0.80517215
-2.7148337 1.3236389 0.80697924
-2.7548203 1.3259726 0.80834275
-2.7748141 1.3283441 0.80926269
-2.8947742 1.3594258 0.81811416
-2.974813 1.346307 0.81732607
-3.2151895 1.3128595 0.81613588
-3.3346303 1.3200824 0.8202585
-3.4146042 1.3199341 0.82203335
-3.535084 1.3146746 0.82371145
-3.5750709 1.3146005 0.82459891
-3.6150579 1.3145263 0.8254863
-3.6545253 1.3194895 0.82735801
-3.7344987 1.3193412 0.8291328
-3.854979 1.3116734 0.83033478
-3.8949659 1.3115995 0.8312223
-4.0144067 1.3212304 0.83582091
-4.1348872 1.3135626 0.8370229
-4.1743546 1.3209338 0.83937073
-4.2543278 1.3256016 0.84209776
-4.3343015 1.3278613 0.84434867
-4.4942489 1.3323808 0.84885061
-4.5752621 1.314934 0.84722877
-4.73417 1.3295281 0.85369909
-4.8541307 1.3293056 0.85636139
-4.9740911 1.3290832 0.85902369
-5.0545845 1.3214896 0.85933822
-5.1745448 1.3164515 0.86104834
-5.3424854 1.2966652 0.86092508
-5.5425029 1.2949967 0.86510748
-5.6224394 1.3018668 0.86826909
-5.7024627 1.2938411 0.8684876
-5.742444 1.2911441 0.86885643
-5.9423943 1.2897 0.87308168
-6.0223384 1.2989779 0.87671953
-6.1622872 1.2931511 0.87872469
-6.3022599 1.2945478 0.88215858
-6.3822398 1.2939701 0.88384867
-6.4472151 1.2910929 0.8847456
-6.4622631 1.2859445 0.88406718
-6.6222754 1.2797492 0.88645208
-6.5823126 1.2677743 0.883183
-6.4623508 1.271049 0.88112414
-6.3823709 1.2716267 0.87943405
-6.3424249 1.2644677 0.87711746
-6.2074065 1.2704825 0.87526071
-6.1424065 1.2661362 0.87293506
-6.0624709 1.2592661 0.86977339
-6.0225081 1.2625089 0.86951298
-5.9425087 1.2625406 0.86771452
-5.8850317 1.2653637 0.86697602
-5.7825575 1.2661042 0.86481059
-5.725028 1.273967 0.86506736
-5.7025504 1.2789454 0.86554456
-5.6225185 1.2845631 0.86484981
-5.4626379 1.2684152 0.85805023
-5.3826418 1.2641771 0.85540766
-5.2225866 1.2778201 0.85449433
-5.1427026 1.2659104 0.85033739
-5.1027203 1.2686069 0.84996855
-4.936183 1.296968 0.85181892
-4.856729 1.2824471 0.84715545
-4.7762356 1.2948565 0.8477931
-4.6962619 1.2925968 0.84554213
-4.6162882 1.2927451 0.84376729
-4.5363145 1.2953014 0.8424685
-4.4563408 1.2978575 0.84116971
-4.4163537 1.2955236 0.8398062
-4.2558866 1.3008575 0.8372407
-4.2164197 1.2910783 0.83441687
-4.136446 1.2888186 0.8321659
-4.0964589 1.2913008 0.83175457
-4.0159659 1.2916703 0.83001173
-3.9764986 1.2867072 0.82814008
-3.8565381 1.2869296 0.82547778
-3.8165512 1.2845957 0.82411426
-3.7365777 1.2823358 0.82186329
-3.6965909 1.287226 0.82192802
-3.5366433 1.2899306 0.81885439
-3.4166827 1.287745 0.81571603
-3.3766956 1.2878189 0.81482857
-3.2562156 1.2954867 0.81362665
-3.2167482 1.2881155 0.81127882
-3.1367745 1.2858558 0.80902791
-3.0967877 1.2883379 0.80861652
-3.0168142 1.2860782 0.80636561
-2.9363208 1.2936718 0.80605102
-2.8168797 1.2888567 0.80240452
-2.7568994 1.2889674 0.80107319
-2.7369061 1.289005 0.80062968
-2.6569324 1.2891533 0.79885483
-2.5969517 1.2940798 0.79847568
-2.4764714 1.3017476 0.79727376
-2.4370041 1.2943764 0.79492593
-2.3165238 1.30686 0.79467618
-2.2765372 1.3069341 0.79378873
-2.1565764 1.3095646 0.79160249
-2.0771224 1.3022673 0.78836733
-2.0371356 1.3023417 0.78747988
-1.9571619 1.3048978 0.78618109
-1.9171751 1.3025639 0.78481758
-1.8372014 1.3003042 0.78256667
-1.7572274 1.3028605 0.78126788
-1.677254 1.3006005 0.77901691
-1.6372671 1.2982669 0.7776534
-1.5572932 1.2984149 0.77587855
-1.5173066 1.3008971 0.77546716
-1.4373331 1.2962294 0.77274013
-1.1968923 1.3041196 0.76887584
-1.1569054 1.2993777 0.76703626
-1.0769317 1.2947099 0.76430917
-0.95541215 1.3124523 0.76507568
-0.83701038 1.3023787 0.76041287
-0.47622657 0.95728379 0.68404424
-0.47700787 0.86905986 0.66661888
-0.49411488 0.75902754 0.64525008
-0.49411583 0.72049969 0.63763267
-0.47964191 0.6360262 0.62060469
-0.47714496 0.52044702 0.5976969
-0.47266722 0.47448307 0.58850825
-0.4581933 0.39000964 0.57148027
-0.45319819 0.23590714 0.54089963
-0.43947053 0.15864408 0.52531409
-0.43820548 0.12035111 0.51771456
-0.4382751 0.059929609 0.50577009
-0.35871887 -0.13093378 0.46623927
-0.2606082 -0.20178029 0.4500187
-0.24217749 -0.62696791 0.36553806
-0.25467634 -0.64708066 0.3618435
-0.2427001 -0.70426631 0.35026699
-0.48140931 -1.0520949 0.28688219
-0.60137129 -1.0619364 0.28764272
-0.63136101 -1.0619886 0.28830895
-0.72203398 -1.070846 0.28860328
-0.73203063 -1.0708644 0.28882515
-0.80130601 -1.0646924 0.29160827
-0.84147477 -1.0635879 0.29273283
-0.91126919 -1.0624754 0.29452729
-0.96177268 -1.0699923 0.29418045
-1.0017595 -1.0700619 0.2950688
-1.0417464 -1.0701313 0.29595715
-1.1611857 -1.0532775 0.30198389
-1.2416787 -1.0584383 0.30277944
-1.2816653 -1.0560997 0.30414388
-1.3616381 -1.0490142 0.30734891
-1.4016244 -1.0466756 0.30871338
-1.5210648 -1.0346382 0.31378782
-1.601037 -1.0275526 0.31699288
-1.6410241 -1.0276222 0.31788123
-1.6811404 -1.0271411 0.31888133
-1.7615037 -1.0328525 0.31956509
-1.8410881 -1.0274193 0.32243469
-1.9214511 -1.0331308 0.32311845
-1.9614382 -1.0332004 0.32400674
-2.0014246 -1.0308617 0.32537121
-2.0810654 -1.0225234 0.32881647
-2.2020643 -0.99677014 0.33663791
-2.4419422 -0.65967852 0.40869662
-2.4419742 -0.6505155 0.41050899
-2.3599136 -0.36765897 0.46458197
-2.3576651 -0.32547522 0.47287148
-2.3946328 -0.31811059 0.47516155
-2.4398856 -0.31483835 0.47682938
-2.4790857 -0.31323677 0.47803038
-2.5198596 -0.31980014 0.47765255
-2.6630321 -0.30148411 0.48450378
-2.7829921 -0.30416512 0.48667997
-3.1040676 -0.013480306 0.5513953
-3.1842616 -0.012289435 0.55343986
-3.2634938 0.0064947307 0.55894119
-3.303731 0.0048851073 0.55953068
-3.3387122 -0.0096144974 0.5574531
-3.5041447 -0.035487354 0.55606979
-3.6828556 0.0013466775 0.567384
-3.7026317 0.0047303736 0.56849915
-3.7435689 -0.03698644 0.56117475
-3.7560587 -0.04903087 0.55907518
-4.0235763 -0.34434471 0.50672305
-4.1047897 -0.37133944 0.503218
-4.1445856 -0.37810445 0.50277829
-4.2485533 -0.75010252 0.43157515
-4.5840459 -1.0534127 0.37917557
-4.624032 -1.0559084 0.37958419
-4.7040057 -1.0560937 0.38135177
-4.7439919 -1.0585895 0.38176039
-4.8239684 -1.0539684 0.38447827
-5.0878286 -0.66805375 0.46673092
-5.097044 -0.59968877 0.48045543
-5.1320438 -0.46148473 0.50856966
-5.1397114 -0.43049037 0.51487058
-5.1380696 -0.26022446 0.5484972
-5.0985212 -0.10320652 0.5786494
-5.106092 -0.10227053 0.57900524
-5.1838307 -0.092933878 0.582605
-5.2208796 -0.096436128 0.58274835
-5.3783135 -0.12666009 0.58032435
-5.418303 -0.12694423 0.58117032
-5.7387838 0.10533711 0.63432515
-5.7774849 0.11455682 0.63702106
-6.058517 0.077745795 0.63608307
-6.2986269 0.096477032 0.64520323
-6.3436427 0.083888412 0.64372987
-6.3562593 -0.0019642711 0.62704033
-6.3683853 -0.034960806 0.62079006
-6.3782434 -0.071238622 0.61383992
-6.6572466 -0.32316691 0.57032478
-6.7372265 -0.32373518 0.57201672
-6.8571734 -0.33181185 0.57312584
-6.9821415 -0.33269978 0.57576954
-7.0246 -0.34704399 0.57389134
-7.0272179 -0.34788421 0.57378429
-7.2519484 -0.37314704 0.57385933
-7.2569418 -0.37225354 0.57414865
-7.3419261 -0.37378639 0.57576281
-7.3371019 -0.40348041 0.56978309
-7.2969198 -0.44151753 0.56135619
-7.2569814 -0.44625774 0.55951798
-7.2241592 -0.44526446 0.55897391
-6.9370146 -0.45843321 0.54989243
-6.9041777 -0.4645018 0.54795182
-6.7767086 -0.4881483 0.54040092
-6.5769081 -0.45404753 0.54263568
-6.5368948 -0.44791412 0.54294562
-6.2773685 -0.39595091 0.54736459
-6.2573953 -0.39952505 0.54620737
-6.0624905 -0.88339573 0.44614315
-6.3417015 -1.0494567 0.41960976
-6.4216809 -1.0510585 0.42109734
-6.4891644 -1.0581551 0.4212167
-6.5351963 -1.0565137 0.42257968
-6.5791407 -1.0514416 0.42457387
-6.6151781 -1.0461415 0.42643473
-10.579082 1.3100131 0.98169971
-10.618942 1.3027179 0.98115659
-10.69884 1.2780707 0.97808599
-10.738876 1.2607186 0.97555852
-10.818968 1.2370412 0.97268403
-10.898672 1.2114244 0.96941733
-10.978586 1.1915929 0.96729922
-11.018648 1.1814649 0.96620059
-11.058748 1.1518605 0.96125209
-11.061239 1.1494348 0.96082866
-11.083231 1.0945272 0.9504689
-11.095966 1.0721295 0.94632792
-11.108412 1.0260758 0.93750334
-11.108122 1.0024202 0.93281972
-11.115727 0.9415291 0.92095244
-11.120434 0.9178378 0.9163745
-11.120224 0.88674575 0.91022247
-11.115173 0.84081608 0.90102768
-11.112621 0.79486877 0.89188576
-11.112701 0.78743213 0.89041728
-11.105021 0.70299178 0.8735491
-11.097318 0.64284396 0.86148334
-11.074554 0.59505486 0.85152137
-11.057219 0.58030593 0.84821415
-10.853718 0.27351183 0.78296632
-10.861165 0.2274937 0.77403593
-10.997511 0.016101062 0.73531699
-11.017533 0.0036929548 0.73331541
-11.07736 -0.023003101 0.72938693
-10.896431 -0.34108603 0.66241634
-10.896206 -0.39755967 0.65124571
-10.882427 -0.66179031 0.59869319
-10.895307 -0.695737 0.5922721
-10.899742 -0.74872673 0.58189541
-10.894783 -0.8493771 0.56188375
-10.881701 -0.91957855 0.54770893
0.487185 0.22217858 0.51697063
0.47713041 0.24731934 0.5221681
0.4063797 0.4008556 0.55412024
0.36850548 0.4776082 0.5701496
0.33402538 0.61518657 0.59812844
-0.20399189 0.63563335 0.61430848
-0.22462368 0.39853233 0.56789607
-0.22414494 0.38693005 0.56559139
-0.22427225 0.32876354 0.55409402
-0.18339014 0.15098217 0.51802218
-0.18503857 0.044424027 0.49699149
-0.175632 -0.0089830756 0.48622003
-0.1011796 -0.16317721 0.45405436
0.33816957 -0.29117832 0.4188354
0.5091424 -0.0077137053 0.47102275
0.50914335 0.03081426 0.4786402
0.50598383 0.10916835 0.49420306
0.49424505 0.20131573 0.51268655
-10.259123 1.3002403 0.97254932
-10.379189 1.3316243 0.98146296
-10.401693 1.3305352 0.98175538
-10.41918 1.3280032 0.98164928
-10.539196 1.3100843 0.98081398
-10.339383 1.2894044 0.97221762
-10.259338 1.2707071 0.9667151
-10.041588 1.2732131 0.96229827
-9.9615726 1.2836781 0.9625622
-9.9215813 1.2839665 0.96171701
-9.8416538 1.2794702 0.95902491
-9.7291737 1.277874 0.95617181
-9.6766872 1.2782526 0.95506257
-9.6016817 1.2715707 0.95204937
-9.4816275 1.267879 0.94861114
-9.4416809 1.2606869 0.94628799
-9.3617096 1.2636712 0.9450739
-9.3216591 1.2666252 0.94475442
-9.2017231 1.2771204 0.94412374
-9.1617842 1.272336 0.94227678
-9.0818367 1.2825427 0.94249117
-8.8818388 1.2695396 0.93540847
-8.7618332 1.280293 0.93482721
-8.7219028 1.277916 0.93345642
-8.6818285 1.2736473 0.93170846
-8.6418991 1.2712703 0.93033767
-8.5619278 1.2742543 0.92912352
-8.5219212 1.2697279 0.92732608
-8.4419413 1.2703047 0.92563581
-8.4019165 1.2804811 0.92674482
-8.2818947 1.2864194 0.92521131
-8.3217793 1.2962768 0.92806005
-8.4017677 1.2981076 0.93022645
-8.441782 1.3050418 0.93250012
-8.5617352 1.2993615 0.93408316
-8.6817131 1.3009036 0.93709475
-8.7617092 1.3051419 0.93973738
-8.8017435 1.2973731 0.93910456
-8.9217052 1.2941003 0.94116378
-9.0016575 1.3058188 0.94528437
-9.0416718 1.312753 0.94755805
-9.2416172 1.2893856 0.94744867
-9.2816143 1.2915046 0.94876999
-9.409296 1.3336623 0.95998549
-9.4417591 1.3385708 0.96168834
-9.6415367 1.3132417 0.96118742
-9.7614899 1.3075616 0.96277046
-9.801548 1.3070152 0.96356612
-9.8814335 1.3113716 0.96622962
-9.9614725 1.3157494 0.9689008
-10.520205 -1.069169 0.50997782
-10.775298 -0.65411419 0.59779412
-10.775453 -0.60836411 0.60684294
-10.798586 -0.39881516 0.64879525
-10.791479 -0.28318179 0.67149705
-10.758898 -0.19344953 0.68850315
-10.804226 -0.07399632 0.71314317
-10.827908 0.095918804 0.74727172
-10.828039 0.1344474 0.75489223
-10.832812 0.15521532 0.75910604
-10.835932 0.24998015 0.77791256
-10.838694 0.32701963 0.79320651
-10.831247 0.37303787 0.8021369
-10.84172 0.48111641 0.82374161
-10.836772 0.52711695 0.83272487
-10.834324 0.57309979 0.84176099
-11.115384 0.87190825 0.90717977
-10.878997 1.1818202 0.96312034
-10.858921 1.1893983 0.96416575
-10.739125 1.2408173 0.97162938
-10.619213 1.2585239 0.97242498
-10.419379 1.2936537 0.9748624
-9.1102848 -0.78678596 0.53400117
-8.8744469 -1.0913403 0.46846661
-8.7579308 -1.1041554 0.46330437
-8.7544289 -1.1049211 0.46307397
-8.7444229 -1.1072569 0.46238643
-8.5178604 -1.1556156 0.44771415
-8.4778614 -1.1577239 0.44639495
-8.4379101 -1.1577802 0.44548255
-8.3578415 -1.1541233 0.44439921
-8.237916 -1.1411922 0.4442504
-8.11798 -1.130668 0.44362545
-8.0780258 -1.1207411 0.44468677
-7.9546132 -1.1039594 0.44522056
-7.8347001 -1.0862374 0.44601923
-7.7547722 -1.0906997 0.44333386
-7.7147903 -1.0880029 0.44296506
-7.6382656 -1.0813501 0.44255403
-7.6148486 -1.0773257 0.44282141
-7.5813017 -1.0790808 0.44171759
-7.5182958 -1.0804541 0.4400247
-7.4549398 -1.0812135 0.43844527
-7.4149499 -1.0809294 0.4375993
-7.3013935 -1.0719254 0.43681771
-7.2949367 -1.0726446 0.43652984
-7.1749668 -1.0717921 0.43399191
-7.1014447 -1.0702541 0.43263739
-6.9814754 -1.0767169 0.42865312
-6.8950891 -1.0748276 0.42707783
-6.8150654 -1.0668268 0.42685437
-9.1184769 -0.60165596 0.57078844
-9.1170139 -0.65700638 0.55981201
-9.1165352 -0.75750703 0.539931
-9.4126377 -0.049503177 0.68659204
-9.398056 0.091906786 0.7142216
-9.3707199 0.18691134 0.73238844
-9.3582172 0.18793657 0.7323091
-9.3182487 0.18448466 0.73072493
-9.2379894 0.10962284 0.71411324
-9.1609898 -0.22569674 0.6460793
-9.0769844 -0.28569007 0.63232279
-9.0632076 -0.29494524 0.63018209
-9.0544033 -0.33150181 0.62275583
-9.0729284 -0.3720451 0.61515784
-9.1164227 -0.49536854 0.59175646
-10.201252 -1.1098623 0.49473679
-10.134178 -1.1102976 0.49313757
-10.037643 -1.1040848 0.49218813
-9.8056307 -0.69856954 0.56712937
-9.7994175 -0.65758586 0.5750922
-9.7961884 -0.49337751 0.60748535
-9.8366947 -0.36145607 0.63448167
-9.8580379 -0.30840001 0.64545304
-9.8580074 -0.30088142 0.6469388
-9.8431816 -0.26977542 0.65275443
-9.8356829 -0.26971942 0.65259629
-10.33406 -1.1115178 0.49740559
-10.294078 -1.1088209 0.49703681
-10.241264 -1.1029189 0.49701229
-7.3420939 1.2745492 0.90166289
-7.2621498 1.2652714 0.89802504
-7.1321306 1.27125 0.89627385
-7.1820736 1.278337 0.89880174
-7.2221241 1.2754159 0.89912772
-7.5219407 1.2900076 0.90877646
-7.6219444 1.2898309 0.91099751
-7.6419106 1.2891424 0.91131186
-7.7618966 1.2930923 0.91479957
-7.8018947 1.2952113 0.91612095
-7.8819265 1.2895615 0.91680938
-7.9619579 1.2839117 0.91749781
-8.0819283 1.2830462 0.92003322
-8.1219101 1.2803504 0.92040217
-8.20189 1.2797737 0.92209244
-8.0819559 1.270751 0.9176029
-7.9620376 1.2665431 0.91406566
-7.7620201 1.2682431 0.90988946
-7.7220302 1.2685316 0.90904433
-7.6020956 1.2595088 0.90455472
-7.5220723 1.2675662 0.90434241
-6.8622065 1.2756081 0.89104611
-6.9820886 1.2896371 0.89652431
-7.0221224 1.2819004 0.89589787
-6.9822283 1.2697015 0.89258593
-7.0222454 1.257149 0.89100695
0 0 0 1 0 0 0 1 0 0 0 1 0 0 0 0 0 615 1 0 0
