ply
format ascii 1.0
comment PCL generated
element vertex 298
property float x
property float y
property float z
element camera 1
property float view_px
property float view_py
property float view_pz
property float x_axisx
property float x_axisy
property float x_axisz
property float y_axisx
property float y_axisy
property float y_axisz
property float z_axisx
property float z_axisy
property float z_axisz
property float focal
property float scalex
property float scaley
property float centerx
property float centery
property int viewportx
property int viewporty
property float k1
property float k2
end_header
0.72913623 -1.0221944 2.8992884
0.6588943 -1.069952 2.4915283
0.65739876 -1.0696831 2.4817178
0.64514184 -1.0700984 2.4036145
0.63915956 -1.0690231 2.3643723
0.60310984 -1.1252856 2.1829751
0.56402373 -1.1627666 1.9656513
0.55923277 -1.1584299 1.9311728
0.55138946 -1.1429238 1.8673484
0.50305849 -1.1803844 1.5908215
0.48473135 -1.1544979 1.4507673
0.47169578 -1.1405689 1.3550863
0.47783193 -1.0835513 1.3443158
0.4791714 -1.077058 1.3471906
0.58329719 -0.5530777 1.5538123
0.59913397 -0.43281606 1.5496247
0.60406619 -0.39353934 1.5467207
0.62082058 -0.27718377 1.5518365
0.63562787 -0.11208433 1.5016966
0.6665138 0.14998999 1.4693594
0.66676086 0.1574762 1.4643695
0.68016768 0.2756052 1.4464977
0.69927645 0.46875215 1.3992734
0.7048732 0.5137403 1.3956096
0.71223044 0.59505522 1.3713264
0.71184015 0.78451276 1.2025092
0.7131021 0.79292619 1.2032022
0.73493147 1.1404095 1.0379078
0.71977806 1.2097948 0.87998539
0.64974785 1.0612812 0.56203151
0.64231861 1.0255359 0.54584974
0.61758047 0.86610758 0.52743435
0.61084998 0.82123566 0.52373797
0.59135461 0.70103657 0.50444835
0.56613898 0.35732278 0.64475483
0.56162584 0.30062062 0.6656391
0.55718696 0.22154193 0.70664209
0.55605102 0.19359879 0.72390038
0.54696178 0.12089195 0.72953886
0.53066963 0.0033309013 0.72844034
0.52005744 -0.07508795 0.72934324
0.50450659 -0.17019039 0.71327513
0.48842737 -0.20398751 0.64000601
0.47779313 -0.23001379 0.59477395
0.47190607 -0.22858137 0.5558278
0.41142401 -0.38026187 0.30178064
0.37353405 -0.80760145 0.43435913
0.37235448 -0.84455991 0.459252
0.33602813 -1.1042081 0.45462984
0.32993621 -1.1270561 0.43568718
0.32585084 -1.1203358 0.40363336
0.32394752 -1.1033876 0.37657005
0.29896829 -1.0216314 0.14488333
0.28692651 -1.0200218 0.066379428
0.25415599 -1.0467978 -0.11990973
0.21277501 -1.1468112 -0.29702982
0.21130453 -1.1522644 -0.30165654
0.20571207 -1.1599914 -0.33067587
0.19925831 -1.1706332 -0.36265028
0.17771287 -1.1053443 -0.5578981
0.16732034 -1.1120765 -0.61852044
0.16125967 -1.1200941 -0.65028226
0.15551449 -1.1182667 -0.6886667
0.14181842 -1.1227919 -0.7723757
0.13830559 -1.1225277 -0.79509652
0.11773485 -1.1195726 -0.9293834
0.11318442 -1.1133146 -0.96400863
0.11090919 -1.1101859 -0.98132128
0.11010444 -1.1016037 -0.99400711
0.054392636 -1.0803282 -1.3693482
0.047236264 -1.088655 -1.4078529
0.034534812 -1.091952 -1.4862726
0.025864035 -1.0988179 -1.5357549
0.019877881 -1.1036675 -1.5698206
0.0093066096 -1.0966046 -1.6436977
-0.0082755387 -1.1112034 -1.7434418
-0.025522977 -1.088264 -1.8739965
-0.032152742 -1.0542827 -1.9462714
-0.11014053 -1.126449 -2.3821921
-0.12245965 -1.1268886 -2.4606724
-0.13592535 -1.1303885 -2.5438068
-0.15605962 -1.1463406 -2.6587014
-0.19369334 -1.0988597 -2.9413123
-0.21839446 -1.1024344 -3.0963094
-0.23211503 -1.1133471 -3.1745677
-0.23749852 -1.1077708 -3.2139275
-0.2476092 -1.0917152 -3.2927506
-0.30217898 -1.1423289 -3.597671
-0.31741238 -1.190132 -3.6532295
-0.32196528 -1.1838046 -3.6879313
-0.34049094 -1.1645048 -3.8234742
-0.37184477 -1.1957701 -3.9967527
-0.39436936 -1.2412761 -4.101006
-0.39851022 -1.2437251 -4.1253657
-0.40116417 -1.2405193 -4.1451702
-0.41251826 -1.2384326 -4.2196903
-0.42685592 -1.2335048 -4.3158054
-0.43906116 -1.2288327 -4.3980441
-0.45394051 -1.2429484 -4.4809093
-0.46146733 -1.24793 -4.5247221
-0.47600108 -1.2295624 -4.6338906
-0.48201299 -1.2286924 -4.6731424
-0.48802501 -1.2278222 -4.7123952
-0.49436772 -1.2294065 -4.7516098
-0.50004905 -1.2260822 -4.7908998
-0.51207304 -1.2243422 -4.8694043
-0.51775432 -1.2210178 -4.9086938
-0.52330381 -1.2221814 -4.9431996
-0.53077048 -1.2266406 -4.9870863
-0.53678256 -1.2257706 -5.0263391
-0.54233199 -1.2269341 -5.0608449
-0.54312521 -1.2273548 -5.0655537
-0.54880661 -1.2240305 -5.1048441
-0.56215346 -1.2321075 -5.1831994
-0.57490039 -1.2505696 -5.2485971
-0.60576594 -1.3197949 -5.385426
-0.60761631 -1.3253057 -5.3924341
-0.642057 -1.260119 -5.6701469
-0.64624423 -1.2510828 -5.7048855
-0.64377362 -1.2381531 -5.7004199
-0.63264292 -1.2291911 -5.6370292
-0.60051888 -1.2463384 -5.4163198
-0.58572781 -1.2329776 -5.3333569
-0.57156688 -1.213601 -5.2597094
-0.56624573 -1.2060806 -5.2322459
-0.55806929 -1.1991284 -5.1860042
-0.54996878 -1.2005808 -5.1328697
-0.54041749 -1.2046118 -5.0681844
-0.53332186 -1.1999853 -5.0268202
-0.5262149 -1.1982719 -4.9828258
-0.51367044 -1.2041917 -4.8973198
-0.50134981 -1.2037607 -4.8188224
-0.48869765 -1.2008777 -4.740355
-0.48122746 -1.1963143 -4.6965375
-0.4719879 -1.2063208 -4.6286016
-0.46471977 -1.2049196 -4.5833015
-0.451796 -1.1902666 -4.5134277
-0.44911617 -1.1908889 -4.4957252
-0.44017804 -1.1936575 -4.4360733
-0.43712723 -1.1929098 -4.4171987
-0.42250037 -1.1880825 -4.327796
-0.40301025 -1.1655288 -4.2228208
-0.39044297 -1.1485926 -4.1572332
-0.3673358 -1.1191219 -4.0351739
-0.36047006 -1.1165125 -3.9935105
-0.27535236 -0.80490482 -3.7221425
-0.27280837 -0.78812265 -3.7205884
-0.20772928 -0.52166271 -3.5378723
-0.20019603 -0.47703603 -3.5288212
-0.18794715 -0.43794301 -3.4847231
-0.17312688 -0.41358617 -3.4112265
-0.14788079 -0.38271102 -3.2767072
-0.13426083 -0.37449518 -3.1967251
-0.10748118 -0.36319825 -3.0352006
-0.03644529 -0.24042952 -2.6882076
0.055103689 -0.23494637 -2.1069298
-0.041419476 -0.27721679 -2.6877577
-0.1128917 -0.49745628 -2.9519777
-0.13677764 -0.64244652 -2.9776118
-0.14837158 -0.96127045 -2.77195
-0.12579399 -0.97901809 -2.6118295
-0.11556181 -0.98757732 -2.53881
-0.067801863 -0.90633404 -2.3043742
-0.065683186 -0.89916515 -2.2971039
0.01440528 -0.61884773 -2.0304639
0.052466244 -0.26288328 -2.0992897
0.74805558 -0.94983733 2.9568889
0.75699985 -0.90609634 2.9757509
0.75482666 -0.85976803 2.9211681
0.73762286 -0.60489762 2.5872874
0.77363312 -0.37749949 2.6181977
0.79001749 -0.14582497 2.5197101
0.80137753 -0.067540571 2.5237129
0.8066836 -0.028331146 2.5232613
0.81273746 0.010743827 2.5277152
0.88719594 0.34176898 2.7137978
0.92178088 0.54611182 2.7558222
0.93245232 0.62527573 2.7546449
0.93769509 0.664505 2.7537708
0.96480572 0.82115471 2.7898138
0.97538418 0.89996588 2.7883503
0.98071992 0.93954778 2.7877619
0.98596269 0.97877705 2.7868876
0.97849429 1.0598015 2.6679468
0.97679353 1.1391475 2.5874033
0.9505344 1.2195636 2.3486991
0.93196857 1.3914018 2.0789902
0.92628771 1.4230584 2.0148313
0.92204958 1.4202332 1.9901793
0.88814235 1.4211752 1.77228
0.88446814 1.4190166 1.750653
0.79418588 1.3115104 1.2670474
0.77375442 1.3475776 1.104584
0.76690394 1.3880472 1.0252006
0.74122977 1.3848851 0.86361188
0.6887387 1.3016795 0.60061079
0.68278509 1.3026522 0.56164205
0.66544908 1.2646632 0.48400724
0.64811307 1.2266742 0.40637255
0.63682371 1.1880651 0.3679924
0.58723152 1.1010447 0.12689817
0.57499152 1.1015134 0.048126996
0.56560397 1.1010963 -0.011605054
0.54823947 1.1797252 -0.19179742
0.54093736 1.2184259 -0.27251935
0.50983012 1.2177186 -0.47104523
0.46986246 1.2999429 -0.79909813
0.46824393 1.3396558 -0.84432256
0.4682602 1.4153857 -0.91069925
0.46050143 1.3995795 -0.94649464
0.44270951 1.3809642 -1.0440559
0.38547266 1.3736516 -1.4040633
0.37901917 1.3740822 -1.4457562
0.35324791 1.3702362 -1.6073661
0.30772924 1.3330532 -1.8661323
0.29566759 1.3316902 -1.9421539
0.26375273 1.3133965 -2.1304114
0.22129151 1.3172758 -2.4056511
0.21459854 1.315958 -2.4473424
0.20328888 1.3229945 -2.5259233
0.19678456 1.3209057 -2.5657299
0.19070496 1.3216203 -2.6052785
0.16115129 1.1569983 -2.6499629
0.056975842 0.70388293 -2.9191129
-0.01921165 0.68143463 -3.3871541
0.0087667108 1.1543146 -3.6231647
0.021901041 1.2113451 -3.5891445
0.035191715 1.2642063 -3.5504637
0.049111962 1.331365 -3.5203032
0.035839498 1.328567 -3.6028166
0.030541182 1.3310578 -3.6389227
0.017063975 1.3167663 -3.712657
-0.0012284517 1.3175159 -3.8304222
-0.0091879368 1.3146642 -3.878875
-0.021493584 1.3143468 -3.9573762
-0.026327997 1.3185986 -3.9920588
-0.037813306 1.3190149 -4.0659523
-0.056262076 1.3239335 -4.1883783
-0.064903438 1.3446772 -4.26191
-0.071390927 1.3533647 -4.311069
-0.089019358 1.3590168 -4.4288869
-0.10148135 1.3628683 -4.5120492
-0.10230163 1.3621347 -4.5166569
-0.11684027 1.3454734 -4.5951056
-0.13488674 1.3544014 -4.7184758
-0.1397292 1.3595725 -4.7540164
-0.1451292 1.3627546 -4.7913804
-0.15882897 1.3583943 -4.875258
-0.18179154 1.3746762 -5.0365562
-0.20898509 1.3947812 -5.2282972
-0.21592414 1.4027503 -5.2797165
-0.22567147 1.404325 -5.3435006
-0.25557631 1.3784046 -5.5121951
-0.2614274 1.3750085 -5.5466723
-0.27423418 1.3764057 -5.6298871
-0.29171395 1.3885843 -5.7524829
-0.28126341 1.3588319 -5.6594601
-0.26934022 1.3468015 -5.5725679
-0.25697517 1.3462253 -5.4929013
-0.24746156 1.0990365 -5.2149968
-0.22940797 1.1415949 -5.1367793
-0.2182917 1.1791947 -5.0986209
-0.15745121 1.3010552 -4.8161016
-0.15136081 1.3004265 -4.7765589
-0.13299751 1.2988811 -4.6576414
-0.10780442 1.2436227 -4.4478469
-0.066187441 1.2410003 -4.1791153
-0.058665276 1.1600627 -4.0599065
-0.028942317 1.1967769 -3.9018517
-0.017061472 1.1942906 -3.8236086
-0.0027175248 1.1154566 -3.6625738
-0.06383884 0.67381406 -3.6661649
-0.17553878 0.39447886 -4.1360421
-0.17674571 0.39971483 -4.1483655
-0.18274337 0.44597185 -4.2273698
-0.18913049 0.44075632 -4.2636814
-0.19583392 0.39625177 -4.2675271
-0.20655054 0.31745827 -4.266964
-0.2117697 0.2785899 -4.2662554
-0.20977747 0.24908519 -4.2276001
-0.2088123 0.20987263 -4.1869974
-0.20463318 0.19380657 -4.1461391
-0.19416714 0.23712958 -4.1171679
-0.090859115 0.39100471 -3.5908778
-0.084638804 0.39008051 -3.5502446
-0.067513317 0.38370928 -3.435015
-0.055876404 0.37077171 -3.3491585
-0.043105304 0.38267857 -3.2778516
-0.03608036 0.38644749 -3.2361867
0.044283211 0.44172266 -2.7702279
0.057820052 0.70262611 -2.9126048
0.073557824 0.15773168 -2.3335071
0.07058993 0.11551174 -2.3154438
0.070864469 -0.11548254 -2.1109037
0.1719142 1.1419325 -2.5678337
0.18229143 1.1230209 -2.4847972
0.17504911 0.80924296 -2.2557068
0.15342735 0.65242732 -2.2564645
0 0 0 1 0 0 0 1 0 0 0 1 0 0 0 0 0 298 1 0 0
