ply
format ascii 1.0
comment PCL generated
element vertex 410
property float x
property float y
property float z
element camera 1
property float view_px
property float view_py
property float view_pz
property float x_axisx
property float x_axisy
property float x_axisz
property float y_axisx
property float y_axisy
property float y_axisz
property float z_axisx
property float z_axisy
property float z_axisz
property float focal
property float scalex
property float scaley
property float centerx
property float centery
property int viewportx
property int viewporty
property float k1
property float k2
end_header
-7.5710926 -1.1187043 3.7629509
-7.6141768 -1.1184161 3.7725005
-7.8672628 -1.0789853 3.8260145
-7.9442329 -1.0384853 3.8403378
-8.0167351 -0.98275203 3.8526258
-8.0618496 -0.93227273 3.8591905
-8.0643311 -0.83896786 3.853354
-8.1448059 -0.67935473 3.8603013
-8.3452959 -0.48068285 3.8912315
-8.5066395 -0.32208502 3.9162099
-8.6266546 -0.2830264 3.9401927
-8.9030514 -0.048704609 3.9855421
-8.9824572 -0.050940469 4.0033321
-9.070919 -0.03265132 4.0217285
-9.0929937 -0.0076211244 4.0249176
-9.0288944 0.36915252 3.9848866
-9.1110973 0.60838789 3.9867673
-9.229599 0.68811017 4.0076299
-9.3134155 0.84650707 4.0154023
-9.5871582 1.0451303 4.0626063
-9.6534948 1.1252004 4.0718589
-9.678421 1.2828423 4.0666032
-9.5972939 1.294001 4.0478201
-9.5132093 1.3012205 4.0286493
-9.238637 1.2867045 3.9686577
-9.1261215 1.2850544 3.9437797
-9.0906734 1.2837551 3.9359953
-9.0112305 1.2842687 3.9183149
-8.9311047 1.29757 3.8996077
-8.740303 1.2834728 3.8581934
-8.6595287 1.2443452 3.8429313
-8.4237633 1.1647017 3.7960174
-8.1210251 1.376117 3.7143025
-8.0406332 1.3769765 3.6963875
-7.9160357 1.4145234 3.6661427
-7.7747416 1.4545983 3.6320162
-7.7316961 1.4560655 3.622355
-7.5916548 1.4207603 3.593667
-7.5265598 1.4174322 3.5794368
-7.467607 1.4170936 3.5663657
-7.4527903 1.4180492 3.5630093
-7.3935308 1.4186603 3.5498052
-7.3230705 1.4158952 3.5343447
-7.2838211 1.4159421 3.5256238
-7.277585 1.4155515 3.5242653
-7.2540302 1.4126253 3.5192337
-7.1698556 1.4147378 3.5003932
-7.0470214 1.3991401 3.4741781
-6.9702616 1.3910954 3.4576795
-6.9155722 1.3815926 3.446183
-6.7630997 1.3701441 3.413101
-6.6895328 1.378511 3.396188
-6.6408749 1.3844107 3.3849769
-6.5698919 1.3793249 3.3695588
-6.3802137 1.374717 3.3277445
-6.3343425 1.3771187 3.3173916
-6.3036566 1.3766268 3.3106096
-6.2964745 1.3765726 3.3090181
-6.2182846 1.3787303 3.2915037
-6.0651999 1.3253195 3.2611582
-6.1444259 1.3375006 3.2779212
-6.2651491 1.3663827 3.302758
-6.4180093 1.3501192 3.3378234
-6.5021844 1.3480068 3.3566642
-6.624815 1.3536497 3.3835156
-6.6962285 1.3342826 3.4007032
-6.7317028 1.3348107 3.4085462
-6.8540287 1.3255215 3.4363523
-6.9383049 1.3283863 3.4548748
-7.02248 1.3262739 3.4737155
-7.168128 1.3301224 3.5058022
-7.2139993 1.3277205 3.5161552
-7.2371182 1.3309035 3.5210721
-7.3238139 1.3350307 3.5400457
-7.3888621 1.3340181 3.554563
-7.413187 1.3314536 3.5601413
-7.5545359 0.80752933 3.6274042
-7.2546673 0.65034467 3.5715609
-7.1379972 0.60999399 3.5484095
-7.0573254 0.41032004 3.5441608
-6.8942375 0.25224122 3.5187595
-6.7831569 0.18654858 3.4985845
-6.782403 0.14670463 3.5011446
-6.462183 -0.13180672 3.4490871
-6.299685 -0.17016165 3.4156201
-5.9412751 -0.12803464 3.3331294
-5.8256459 0.11956835 3.2904959
-5.8452349 0.30371198 3.2822404
-5.8604112 0.34363955 3.2828779
-5.8636627 0.5029158 3.272696
-5.8533182 0.58246344 3.2649527
-5.860218 0.66436976 3.2608778
-5.8636346 0.73835772 3.2565715
-5.8466101 0.81854206 3.2473009
-5.8482356 0.89818007 3.2422099
-0.21578836 -1.0812377 2.1266906
-0.40269995 -1.1600041 2.1735981
-0.47341967 -1.1523856 2.1887841
-0.54311085 -1.1489463 2.2040279
-0.58150578 -1.1486273 2.212534
-0.6199007 -1.1483083 2.22104
-0.70383549 -1.1479833 2.2396607
-0.7492795 -1.152954 2.2500947
-0.83100557 -1.1743226 2.2697098
-0.90569258 -1.2129707 2.2889445
-0.94680643 -1.2337829 2.2995009
-1.0235958 -1.233145 2.3165131
-1.0791736 -1.2127808 2.3274634
-1.460736 -1.0873358 2.4036248
-1.5370748 -1.1343722 2.4238007
-1.7546353 -1.1474615 2.4730194
-1.7759285 -1.1558657 2.4783242
-1.8570957 -1.1368978 2.4950538
-1.9505429 -1.1273617 2.5151565
-2.0383644 -1.1110201 2.5335441
-2.0767586 -1.1107011 2.5420499
-2.2115254 -1.0896789 2.570544
-2.353631 -1.0590172 2.600008
-2.5141139 -1.0704955 2.6364391
-2.5909033 -1.0698575 2.653451
-2.6292493 -1.0720266 2.6621168
-2.7312541 -1.0418881 2.6827097
-2.8887358 -1.0219529 2.7163234
-3.2117279 -0.73427665 2.7683694
-3.4740031 -1.0070133 2.8452952
-3.5914912 -0.82063884 2.8586314
-4.1134243 -0.90050417 2.980026
-4.3581781 -0.87686664 3.0327706
-4.771997 -0.58271384 3.1045468
-5.2991452 -0.68565667 3.2286797
-5.3047376 -0.72075719 3.2323248
-5.4142237 -0.87933046 3.2674987
-5.4340696 -0.96882564 3.2780335
-5.8747749 -1.0002592 3.3780711
-5.9533353 -1.0468663 3.398711
-5.9914927 -1.0540638 3.4076788
-6.1908207 -1.0425415 3.4511631
-6.2593493 -1.0646027 3.4678943
-6.4239388 -1.0419065 3.5028975
-6.5434389 -1.0249461 3.5282788
-6.6198015 -1.0368509 3.5460548
-6.7067137 -1.045909 3.565979
-6.7496114 -1.0555627 3.5761681
-6.8645077 -1.0547431 3.6016316
-6.9410586 -1.056687 3.6187677
-7.0636473 -1.0531819 3.645756
-7.1451359 -1.0465991 3.6634049
-7.2167025 -1.0595598 3.6801877
-7.426527 -1.0748444 3.7278385
0.66900444 1.4696028 1.7555386
0.62090302 1.4741863 1.7659086
0.54676962 1.4553264 1.7836655
0.36993217 1.430709 1.8246285
0.30528164 1.4282824 1.8391541
0.2811327 1.430985 1.8443329
0.26653624 1.4318514 1.8475157
0.24258375 1.4337323 1.852707
0.19193983 1.4329042 1.8640122
0.021199703 1.3868786 1.9050865
-0.017790318 1.3894631 1.9135697
-0.087042809 1.3747447 1.9299591
-0.12532711 1.3698858 1.938795
-0.17083502 1.3698884 1.9489027
-0.24757624 1.3676378 1.9661019
-0.31138802 1.3583997 1.9809076
-0.38103056 1.3593255 1.9963126
-0.45260143 1.344451 2.0132275
-0.54151297 1.3478441 2.0327435
-0.66350412 1.3310719 2.0609875
-0.77859163 1.327038 2.0868256
-0.86957598 1.3220959 2.1073728
-0.99895549 1.3174682 2.1364262
-0.91492367 1.31216 2.1181252
-0.79993343 1.3211703 2.0919676
-0.68475008 1.3202276 2.0664487
-0.52407408 1.3217559 2.0306563
-0.46677685 1.3340818 2.017086
-0.42618465 1.3394364 2.0077033
-0.36378527 1.3431903 1.9935868
-0.28946447 1.3315643 1.9778752
-0.2676053 1.3324516 1.9729594
-0.20912647 1.3323282 1.9599789
-0.18147707 1.3356566 1.9536098
-0.076729774 1.3592243 1.9287308
0.045404434 1.3664504 1.9011089
0.15785694 1.3810346 1.8751335
0.2575717 1.4159858 1.850593
0.33198023 1.4229442 1.8335896
0.40406227 1.4153922 1.8180964
0.50282383 1.3881233 1.7980272
0.74943733 1.1984766 1.7562346
0.74949121 1.2382171 1.7535021
0.74112797 1.3150145 1.7501022
0.72953701 1.4312342 1.7447203
0.72466707 1.4495187 1.7445501
0.72067881 1.4681286 1.744162
0.23499823 -1.0672071 2.0256052
0.28097153 -1.0791442 2.0162113
0.44056702 -1.1352314 1.984603
0.65519047 -1.1340241 1.9368502
0.71419144 -1.052999 1.9181983
0.71900415 -1.0468985 1.9167118
0.74431467 -1.0040891 1.9081594
0.73148775 -0.88774437 1.9030435
0.79766989 -0.66479325 1.8730805
0.85132885 -0.3501485 1.8396218
0.86765337 -0.28036141 1.8312182
0.86970806 -0.22163482 1.8267415
0.86505175 -0.20096202 1.8263606
0.88290882 -0.00030501187 1.8086574
0.89589024 0.077544168 1.8004445
0.89226818 0.093623012 1.8001482
0.87571287 0.16712631 1.7987933
0.87469387 0.25699726 1.7928672
0.89003181 0.33120126 1.7843804
0.88737011 0.44569996 1.7771331
0.91124821 0.55029923 1.7646687
0.90389252 0.65264529 1.7592959
0.9029088 0.69496006 1.7566175
0.90411949 0.79582697 1.7494433
0.89799452 0.75339562 1.7537085
0.89892054 0.71356994 1.7562293
0.896842 0.65003955 1.7610402
0.886024 0.59545559 1.7671798
0.86203003 0.49583447 1.7793292
0.85607862 0.44593585 1.784067
0.8445816 0.32871479 1.7946457
0.82578468 0.19298096 1.808113
0.81437206 0.14859533 1.8136864
0.81104279 0.11974949 1.8164006
0.80868816 0.10632683 1.8178426
0.79997396 0.029305011 1.8250511
0.8052969 -0.066553578 1.8304312
0.7912755 -0.1654488 1.8403158
0.77116442 -0.2231883 1.8487356
0.52152634 -0.49770707 1.9229764
0.43294859 -0.49852931 1.9427068
0.17696762 -0.61762273 2.0077162
0.087403297 -0.62292886 2.0279727
0.064471722 -0.62346733 2.033103
0.048223019 -0.64333963 2.0380723
0.039169312 -0.66322273 2.0414443
-0.23281908 -1.0621026 2.1291633
-0.34563208 -1.0656291 2.1544619
-0.40098381 -1.0640516 2.1666479
-0.44652414 -1.0640458 2.1767626
-0.50625992 -1.0696427 2.1904137
-0.69113541 -1.0652463 2.2311757
-0.76777983 -1.0720731 2.2486668
-0.85886025 -1.0720614 2.2688959
-0.89015722 -1.0689409 2.2756336
-0.93574619 -1.0664469 2.2855887
-0.99843645 -1.0552298 2.2987449
-1.0773566 -1.0830126 2.318176
-1.4616089 -1.0446633 2.4008975
-1.5105822 -0.49753565 2.3743186
-1.9544208 -0.74277741 2.4896894
-2.0772808 -0.7147634 2.5150602
-2.0916209 -0.71290135 2.5181179
-2.1439214 -0.7331143 2.5311182
-2.3260493 -0.74192482 2.5721738
-2.357245 -0.74166572 2.5790851
-2.7515993 -0.30724299 2.6369352
-2.7900789 -0.30196208 2.6451204
-2.8285136 -0.29917109 2.653466
-2.9195037 -0.30581224 2.6741307
-3.2203932 0.088510215 2.7139664
-3.210499 0.12770221 2.7090857
-3.2041304 0.17673913 2.7043142
-3.1747541 0.28681183 2.6902537
-3.1491182 0.36941308 2.678905
-3.1319509 0.47376361 2.667948
-3.1162167 0.52836823 2.6607151
-2.9022856 0.75976706 2.597357
-2.8833303 0.77205139 2.5923059
-2.866312 0.88173437 2.581017
-2.6035211 1.3057224 2.4936223
-2.3842864 1.2570133 2.4482625
-2.3432508 1.244238 2.4400225
-2.0347543 0.84205228 2.3990355
-2.0483909 0.64188939 2.4157674
-2.0317214 0.52482241 2.4200792
-2.031673 0.52233422 2.420239
-2.0453775 0.36322182 2.4341755
-2.0314696 0.28171864 2.436666
-2.0347471 0.18546848 2.4439833
-2.0142944 0.087878853 2.4461217
-2.0092919 -0.013767347 2.4519691
-1.9963195 -0.059400633 2.4522119
-1.9618485 -0.12892814 2.4493153
-1.9587431 -0.12770255 2.4485416
-0.05518198 -1.0759362 2.0906551
-0.16301632 -1.0752087 2.1145566
-5.6737413 1.2741563 3.1777136
-5.5589824 1.2807544 3.1517725
-5.5132637 1.2906224 3.1409423
-5.317472 1.3132558 3.0959053
-5.2383823 1.3311071 3.0771167
-5.1393404 1.3601747 3.0531282
-5.0807996 1.38784 3.0382318
-5.0016508 1.3939447 3.0202341
-4.9418526 1.4034067 3.0063045
-4.8651118 1.4052665 2.9891322
-4.8196197 1.4077375 2.9788587
-4.7882748 1.4021497 2.9722791
-4.7186933 1.3973156 2.9571552
-4.6899986 1.399924 2.9506032
-4.6493058 1.4024343 2.9413931
-4.6218214 1.3995543 2.9354856
-4.5725975 1.3998518 2.9245319
-4.3703256 1.4706498 2.8747585
-4.3526497 1.4741094 2.8705955
-4.3217964 1.4708356 2.8639669
-4.2477188 1.4744948 2.8472629
-4.2099614 1.4839597 2.8382285
-3.8921225 1.3226669 2.7786751
-3.7577906 1.3240552 2.7487433
-3.6236315 1.3228681 2.7190263
-3.5923152 1.3255441 2.7118874
-3.5014663 1.3422158 2.6905677
-3.4630237 1.3394133 2.6822209
-3.3093975 1.335668 2.6483552
-3.26405 1.3456038 2.6376028
-3.1825454 1.3563094 2.6187668
-3.1678853 1.3572558 2.6154459
-3.1489632 1.3496375 2.6117647
-3.1103272 1.3368819 2.6040564
-3.0717878 1.3291028 2.596029
-2.9931278 1.324194 2.5788937
-2.9565561 1.3256717 2.5706697
-2.8796704 1.3200666 2.5539761
-2.834033 1.3150729 2.5441813
-2.7643418 1.3116591 2.5289359
-2.6783578 1.3223284 2.5091076
-2.5822756 1.3165667 2.4881611
-2.402257 1.3104727 2.4485941
-2.3638625 1.3101583 2.4400878
-2.2416778 1.3169774 2.4124823
-2.2034767 1.3266163 2.4033375
-2.165082 1.3263019 2.3948312
-2.0980368 1.3332169 2.3794663
-2.0430422 1.3405858 2.3667469
-2.0116975 1.334998 2.3601675
-1.9321985 1.3329257 2.3426516
-1.8652177 1.3309557 2.3279095
-1.7812822 1.3306242 2.309289
-1.7287402 1.3383688 2.2970886
-1.6661999 1.3325257 2.2835977
-1.6254864 1.3302375 2.2747116
-1.5678711 1.329944 2.2619348
-1.5295732 1.3346063 2.253109
-1.4740298 1.3231336 2.2415576
-1.4212947 1.320925 2.2299957
-1.4141483 1.3212222 2.2283881
-1.3374562 1.3255702 2.2110562
-1.2919154 1.3255529 2.2009423
-1.5522621 1.0298482 2.2790122
-1.57745 0.9678573 2.2888505
-1.6094985 0.88850731 2.3014011
-1.6439469 0.8091771 2.3144834
-1.6550312 0.7598657 2.3203211
-1.6824212 0.69007367 2.3311827
-1.6912024 0.64571917 2.3361697
-1.7184958 0.57095057 2.3473506
-1.7287529 0.5335387 2.35219
-1.7601218 0.36941725 2.370393
-1.7609749 0.28981197 2.3760321
-1.8037093 0.14660442 2.395328
-1.8144979 0.085532635 2.4019051
-1.8398905 0.0303507 2.4113228
-1.9003541 -0.05537115 2.4306211
0.090750217 -1.0667722 2.0576146
0.028486729 -1.0630587 2.0711899
-0.033441544 -1.0717812 2.085542
-2.918432 -0.36557078 2.6779838
-2.7736578 -0.94273227 2.6853399
-2.8548024 -0.97364348 2.7054791
0.1126256 -1.0675915 2.0528121
-5.3838634 0.58913064 3.1602249
-5.3661399 0.5417189 3.1595342
-5.3557515 0.50182754 3.1599579
-5.3181715 0.30247909 3.1652582
-5.2365046 0.10722415 3.1604862
-5.051301 -0.15265711 3.1371417
-4.7825608 -0.1863284 3.0797567
-4.4884605 0.066256449 2.9971418
-4.0665073 0.31837994 2.8861609
-4.0673304 0.35819232 2.8836184
-4.0812616 0.47700644 2.8785784
-4.1483335 0.67086309 2.8802047
-4.1764321 0.82816982 2.8756766
-4.1261873 0.98914087 2.8534966
-4.4946766 1.3075824 2.9135418
-4.6096067 1.3084675 2.9390085
-4.6934524 1.2913409 2.9588039
-4.8105755 1.3064592 2.9837832
-4.9234676 1.3005763 3.0092607
-5.0684371 1.2355279 3.0459132
-5.0998702 1.2349434 3.0529349
-5.4819531 0.82128417 3.1661186
-3.4482279 -0.46400273 2.8023958
-3.4579184 -0.38380378 2.799058
-3.6948919 -0.026789561 2.8272512
-3.8871179 0.021834403 2.8666179
-3.9038389 0.021077245 2.8703837
-4.2000561 -0.3407383 2.9609468
-4.1559696 -0.51242566 2.9629083
-4.0530519 -0.63273287 2.9482853
-1.1069927 1.3187081 2.1603374
-1.0615485 1.3236673 2.1499043
0 0 0 1 0 0 0 1 0 0 0 1 0 0 0 0 0 410 1 0 0
