ply
format ascii 1.0
comment PCL generated
element vertex 478
property float x
property float y
property float z
element camera 1
property float view_px
property float view_py
property float view_pz
property float x_axisx
property float x_axisy
property float x_axisz
property float y_axisx
property float y_axisy
property float y_axisz
property float z_axisx
property float z_axisy
property float z_axisz
property float focal
property float scalex
property float scaley
property float centerx
property float centery
property int viewportx
property int viewporty
property float k1
property float k2
end_header
-0.50305629 1.4295051 -5.6377387
-0.50598145 1.4083095 -5.7184644
-0.503631 1.4058903 -5.6552792
-0.5021683 1.4130684 -5.6152096
-0.49708176 1.4058799 -5.4786425
-0.49471086 1.3963876 -5.4155173
-0.49321645 1.3935931 -5.3754525
-0.48935521 1.3701992 -5.2733321
-0.48720157 1.3622196 -5.2159371
-0.48570099 1.3543466 -5.1761451
-0.48122287 1.3433454 -5.0563169
-0.47823507 1.335178 -4.976438
-0.47677368 1.3423438 -4.9364038
-0.47468567 1.3466605 -4.8797159
-0.47233167 1.3438421 -4.8164697
-0.46942329 1.3631738 -4.7363586
-0.46796912 1.3728395 -4.6963034
-0.46650052 1.3775054 -4.6562901
-0.46440154 1.3788136 -4.599566
-0.46291828 1.3783984 -4.559597
-0.45907071 1.3708365 -4.4564781
-0.45757216 1.3680816 -4.4162984
-0.45453334 1.3625849 -4.3348141
-0.45001316 1.3367094 -4.2151356
-0.44851601 1.331033 -4.1752467
-0.44544715 1.3026991 -4.0949254
-0.44401649 1.3130021 -4.0554481
-0.44108468 1.3243779 -3.9753926
-0.43961522 1.3289312 -3.9353662
-0.43813169 1.3286009 -3.8953824
-0.43664861 1.3278079 -3.8554511
-0.43515092 1.3228233 -3.8154876
-0.43368149 1.327262 -3.7754724
-0.4307147 1.3263695 -3.6955326
-0.42923838 1.328307 -3.6555481
-0.4277693 1.3323991 -3.6155717
-0.41702324 1.1995168 -3.3372216
-0.41558498 1.215435 -3.2970548
-0.41122892 1.2477275 -3.1767786
-0.40260017 1.3424271 -2.9358714
-0.39333034 1.2078074 -2.6974864
-0.38382435 0.98744619 -2.4601386
-0.38057199 0.8841061 -2.3813472
-0.37904054 0.86531097 -2.3416662
-0.37395057 0.40251249 -2.2443671
-0.37749413 0.84284151 -2.3018997
-0.37754995 0.86271018 -2.3016884
-0.37775129 0.93589592 -2.3007967
-0.37775832 0.93828094 -2.3007798
-0.37779346 0.95043337 -2.3006775
-0.37782845 0.96270168 -2.3005619
-0.36898082 1.3174204 -2.0312881
-0.3660183 1.3179023 -1.951345
-0.36454561 1.3206432 -1.9113882
-0.36159164 1.3236251 -1.8314595
-0.36009327 1.318866 -1.7914584
-0.35861644 1.3216667 -1.7513847
-0.35713077 1.3193479 -1.7115149
-0.35565805 1.3220888 -1.6715581
-0.35416409 1.3198897 -1.6314551
-0.35116324 1.3104316 -1.5513359
-0.34758523 1.327361 -1.4533718
-0.34528071 1.3212755 -1.3917419
-0.34376523 1.3115168 -1.3517113
-0.3416059 1.311729 -1.2934545
-0.33935568 1.3222392 -1.2318554
-0.33788297 1.32498 -1.1918985
-0.33637661 1.3229604 -1.151445
-0.3314122 0.73845625 -1.0680474
-0.33277291 0.70322734 -1.1077905
-0.3326394 0.6631797 -1.1076491
-0.32987967 0.42341948 -1.0539297
-0.33521351 0.18647179 -1.2182584
-0.33572385 0.17153549 -1.2333131
-0.33669397 0.14222106 -1.2620107
-0.33699208 0.13169476 -1.2709608
-0.33683482 0.10217685 -1.269269
-0.3366918 0.091584116 -1.2663265
-0.33634961 0.071597666 -1.2588245
-0.33521146 -0.028496161 -1.2367748
-0.34244263 -0.36259481 -1.4606693
-0.35271341 -0.30648729 -1.7328341
-0.35543865 -0.26635289 -1.8028691
-0.36350736 0.05509682 -1.9927185
-0.37383896 0.36274645 -2.2447929
-0.4955512 -1.2315574 -5.6652145
-0.49851787 -1.2308736 -5.7451687
-0.49872166 -1.2568214 -5.7529073
-0.498703 -1.2642453 -5.753046
-0.49719787 -1.27198 -5.713119
-0.49425465 -1.2649502 -5.6331306
-0.48537043 -1.2590626 -5.3930063
-0.48384887 -1.2741754 -5.3532743
-0.48232138 -1.2894101 -5.3133926
-0.47945619 -1.2549618 -5.2331395
-0.47801459 -1.2426161 -5.1931925
-0.4735921 -1.2334021 -5.0731177
-0.46917355 -1.2241073 -4.9531426
-0.46621543 -1.2220773 -4.8731842
-0.47042865 -1.2057635 -4.9854088
-0.47191897 -1.2028747 -5.0253544
-0.47801811 -1.2401972 -5.1930785
-0.48074067 -1.228207 -5.2654715
-0.48516852 -1.2342478 -5.385416
-0.16657357 -0.20360382 3.2964106
-0.16608183 -0.36360204 3.2958508
-0.16666482 -0.44345871 3.2732277
-0.16642229 -0.52350205 3.2728539
-0.16629604 -0.56345737 3.2728076
-0.16708302 -0.69837785 3.2399259
-0.16684008 -0.7783764 3.2395668
-0.16744764 -0.81801683 3.2197556
-0.16812821 -0.83792901 3.1996803
-0.16890144 -0.85783023 3.1771064
-0.17075229 -0.9229899 3.1215582
-0.17288451 -1.0427518 3.0537033
-0.17358069 -1.0573118 3.033669
-0.17480153 -1.0874836 2.9981353
-0.17625283 -1.1224291 2.9559736
-0.17817086 -1.1370674 2.9029777
-0.19192727 -1.1262152 2.5328929
-0.19408394 -1.1458563 2.4730284
-0.19755858 -1.1438786 2.3794854
-0.2032295 -1.0622452 2.2335882
-0.20027936 -1.0576161 2.313556
-0.19881186 -1.0528016 2.3535519
-0.19294943 -1.0310435 2.5135462
-0.19256881 -1.0347965 2.5234878
-0.1773259 -1.0422655 2.9339573
-0.17450121 -0.69761831 3.0399163
-0.17474508 -0.61764014 3.0402482
-0.1901525 -0.30560803 2.651654
-0.1901788 -0.29553124 2.6518149
-0.17181261 -0.11276717 3.1629567
-0.17087403 0.061776549 3.2033501
-0.17098738 0.096619889 3.2033033
-0.17102648 0.1417167 3.2061448
-0.17092125 0.15671048 3.210278
-0.17004216 0.28922957 3.2454367
-0.16973828 0.35235256 3.2590857
-0.16819003 0.33224824 3.2991061
-0.16658556 0.29208234 3.3389101
-0.16646391 0.25208288 3.3387361
-0.1670533 0.19643453 3.3180318
-0.16746667 0.092161536 3.2978745
-0.16743056 0.076440036 3.2974901
-0.16736762 0.056459591 3.2974615
-0.1673566 0.054003805 3.2975469
-0.1663224 -0.043651197 3.3170037
-0.1667486 -0.14608237 3.2966595
-0.17318499 1.2124809 3.2404327
-0.17333567 1.2924693 3.243279
-0.17688584 1.33286 3.1510177
-0.17716807 1.3354368 3.1436281
-0.187447 1.4539772 2.8766372
-0.1887942 1.4624656 2.8410354
-0.19027361 1.4632553 2.8012025
-0.19045867 1.4633132 2.7962162
-0.19175674 1.4629023 2.7611706
-0.19249722 1.4630599 2.7412128
-0.19321416 1.4555542 2.7212279
-0.19609718 1.430769 2.6413288
-0.19922242 1.4232445 2.5563886
-0.20335552 1.3830043 2.4414387
-0.21076564 1.3829463 2.2415762
-0.21513312 1.3574075 2.1215754
-0.21660635 1.3551334 2.0816445
-0.2255241 1.3620888 1.8417256
-0.22848737 1.3623029 1.761822
-0.23146668 1.367517 1.6819177
-0.23444602 1.3727311 1.6020131
-0.24029619 1.3469731 1.4420035
-0.24178623 1.3494614 1.4020307
-0.24587271 1.3821669 1.2946403
-0.24605718 1.3824029 1.2896852
-0.24689081 1.3823963 1.2672005
-0.24929775 1.3827929 1.2023177
-0.2581901 1.3826638 0.96247262
-0.25964841 1.3750337 0.92248076
-0.26987168 1.3269788 0.64259905
-0.27134645 1.3242298 0.60258561
-0.27432576 1.3294439 0.52268118
-0.2811439 1.39174 0.34417206
-0.28179064 1.3916533 0.32672101
-0.28216225 1.3915744 0.3166917
-0.28912181 1.3731693 0.12739664
-0.29362416 1.3899648 0.0074148774
-0.29955024 1.3889861 -0.15250087
-0.29964721 1.3889077 -0.15512317
-0.30251196 1.3885156 -0.23242229
-0.30538967 1.3603997 -0.31246597
-0.31107849 1.347086 -0.46704867
-0.31422824 1.3465441 -0.55204684
-0.31719336 1.3460248 -0.63206303
-0.31867203 1.3458213 -0.67196178
-0.3201507 1.3456178 -0.71186042
-0.32164958 1.3503691 -0.75187624
-0.32538113 1.3373665 -0.85364252
-0.3275404 1.3394057 -0.91170371
-0.32835725 1.34016 -0.93366992
-0.32982889 1.3378743 -0.97355866
-0.33130386 1.3355436 -1.0135416
-0.33197561 1.3361828 -1.0316039
-0.33814615 1.3912597 -1.1932709
-0.34049359 1.4314877 -1.2531081
-0.34132567 1.4316083 -1.2755394
-0.34478554 1.4214684 -1.3697315
-0.35125658 1.3405653 -1.5512503
-0.35394239 1.3401135 -1.6237282
-0.35421935 1.3400797 -1.6312009
-0.35650691 1.3358316 -1.6932656
-0.35799041 1.3385909 -1.7330383
-0.35947299 1.3387603 -1.7730103
-0.3609556 1.3389297 -1.8129823
-0.36392838 1.341768 -1.8929157
-0.36541095 1.3419374 -1.9328878
-0.36703309 1.3446766 -1.9764016
-0.36850953 1.342623 -2.0163999
-0.36999983 1.3456838 -2.0563302
-0.37294614 1.3385012 -2.136416
-0.38186058 1.3460624 -2.376193
-0.38332957 1.3420863 -2.4161556
-0.38481328 1.342186 -2.4561644
-0.38629672 1.3425176 -2.4961455
-0.38777974 1.343425 -2.5360653
-0.38926348 1.3435248 -2.5760744
-0.39073953 1.3419324 -2.6160226
-0.39223027 1.3444175 -2.6560142
-0.39370632 1.3428251 -2.6959624
-0.39518976 1.3431567 -2.7359436
-0.39667353 1.3431417 -2.7759635
-0.40115115 1.3550555 -2.8956995
-0.40409014 1.3458343 -2.9757633
-0.40707088 1.3517263 -3.0556469
-0.41003066 1.3502338 -3.1356039
-0.41449496 1.3563416 -3.2554824
-0.41743374 1.3473511 -3.3355215
-0.42446452 1.3760182 -3.5226705
-0.42641148 1.3766038 -3.5751312
-0.42928776 1.3449992 -3.6554372
-0.43221951 1.3337379 -3.735482
-0.43369591 1.3316845 -3.7754798
-0.43517956 1.3317854 -3.8154862
-0.4366627 1.3325771 -3.8554196
-0.4396506 1.3406813 -3.9353051
-0.43974334 1.3406515 -3.9378097
-0.44259632 1.3343621 -4.0152998
-0.44703978 1.3328559 -4.1352739
-0.44854349 1.3414934 -4.1750846
-0.44892129 1.3441048 -4.1850486
-0.45005471 1.3520534 -4.2149305
-0.45311195 1.3855153 -4.2944965
-0.45394641 1.3856943 -4.3169875
-0.45440984 1.3859496 -4.3294644
-0.4547807 1.3860613 -4.339457
-0.45700592 1.3866147 -4.3994255
-0.45907325 1.3974582 -4.454247
-0.46056402 1.399943 -4.4942384
-0.46342844 1.4042948 -4.5711193
-0.46361357 1.4043391 -4.5761085
-0.4674232 1.4002813 -4.6792083
-0.46891353 1.4031861 -4.7191525
-0.47187304 1.4014961 -4.799119
-0.47626656 1.3826411 -4.9192457
-0.47923321 1.3834105 -4.9991918
-0.48006731 1.3837496 -5.0216594
-0.48294115 1.3845344 -5.099102
-0.48451716 1.3849643 -5.1415706
-0.48970169 1.4158677 -5.2787318
-0.49119169 1.4189347 -5.3186536
-0.4951061 1.4276594 -5.4234757
-0.49621958 1.4274763 -5.4535232
-0.49714586 1.4281046 -5.4784508
-0.49862885 1.4286312 -5.5184035
-0.4987216 1.4286463 -5.5209036
-0.49964899 1.4287372 -5.5459085
-0.50001913 1.4291629 -5.5558543
-0.50076145 1.4290409 -5.5758862
-0.50159585 1.4292382 -5.5983739
-0.50205934 1.4293952 -5.6108603
-0.21117066 1.3367745 2.2266636
-0.21265659 1.3368987 2.1865973
-0.21348909 1.3370137 2.1641545
-0.21376854 1.3370258 2.1566184
-0.21395051 1.3370918 2.151716
-0.21645719 1.3373128 2.0841279
-0.21774629 1.3375708 2.049382
-0.22530988 1.3258935 1.8443766
-0.22980046 1.3388364 1.7243795
-0.23418683 1.3219544 1.6046166
-0.2356618 1.3196237 1.5646338
-0.2371368 1.317293 1.5246508
-0.23861846 1.3148724 1.4844799
-0.24010196 1.3176316 1.4447069
-0.24158455 1.3178009 1.4047348
-0.24305862 1.3128803 1.3645525
-0.24454212 1.3156395 1.32478
-0.25658944 1.1020021 0.9813965
-0.25705555 1.0420769 0.96364814
-0.2579765 0.62183291 0.90250355
-0.25863329 0.58746696 0.88182074
-0.2588034 0.58248818 0.8768025
-0.2664237 0.2234174 0.64025515
-0.26631927 0.15486977 0.63714987
-0.26691496 0.082646951 0.61484426
-0.26642728 -0.077310234 0.61417872
-0.26597136 -0.19731992 0.61610729
-0.26053715 -0.67785078 0.72115856
-0.25994939 -0.71786785 0.7335543
-0.24518475 -0.91467774 1.1147664
-0.2435886 -0.95236254 1.1545603
-0.24319524 -0.95990872 1.1645176
-0.23432702 -1.070852 1.3941169
-0.23249228 -1.0738201 1.4433448
-0.22987491 -1.0739484 1.513927
-0.22692478 -1.0693192 1.5938945
-0.22543457 -1.0720047 1.6338546
-0.22098666 -1.0725609 1.7537706
-0.21950823 -1.0702059 1.793849
-0.21803316 -1.0678914 1.8338325
-0.21508303 -1.0632622 1.9138002
-0.2136004 -1.0634476 1.9537723
-0.21175385 -1.0670218 2.0032661
-0.213237 -1.0694032 1.9630585
-0.21471334 -1.0714736 1.9230616
-0.21618283 -1.0732331 1.8832762
-0.21767299 -1.0731144 1.8430953
-0.21914932 -1.0751849 1.8030987
-0.22061881 -1.0769444 1.7633131
-0.22206748 -1.0833925 1.7236845
-0.22356446 -1.0835848 1.6832926
-0.22540766 -1.0820448 1.6337128
-0.22799343 -1.0897961 1.5633028
-0.22945592 -1.0940552 1.52349
-0.23093542 -1.093451 1.4836388
-0.23392658 -1.0908891 1.4031861
-0.24263094 -1.1498743 1.1633258
-0.24632309 -1.1297622 1.0654829
-0.2471468 -1.1290349 1.0433297
-0.24779277 -1.1287111 1.0259354
-0.25079244 -1.0885046 0.94850439
-0.25627822 -1.0467963 0.80415207
-0.25710917 -1.0463992 0.7817747
-0.26509807 -1.0659405 0.56461853
-0.2685594 -1.1226995 0.46636027
-0.2693972 -1.1226134 0.44377178
-0.27088052 -1.122184 0.40380222
-0.27161878 -1.121814 0.38392276
-0.27237067 -1.1220655 0.36362141
-0.28087479 -1.1143816 0.13492173
-0.28170687 -1.114261 0.11249036
-0.2884793 -1.0510557 -0.064708114
-0.28996524 -1.0509315 -0.10477442
-0.29144022 -1.053262 -0.14475727
-0.29289386 -1.0542481 -0.18404788
-0.2943902 -1.0579233 -0.2247231
-0.29587704 -1.0552092 -0.26459008
-0.29737058 -1.0525848 -0.30464548
-0.29883578 -1.0486624 -0.34382492
-0.30033329 -1.0496113 -0.38429606
-0.30180076 -1.0483916 -0.42376927
-0.30616704 -1.0755292 -0.54387611
-0.30918655 -1.0636402 -0.62428772
-0.31064954 -1.0625789 -0.66365474
-0.31363431 -1.0631323 -0.74420387
-0.31659186 -1.0652938 -0.82415879
-0.32251278 -1.0615399 -0.98352623
-0.32546669 -1.063725 -1.0633852
-0.32846108 -1.0588495 -1.1437249
-0.33288419 -1.0710216 -1.2640723
-0.33433756 -1.0730008 -1.3034414
-0.33732435 -1.0730135 -1.3839992
-0.34024543 -1.0773708 -1.4631593
-0.3417502 -1.0774156 -1.5037488
-0.34321806 -1.0746 -1.543095
-0.35043591 -1.1464411 -1.7439735
-0.35105959 -1.1464071 -1.7607915
-0.35173005 -1.1462507 -1.7788608
-0.35338056 -1.1462563 -1.8233774
-0.36503744 -1.1170441 -2.1352499
-0.36587128 -1.1171439 -2.1577475
-0.37328207 -1.1166419 -2.3575802
-0.37495071 -1.120703 -2.4029355
-0.37932187 -1.0821207 -2.5174961
-0.38228592 -1.0815332 -2.5973887
-0.38376811 -1.081489 -2.637361
-0.38526654 -1.0770839 -2.6773946
-0.38823107 -1.0771358 -2.7573545
-0.39261431 -1.0967219 -2.8772666
-0.3955473 -1.1068826 -2.9572499
-0.39852732 -1.1015447 -3.0371625
-0.40148401 -1.1042056 -3.117137
-0.40445596 -1.1011183 -3.1970263
-0.40595376 -1.0958247 -3.2369661
-0.40746772 -1.0860302 -3.2769527
-0.41791093 -1.129984 -3.562413
-0.42058676 -1.1560043 -3.6368299
-0.42503354 -1.1561365 -3.7567751
-0.42595983 -1.1559685 -3.781743
-0.43246007 -1.1505257 -3.9565902
-0.42330316 -0.92882836 -3.6904676
-0.42296088 -0.91892266 -3.6803801
-0.41389084 -0.63539344 -3.4112582
-0.41357183 -0.57140768 -3.3971274
-0.41222969 -0.52173245 -3.3566365
-0.41157362 -0.49192151 -3.3363664
-0.41124639 -0.47549143 -3.3261213
-0.40958256 -0.41267994 -3.2758195
-0.40957657 -0.41247505 -3.2756402
-0.40815791 -0.3903645 -3.2354679
-0.39886266 -0.056410156 -2.9559159
-0.3989259 -0.036519766 -2.9559033
-0.40081757 0.17091736 -2.9890025
-0.40085945 0.18581524 -2.9888444
-0.39019877 0.015323713 -2.7160451
-0.37509972 0.28296882 -2.2856891
-0.37509954 0.2831994 -2.2856638
-0.37461805 0.34253794 -2.2675512
-0.32422924 0.58986872 -0.88715267
-0.32117322 0.34490764 -0.82589233
-0.32086334 0.30476308 -0.8210026
-0.30814838 0.049240097 -0.50014389
-0.29950804 -0.34884965 -0.30149758
-0.2918728 -0.42202586 -0.10189033
-0.28093502 -0.60444254 0.17735153
-0.27800176 -0.59480095 0.25729781
-0.26672596 -0.16223937 0.5987857
-0.2677477 -0.12391622 0.57453901
-0.26753923 -0.077171192 0.58419985
-0.26725569 0.012757868 0.59961659
-0.26715779 0.042774498 0.60484964
-0.26694337 0.12263475 0.61753231
-0.27304024 0.4667145 0.48282021
-0.27380097 0.50170869 0.46532601
-0.27383673 0.54170853 0.46781713
-0.27396435 0.581945 0.46785158
-0.27412158 0.62422287 0.46726292
-0.27425686 0.70194292 0.47032863
-0.27447787 0.74194133 0.46782321
-0.27423653 0.78170592 0.47776777
-0.27347365 0.8619495 0.50527602
-0.27306253 0.94390392 0.52344447
-0.28307644 1.333895 0.28705245
-0.28684148 1.3354648 0.18564159
-0.2883189 1.3304991 0.14536506
-0.29345378 1.3347083 0.0072361827
-0.29493505 1.3344674 -0.032735467
-0.29641631 1.3342265 -0.072707117
-0.29937881 1.3337445 -0.15265042
-0.30427331 1.30733 -0.28694129
-0.3067081 1.3100402 -0.35237581
-0.30967063 1.3095585 -0.4323191
-0.31197184 1.310708 -0.49428537
-0.32164127 1.1093853 -0.77247149
-0.32540196 0.8699469 -0.89458561
-0.32487226 0.70989877 -0.89412594
-0.32447258 0.66986763 -0.88680506
-0.21052244 1.3366948 2.2441397
-0.20950609 1.3365391 2.271538
-0.20904487 1.336458 2.2839704
-0.20829815 1.3364465 2.3041096
-0.20605144 1.3286927 2.3640351
-0.20455793 1.3260684 2.4040902
-0.20170683 1.3632293 2.4841971
-0.19269936 1.3855838 2.7290676
-0.18825221 1.3852748 2.8489845
-0.17534749 1.1328021 3.1752248
-0.17501147 1.0527927 3.1773753
-0.17514141 1.0094382 3.1701255
-0.17517821 0.99446321 3.1678386
-0.17516644 0.92946732 3.1625414
-0.1752276 0.88948053 3.1574373
-0.17516465 0.80949396 3.152225
-0.17490888 0.84948641 3.1625781
-0.17480274 0.89282656 3.1691852
-0.17467545 0.97278321 3.1795259
-0.17479712 1.0127826 3.1796999
-0.17480241 1.0426816 3.1821404
0 0 0 1 0 0 0 1 0 0 0 1 0 0 0 0 0 478 1 0 0
