ply
format ascii 1.0
comment PCL generated
element vertex 261
property float x
property float y
property float z
element camera 1
property float view_px
property float view_py
property float view_pz
property float x_axisx
property float x_axisy
property float x_axisz
property float y_axisx
property float y_axisy
property float y_axisz
property float z_axisx
property float z_axisy
property float z_axisz
property float focal
property float scalex
property float scaley
property float centerx
property float centery
property int viewportx
property int viewporty
property float k1
property float k2
end_header
-10.810537 -1.0425363 -4.8986626
-10.73279 -1.0804194 -4.905901
-10.685852 -1.0808048 -4.9104304
-10.656985 -1.0810699 -4.9132161
-10.649003 -1.0809305 -4.9139881
-10.567975 -1.0800616 -4.9218183
-10.482655 -1.0785359 -4.9300675
-10.451347 -1.0795102 -4.9330835
-10.411636 -1.079198 -4.9369202
-9.8607626 -1.0290176 -4.990469
-9.7914257 -1.0133386 -4.9972758
-9.62082 -0.91169941 -5.0144715
-9.5217543 -0.89073026 -5.0241861
-9.3920183 -0.82937169 -5.037149
-9.1595163 -0.82703996 -5.0596161
-8.9748535 -0.88526702 -5.0770335
-8.9562225 -0.88509858 -5.0788341
-8.6988878 -1.0427679 -5.1025624
-8.611414 -0.96192479 -5.1115832
-8.265974 -0.95850325 -5.1449633
-8.088131 -0.99675333 -5.1618638
-8.0517273 -0.91639638 -5.1659498
-8.0550346 -0.83642614 -5.1661983
-7.5379839 -0.57531399 -5.2179794
-7.2263527 -0.77191722 -5.2466741
-7.2050591 -0.77152598 -5.248733
-7.1837664 -0.7711364 -5.250792
-7.1624746 -0.77074611 -5.2528505
-7.1049514 -0.61063397 -5.2595425
-7.1481438 -0.531048 -5.2559366
-7.1395397 -0.22936106 -5.2589102
-6.6499472 -0.1661694 -5.3066344
-6.6323681 -0.18601269 -5.3081908
-6.5484304 -0.34485602 -5.3151674
-6.4743824 -0.3824895 -5.3220506
-6.4288936 -0.38378435 -5.3264337
-6.3863091 -0.38300371 -5.3305511
-6.309845 -0.37521642 -5.3379898
-6.1184497 -0.44139731 -5.3560009
-6.2155027 -0.98565817 -5.3427639
-6.2633548 -1.0347811 -5.3377948
-6.2054214 -1.0005677 -5.3436317
-5.9029202 -0.76826119 -5.3744912
-5.6603808 -0.67536676 -5.3985705
-5.5835319 -0.65250307 -5.4061532
-5.5468798 -0.63507348 -5.4098163
-4.9564691 -0.62683576 -5.4668851
-4.9013777 -0.60583138 -5.4723539
-4.5146317 -0.74459338 -5.5087128
-4.1904531 -0.78219402 -5.5397482
-4.4936543 -0.58447742 -5.5118752
-4.5112066 -0.56209534 -5.5103393
-4.6727319 -0.23318887 -5.4970784
-4.4358406 0.056058615 -5.522007
-4.1188993 0.10111658 -5.5529308
-3.877075 -0.33725154 -5.5731683
-3.8778906 -0.6178692 -5.5710964
-11.594433 0.51212108 -4.8340111
-11.619148 0.070476681 -4.8284879
-11.466747 -0.28828567 -4.8406558
-11.495793 -0.36851114 -4.8372812
-11.500023 -0.44854063 -4.8363047
-11.274792 -0.56593764 -4.8572192
-11.000735 -0.84255791 -4.8817177
-10.948069 -0.88211632 -4.8865218
-0.11993313 0.22389984 -5.9399438
-0.13814068 0.33500752 -5.9389749
-0.13360167 0.41501522 -5.9399815
-0.12636471 0.45503664 -5.9409642
-0.048387527 0.7352941 -5.9504843
0.0031089783 0.85607964 -5.9563146
-0.18240786 1.1759458 -5.9406729
-0.19025517 1.2546906 -5.9404745
-0.19030237 1.2565116 -5.9404826
-0.21686602 1.2572081 -5.9379225
-0.37458229 1.256918 -5.9226913
-0.53399611 1.2562014 -5.9072933
-0.63123226 1.2721114 -5.8980174
-0.71071672 1.2715646 -5.8903384
-0.75060844 1.2712477 -5.8864841
-0.79079533 1.2708452 -5.8826008
-0.95042276 1.2770793 -5.8672314
-1.1896625 1.2276053 -5.8437791
-1.3501596 1.26616 -5.8285551
-1.4702768 1.2650826 -5.8169489
-1.590246 1.2640464 -5.8053575
-1.7102163 1.2630129 -5.7937655
-1.9501553 1.2609425 -5.7705827
-2.0306373 1.2726355 -5.7628942
-2.0701258 1.259908 -5.7589908
-2.3495092 1.2576501 -5.7319975
-2.4676127 1.247133 -5.7205186
-2.8201654 1.2706493 -5.6866431
-2.9421964 1.2522131 -5.6747289
-2.9835761 1.2492557 -5.670712
-3.0270743 1.248871 -5.6665092
-3.1841469 1.2483087 -5.6513381
-3.3036256 1.2479228 -5.6397986
-3.5595038 1.248745 -5.615097
-3.8234928 1.2458036 -5.5895853
-3.9454026 1.2849373 -5.5780916
-3.9854784 1.2847563 -5.5742207
-4.0255556 1.2845747 -5.5703492
-4.0858588 1.2842634 -5.5645242
-4.2669539 1.2832892 -5.5470304
-4.3965449 1.2828383 -5.534514
-4.4266968 1.2826825 -5.5316014
-4.5051589 1.2826742 -5.524025
-4.5849361 1.2823915 -5.5163198
-4.6645255 1.2821468 -5.5086331
-4.7437391 1.2819815 -5.5009828
-4.8639679 1.2814369 -5.4893699
-4.9441223 1.281074 -5.4816275
-5.0246501 1.2806334 -5.4738483
-5.1049914 1.2802305 -5.4660878
-5.3007879 1.2792578 -5.447175
-5.3708215 1.2659392 -5.4403176
-5.4114304 1.2654361 -5.4363928
-5.4736543 1.2648304 -5.4303803
-5.4915676 1.2645897 -5.4286489
-5.6877656 1.2630736 -5.4096932
-5.7691154 1.2745671 -5.4019198
-6.0054293 1.2601042 -5.3789988
-6.0866728 1.2615988 -5.3711643
-6.1661701 1.268356 -5.3635359
-6.2462001 1.2575102 -5.355731
-6.4061131 1.2558681 -5.3402781
-6.5114269 1.2547362 -5.330101
-6.5659723 1.2492269 -5.3247952
-6.646523 1.2533267 -5.3170462
-6.7261195 1.2525575 -5.3093548
-6.9262004 1.2429669 -5.2899671
-7.0861931 1.2488246 -5.2745595
-7.286828 1.2742028 -5.2553668
-7.4867616 1.2846621 -5.2361355
-7.7004848 1.2818685 -5.2154784
-7.7402205 1.2839924 -5.2116566
-7.8060474 1.2814565 -5.2052822
-7.8603411 1.2752304 -5.1999955
-7.9814315 1.2738523 -5.188293
-8.1152763 1.2726083 -5.1753602
-8.1792717 1.2720675 -5.1691771
-8.2588701 1.2712932 -5.1614852
-8.2987566 1.2708955 -5.1576309
-8.3386993 1.2754956 -5.1538067
-8.4187794 1.269655 -5.1460328
-8.5004978 1.2836279 -5.1382413
-8.5769081 1.2682443 -5.130754
-8.6565075 1.2674707 -5.1230621
-8.7387857 1.2838749 -5.1152339
-8.855772 1.2655019 -5.1038074
-8.8958378 1.2650809 -5.0999355
-8.9770222 1.2791233 -5.092196
-9.0166798 1.2737479 -5.0883284
-9.1754684 1.2672482 -5.0729499
-9.257925 1.2836288 -5.065104
-9.3770561 1.2825024 -5.0535927
-9.4544554 1.2594826 -5.0459557
-9.5742989 1.2582659 -5.0343747
-9.6140099 1.2578905 -5.0305376
-9.7342892 1.2641265 -5.0189676
-9.8534203 1.2630004 -5.0074563
-9.8926945 1.2551706 -5.0036087
-10.017147 1.2539529 -4.9915829
-10.101338 1.2809554 -4.983645
-10.260365 1.2801473 -4.9682837
-10.300433 1.2799101 -4.9644127
-10.460526 1.2789822 -4.9489474
-10.620442 1.2780734 -4.9334998
-10.700581 1.2775995 -4.9257584
-10.779469 1.2772658 -4.9181385
-10.938852 1.2764177 -4.9027424
-11.181927 1.274694 -4.8792586
-11.303198 1.2738621 -4.8675427
-11.37039 1.27351 -4.861052
-11.382755 1.2659496 -4.8598046
-11.380599 1.2336724 -4.8597836
-11.391501 1.073414 -4.8575926
-11.380667 0.9259724 -4.8575916
-11.377863 0.87348884 -4.8574896
-11.3801 0.83347905 -4.8569894
-11.592196 0.55213153 -4.8345113
-0.46180725 -1.2111107 -5.8967409
-0.21083117 -0.93584883 -5.9229298
-0.045403004 -0.89643884 -5.9391837
-0.010601521 -0.89692914 -5.9425406
0.0042109489 -0.8569231 -5.9442549
0.016541481 -0.81691837 -5.9457297
0.033839703 -0.77690983 -5.9476843
0.026211262 -0.69692361 -5.9475155
0.023610115 -0.65641379 -5.9475522
0.020940304 -0.55944258 -5.9479833
0.020569801 -0.39196044 -5.9491367
0.021675587 -0.33670723 -5.949636
0.022870064 -0.32144994 -5.9498596
0.022786617 -0.28395468 -5.9501181
-0.017100811 -0.21649224 -5.9467454
-0.054661274 -0.091017157 -5.9440098
-0.057154655 -0.07403633 -5.9438896
-0.056909561 0.023550034 -5.9446063
-0.057457924 0.063448042 -5.9448371
-0.059999943 0.10292628 -5.9448719
-0.66036844 -1.2299973 -5.8774338
-0.77951002 -1.2408299 -5.8658524
-0.86188126 -1.2346849 -5.8579421
-0.93850183 -1.2394437 -5.8505096
-1.0601687 -1.2334492 -5.8388042
-1.3407631 -1.2335685 -5.8117089
-1.4601188 -1.2194051 -5.8002849
-1.5397749 -1.1999656 -5.7927313
-1.9964976 -0.96253824 -5.7503161
-2.0971892 -0.9636097 -5.7405858
-2.2325945 -0.92550397 -5.7277818
-2.4922853 -0.9256444 -5.7027049
-2.5317304 -0.92583787 -5.6988945
-2.8621957 -0.92999911 -5.6669555
-2.9445341 -0.90860546 -5.6591568
-3.212568 -0.8928529 -5.6333871
-3.2299309 -0.89296651 -5.6317096
-3.2802305 -0.89394283 -5.6268458
-3.5039744 -0.83540726 -5.6056566
-3.6259956 -0.86184597 -5.5936866
-3.7024086 -0.83669829 -5.5864868
-3.7596271 -0.81707299 -5.5811014
-0.49414921 -1.2472519 -5.8933611
-0.53630304 -1.2652965 -5.8891625
-2.3837914 0.17651547 -5.7210088
-2.3879714 0.3356677 -5.7217355
-2.4166565 0.53623956 -5.7203903
-2.3956597 0.6963619 -5.7235546
-2.3872116 0.73679221 -5.7246575
-2.0714381 1.1167059 -5.7578468
-2.0316963 1.1169784 -5.7616863
-1.8727896 1.1255703 -5.7770915
-1.8330481 1.1258436 -5.780931
-1.7535625 1.1263912 -5.78861
-1.6717234 1.1301239 -5.7965388
-1.6320019 1.1328979 -5.8003941
-1.2963095 0.8239069 -5.8306141
-1.2653871 0.64432806 -5.8323245
-1.2644544 0.58696902 -5.8320074
-1.2634354 0.46699166 -5.8312535
-1.2627997 0.4270854 -5.8310313
-1.2637525 0.34662992 -5.830368
-1.2632523 0.24472849 -5.8296928
-1.261651 0.18687552 -5.8294363
-1.2622223 0.12475131 -5.8289399
-1.26158 0.08484228 -5.8287187
-1.2610898 0.044891939 -5.8284822
-1.2596822 -0.032382816 -5.8280692
-1.2593055 -0.076125205 -5.827795
-1.6257315 -0.43814552 -5.7898417
-1.6853974 -0.44108307 -5.7840595
-1.6651921 -0.6012063 -5.7848735
-2.061399 -0.9018091 -5.7444806
-2.4024491 -0.52674466 -5.7142124
-2.4063077 -0.36679232 -5.7149758
-2.4041672 -0.32678229 -5.715467
-2.4094782 -0.28682452 -5.7152376
-2.4141309 -0.046233535 -5.7164969
-2.3936024 0.15453839 -5.7199054
0 0 0 1 0 0 0 1 0 0 0 1 0 0 0 0 0 261 1 0 0
