ply
format ascii 1.0
comment PCL generated
element vertex 199
property float x
property float y
property float z
element camera 1
property float view_px
property float view_py
property float view_pz
property float x_axisx
property float x_axisy
property float x_axisz
property float y_axisx
property float y_axisy
property float y_axisz
property float z_axisx
property float z_axisy
property float z_axisz
property float focal
property float scalex
property float scaley
property float centerx
property float centery
property int viewportx
property int viewporty
property float k1
property float k2
end_header
-0.10010257 -1.2119167 -5.6508904
-0.09569332 -1.2196413 -5.6112933
-0.087201774 -1.237512 -5.5351229
-0.078408808 -1.2429627 -5.4558678
-0.069635063 -1.2409142 -5.3765678
-0.056189179 -1.2191712 -5.2544961
-0.051799178 -1.2193974 -5.2148542
-0.034155607 -1.2203196 -5.0555325
-0.021068752 -1.220976 -4.9373569
-0.0076037049 -1.2067345 -4.8153315
-0.003213644 -1.2069595 -4.7756891
0.018743008 -1.2105869 -4.5774922
0.027516812 -1.2085379 -4.4981918
0.032113642 -1.1838303 -4.4559546
0.03974992 -1.1598939 -4.3862886
0.048452199 -1.1531451 -4.307497
0.092891768 -1.1641365 -3.9064598
0.11120935 -0.92520142 -3.7340553
0.12092558 -0.84635329 -3.6440029
0.17491193 -0.89057386 -3.1577125
0.17699876 -0.89068055 -3.1388683
0.17902803 -0.89091623 -3.1205478
0.18324192 -0.81128657 -3.0801673
0.18609732 -0.69195288 -3.0508983
0.19818935 -0.47247767 -2.9352877
0.19945969 -0.45272076 -2.9232383
0.20470929 -0.29292977 -2.8711662
0.20005374 -0.1725698 -2.9097028
0.19773152 -0.11489008 -2.9289937
0.19415495 -0.012249559 -2.958302
0.19046837 0.068172842 -2.9892521
0.18590122 0.14853397 -3.0281568
0.19558877 0.56729335 -2.9284501
0.19556339 0.57979369 -2.9283147
0.1949442 0.69450974 -2.9305613
0.23325907 1.1528528 -2.5711513
0.24239105 1.1296974 -2.4893508
0.26808777 0.80751091 -2.2666659
0.26813939 0.64755154 -2.2708652
0.2685768 0.56753004 -2.2692485
0.27024478 0.48727208 -2.256525
0.27040777 0.40727806 -2.2573857
0.27527755 0.22077963 -2.2188432
0.27536589 0.18078202 -2.2192121
0.27536914 0.16691872 -2.2195871
0.27532265 0.078201503 -2.2225943
0.28488433 -0.059870914 -2.1402645
0.2901963 -0.24256326 -2.0976174
0.30029717 -0.22259285 -2.0058084
0.32034248 -0.22327174 -1.824788
0.33993849 -0.16649188 -1.6461498
0.37257805 -0.30527979 -1.3554118
0.4261961 -0.30711967 -0.87121147
0.4327274 -0.38734746 -0.81456375
0.43335462 -0.73488826 -0.81903511
0.45375031 -0.74807322 -0.63521492
0.47296488 -0.90863955 -0.46636033
0.47446138 -0.90867281 -0.45284569
0.47741267 -0.90874541 -0.42619312
0.49596208 -0.79199111 -0.25525796
0.54873723 -0.91143954 0.21789944
0.57151586 -0.51406986 0.43521476
0.57456148 -0.49402201 0.46330595
0.57671404 -0.47423398 0.48332405
0.59153044 -0.21572845 0.62467837
0.59987599 -0.17438267 0.70125747
0.60159111 -0.077075258 0.7195859
0.60142273 0.0029171258 0.72039795
0.60144454 0.12288088 0.72409368
0.600932 0.20256256 0.72178864
0.59893048 0.22930548 0.70449162
0.59644091 0.26917624 0.68316984
0.59427708 0.30928314 0.66479707
0.5918926 0.36677021 0.64493799
0.5867815 0.48651034 0.60226917
0.58438051 0.54899818 0.58240676
0.58564192 0.78889948 0.60079598
0.58789897 0.8292492 0.62235713
0.58978844 0.8689335 0.64057922
0.59655732 0.94928843 0.70405674
0.65319955 0.79045963 1.2109911
0.67194736 0.59093487 1.3744936
0.6748122 0.51084638 1.3980322
0.67544127 0.47061259 1.4025402
0.68049037 0.27063856 1.4423094
0.68305165 0.15609206 1.4621007
0.68713057 0.076068729 1.4966061
0.68727726 -0.12388597 1.492099
0.693241 -0.2848196 1.5412674
0.68533897 -0.50609028 1.4634466
0.68522513 -0.5237245 1.4619038
0.69273973 -0.76422286 1.522758
0.68908155 -0.88418114 1.4862208
0.69212079 -1.1254344 1.5066335
0.70556396 -1.1267208 1.6280086
0.73574233 -1.1296078 1.9004817
0.74286449 -1.1297518 1.9648013
0.74520981 -1.1298262 1.9859815
0.74973899 -1.1295717 2.0268941
0.76479089 -1.1318713 2.1627693
0.75628096 -0.89035404 2.0929551
0.80834681 -0.69530821 2.5688787
0.83080578 -0.8149327 2.768229
0.83857083 -0.85108638 2.8373051
0.84710181 -0.89153159 2.9131737
0.84701252 -0.85152602 2.9135342
0.83769286 -0.57112545 2.8375406
0.83423841 -0.45806968 2.8096395
0.82817733 -0.41089213 2.7562733
0.81565684 -0.25695211 2.6476841
0.80477118 0.024137035 2.5575681
0.8351804 0.33364272 2.8412361
0.83954859 0.33354792 2.8806858
0.84400129 0.33345681 2.920897
0.85254407 0.37076545 2.9991403
0.85259986 0.37326774 2.9997168
0.85290205 0.41327935 3.0036135
0.85316455 0.53324068 3.0094824
0.85445833 0.65320581 3.0246658
0.85406661 0.69321108 3.0222955
0.85346198 0.73323804 3.0180016
0.85375392 0.89320362 3.0253038
0.85428607 1.0132003 3.0336099
0.85469556 1.1331662 3.0408063
0.85430372 1.1731725 3.0384345
0.82679319 1.4163297 2.7970634
0.81362373 1.416267 2.6781211
0.80445242 1.4359878 2.5958652
0.80006266 1.4359674 2.5562186
0.79533875 1.4382081 2.5136194
0.78252804 1.4283822 2.3976326
0.77355695 1.4307075 2.3166771
0.76466769 1.4205611 2.2360978
0.75555408 1.4227817 2.1538527
0.74271983 1.4318713 2.0382047
0.73085034 1.4714603 1.9321592
0.7287156 1.4710968 1.9128687
0.7240001 1.4708385 1.8702724
0.71928442 1.4705796 1.8276751
0.71499729 1.4710318 1.7889693
0.71233428 1.4706792 1.7649076
0.70441723 1.4702737 1.6933932
0.68776155 1.4299579 1.5417905
0.68061793 1.4171882 1.4769003
0.63854873 1.1902701 1.0903318
0.6261971 1.2083446 0.97930527
0.58154219 1.1900412 0.5754683
0.56837267 1.1899786 0.45652533
0.55959308 1.1899364 0.37723112
0.53293997 1.1945704 0.13664722
0.51971209 1.1938075 0.017157078
0.49766564 1.1925375 -0.18199396
0.47555658 1.1912563 -0.38171017
0.46248427 1.1504939 -0.50096214
0.42790264 1.2286389 -0.81100875
0.42351425 1.2283891 -0.85065007
0.40562606 1.2273278 -1.0122389
0.39043412 1.2264812 -1.1494703
0.36325553 1.184801 -1.3961506
0.35659522 1.2044247 -1.455731
0.32594511 1.2226986 -1.7320162
0.29490182 1.2044331 -2.0129175
0.28739575 1.1661606 -2.0818253
0.24694318 1.2094848 -2.4459112
0.23338437 1.2505759 -2.5671697
0.22895272 1.2509847 -2.6071823
0.2290746 1.2110156 -2.6072474
0.22895363 1.1708751 -2.6095104
-0.099531978 -1.1745797 -5.6446481
-0.11249471 -0.89663196 -5.7536154
-0.11276257 -0.75915611 -5.7520251
-0.1144985 -0.61658788 -5.763545
-0.10947844 -0.45680737 -5.7135468
-0.11006594 -0.2268125 -5.7121449
-0.1112479 -0.01666072 -5.7166905
-0.11147326 0.063342661 -5.7163925
-0.11199382 0.17540626 -5.7178259
-0.11267748 0.36286846 -5.718533
-0.12057638 0.57590759 -5.783659
-0.12117597 0.8211574 -5.7819214
-0.12145296 0.94115394 -5.7809234
-0.11503023 1.2553005 -5.7137542
-0.11059827 1.254981 -5.6737361
-0.10173419 1.2543422 -5.5936985
-0.085927069 1.2532055 -5.4509687
-0.075289398 1.2799132 -5.3541155
-0.035442531 1.2495265 -4.9951229
-0.022167623 1.2485656 -4.8752575
-0.0045232773 1.247277 -4.7159395
0.013183802 1.2459972 -4.5560546
0.02645877 1.2450358 -4.4361892
0.053042859 1.2282176 -4.1965842
0.087933898 1.0658923 -3.8861985
0.10741873 1.1440618 -3.7079406
0.11900179 1.2067086 -3.6015005
0.12866642 1.1013191 -3.5172877
0.13856462 0.94101971 -3.4325666
0.13988829 0.86051649 -3.4229598
0.19418173 0.69463515 -2.9374442
0 0 0 1 0 0 0 1 0 0 0 1 0 0 0 0 0 199 1 0 0
