ply
format ascii 1.0
comment PCL generated
element vertex 404
property float x
property float y
property float z
element camera 1
property float view_px
property float view_py
property float view_pz
property float x_axisx
property float x_axisy
property float x_axisz
property float y_axisx
property float y_axisy
property float y_axisz
property float z_axisx
property float z_axisy
property float z_axisz
property float focal
property float scalex
property float scaley
property float centerx
property float centery
property int viewportx
property int viewporty
property float k1
property float k2
end_header
-6.9082313 1.2522359 -2.0518925
-6.9544382 1.2542627 -2.0614159
-7.0051918 1.2535272 -2.07195
-7.0608797 1.249243 -2.0835943
-7.1254339 1.2516248 -2.0969102
-7.1460557 1.2531631 -2.1011448
-7.2136207 1.253746 -2.1151292
-7.1195469 1.2406626 -2.0959623
-7.1184502 1.2407658 -2.0957325
-7.0330048 1.238385 -2.0780878
-7.0186634 1.2377791 -2.0751314
-6.9844465 1.2419937 -2.0679376
-11.463743 -1.0758822 -3.0534711
-11.443115 -1.082507 -3.0493612
-11.396179 -1.0791467 -3.0395532
-11.319846 -1.079082 -3.023736
-11.377773 -1.0498961 -3.0350146
-11.518566 -0.59869874 -3.0530005
-11.443927 -0.43371886 -3.0334458
-11.488352 -0.28882882 -3.0390584
-11.522902 -0.17641571 -3.0434301
-11.506512 0.069175839 -3.033946
-11.432665 0.21557748 -3.0150161
-11.382278 0.37749606 -3.0005624
-11.365088 0.62114662 -2.9909606
-11.391838 0.66108412 -2.995513
-11.435534 0.77972454 -3.0016251
-11.438936 0.85966033 -3.0003486
-11.373582 1.0540967 -2.9819875
-10.957895 1.2523 -2.8909471
-11.380266 1.1746085 -2.9803848
-11.463523 1.0957928 -2.999589
-11.446845 0.97834128 -2.9990449
-11.439954 0.93959922 -2.9985776
-0.42028666 1.1076691 -0.71122897
-0.41848755 1.1076169 -0.71085751
-0.46459961 0.98617083 -0.72342229
-0.47714758 0.94935769 -0.72693467
-0.48896217 0.91018206 -0.73035371
-0.4744935 0.66629428 -0.73340201
-0.21984625 0.34437019 -0.68862176
-0.095819473 0.34300429 -0.66295838
0.033993721 0.048201561 -0.64337051
-0.011956215 -0.16921067 -0.65828061
-0.040380478 -0.21335873 -0.66526437
-0.11660957 -0.19825169 -0.68068397
-0.15532494 -0.18824941 -0.68845749
-0.47768545 -0.31328759 -0.75834751
-0.53007364 -0.51136053 -0.77411234
-0.52362156 -0.5908156 -0.77474523
-0.34638262 -1.0514258 -0.7494415
-0.27114916 -1.0608827 -0.73408806
-0.26127958 -1.0608031 -0.73204124
-0.11333418 -1.1081529 -0.70256197
-0.074699879 -1.1081612 -0.69455755
-0.036645412 -1.1082182 -0.68667436
-0.018654823 -1.1087366 -0.68295968
0.010130882 -1.1095662 -0.67701614
0.020925999 -1.1098773 -0.67478728
0.088374615 -1.1088955 -0.66078806
0.10456657 -1.1093632 -0.65744495
0.086240768 -1.1096804 -0.66124976
-0.003285408 -1.1269004 -0.68022573
-0.032031059 -1.1310676 -0.68628478
-0.13995457 -1.1085547 -0.70808756
-0.3174758 -1.0672489 -0.74384439
-0.37548542 -1.0556316 -0.75557554
-0.40429068 -1.0522686 -0.76146042
-0.5546155 -1.0511155 -0.79257786
-0.59266949 -1.0510566 -0.80046088
-0.65021944 -1.0518266 -0.81240374
-0.71708012 -1.0484049 -0.82617199
-0.7458868 -1.0450423 -0.83205706
-0.86925793 -1.0531726 -0.85782009
-0.98340178 -1.0554976 -0.88152736
-1.0399747 -1.0595539 -0.89334935
-1.0975652 -1.0553256 -0.90517676
-1.1161041 -1.0569395 -0.90905792
-1.1634274 -1.0576901 -0.91888154
-1.1829438 -1.0560168 -0.92288369
-1.211729 -1.0551529 -0.92882639
-1.2961302 -1.0591309 -0.94641215
-1.4000673 -1.0589387 -0.9679423
-1.4390993 -1.0555942 -0.97594649
-1.4966509 -1.0563641 -0.98788977
-1.5244787 -1.0562871 -0.99365354
-1.5523055 -1.0562097 -0.99941713
-1.6664701 -1.0560372 -1.0230668
-1.7240202 -1.0568056 -1.0350096
-1.7908614 -1.055883 -1.0488358
-1.8196676 -1.052519 -1.0547208
-1.8660133 -1.0565563 -1.0644233
-1.894798 -1.0556906 -1.0703658
-2.0089614 -1.0555187 -1.0940151
-2.0665333 -1.0537891 -1.1059008
-2.1611605 -1.0577867 -1.1256058
-2.2187314 -1.0560575 -1.1374912
-2.3226278 -1.0608624 -1.1591368
-2.351434 -1.0574989 -1.1650217
-2.4655979 -1.057326 -1.1886712
-2.5119431 -1.0613608 -1.1983736
-2.6856377 -1.0701374 -1.2345793
-2.7310019 -1.0602083 -1.2437322
-2.7597876 -1.0593432 -1.2496748
-2.7885735 -1.0584784 -1.2556176
-2.8071322 -1.0575944 -1.2594409
-2.816401 -1.0584018 -1.2613814
-2.834939 -1.0600157 -1.2652624
-2.8442073 -1.0608237 -1.2672026
-2.8945038 -1.0648028 -1.2777224
-3.0075722 -1.0719516 -1.3013263
-3.1413515 -1.0669209 -1.3289195
-3.1598656 -1.0667886 -1.3327522
-3.2544458 -1.0715716 -1.3524671
-3.2832887 -1.0678474 -1.3583508
-3.3028603 -1.0654402 -1.3623462
-3.4170668 -1.0628167 -1.3859437
-3.5024574 -1.061419 -1.4036013
-3.5497339 -1.0650601 -1.4134868
-3.6166368 -1.0612948 -1.4272552
-3.7019725 -1.064893 -1.4450252
-3.8253963 -1.0659518 -1.4706239
-3.9096212 -1.0768237 -1.4883441
-3.9733343 -1.1004314 -1.50213
-4.3476629 -1.0914465 -1.5794652
-4.4517035 -1.0774264 -1.6006739
-4.4794612 -1.0784787 -1.606451
-4.5000362 -1.0787895 -1.6107218
-4.564878 -1.0745828 -1.6240523
-4.6028295 -1.0845348 -1.6321621
-4.7838311 -1.0881392 -1.6697534
-4.9166336 -1.0778915 -1.697015
-4.9675212 -1.0603197 -1.7071229
-5.0055547 -1.0627575 -1.7150636
-5.0436106 -1.0626965 -1.7229469
-5.081665 -1.0626345 -1.7308298
-5.1290092 -1.0608315 -1.7405945
-5.1577744 -1.062511 -1.7465961
-5.1958289 -1.0624495 -1.7544791
-5.243154 -1.0631448 -1.7643017
-5.281208 -1.063084 -1.7721846
-5.3631048 -1.0678468 -1.7892711
-5.410111 -1.0637691 -1.7989093
-5.4395065 -1.0630957 -1.8049831
-5.5540471 -1.0609652 -1.8286622
-5.6685271 -1.0638331 -1.8524525
-5.736093 -1.0632832 -1.8664379
-5.7536726 -1.062377 -1.8700578
-6.052844 -0.87202245 -1.9273247
-5.8157129 -0.44896546 -1.8677053
-5.6929951 -0.40988439 -1.8413104
-5.6253929 -0.41080761 -1.8273268
-5.5534987 -0.38800362 -1.8118654
-5.5346584 -0.36795199 -1.8074648
-5.5327621 -0.32796481 -1.8060807
-5.5896044 -0.30873105 -1.8173811
-5.6101651 -0.31225863 -1.8217286
-5.6688948 -0.315909 -1.8339874
-5.7450209 -0.33364627 -1.8501997
-5.8548212 -0.32900259 -1.8728344
-6.0604868 -0.19252214 -1.9120631
-6.1142282 -0.13300356 -1.9217224
-6.2769322 -0.028080881 -1.9528322
-6.3573155 0.041134059 -1.9677711
-6.4253402 0.079165399 -1.9809225
-6.6615443 -0.052304447 -2.0331211
-6.9340544 -0.33632174 -2.0966239
-6.9722242 -0.33644402 -2.1045353
-7.1119409 -0.35834953 -2.1340265
-7.1589003 -0.35718641 -2.1437271
-7.214572 -0.35971794 -2.1553247
-7.2527461 -0.35985431 -2.1632373
-7.3107305 -0.36739075 -2.1754382
-7.0052071 -0.80365634 -2.1229515
-7.3682122 -1.101254 -2.2055407
-7.4151721 -1.1000896 -2.2152414
-7.7006111 -0.79316741 -2.2667732
-7.7063742 -1.0696746 -2.274822
-7.7307429 -1.1479616 -2.2818117
-7.8378096 -1.3089998 -2.3079875
-7.6306686 -1.2142839 -2.2627215
-7.5812216 -1.2101817 -2.2523746
-7.5496092 -1.2109418 -2.2458436
-7.3442068 -1.1181545 -2.2009859
-7.2591095 -1.1166835 -2.1833179
-7.2103987 -1.1251175 -2.1734345
-7.1650047 -1.1315014 -2.1641877
-7.0974779 -1.1274285 -2.1500957
-6.9633141 -1.1644206 -2.123215
-6.794414 -1.1791375 -2.0885851
-6.7046914 -1.1570086 -2.0694468
-6.6964884 -1.1558858 -2.0677195
-6.5437913 -1.1553384 -2.0360682
-6.4821544 -1.1545346 -2.0232778
-6.4674416 -1.1550639 -2.0202425
-6.3657475 -1.176434 -1.9997021
-6.3068938 -1.1785535 -1.9875606
-6.221796 -1.1770821 -1.9698927
-6.1743731 -1.1534297 -1.9594806
-6.0038028 -1.1325727 -1.9236228
-5.9779449 -1.1321057 -1.9182537
-5.6953812 -1.2088542 -1.8616116
-5.5810895 -1.2526963 -1.8390181
-5.4586334 -1.2457669 -1.8134745
-5.4419341 -1.2457135 -1.8100132
-5.2286839 -1.2336297 -1.7655301
-5.1527791 -1.2137263 -1.7493098
-5.0386276 -1.2113532 -1.7255996
-4.9349651 -1.1903994 -1.7036022
-4.8821712 -1.1853486 -1.6925386
-4.8533564 -1.1865733 -1.6865988
-4.7734022 -1.1968763 -1.6702883
-4.7248788 -1.2129998 -1.6606344
-4.6869535 -1.200551 -1.652468
-4.4549232 -1.2198174 -1.6048708
-4.4311357 -1.2198429 -1.5999429
-4.2601099 -1.1975465 -1.5639552
-4.2313213 -1.1962724 -1.5579588
-4.1840172 -1.1951318 -1.5481294
-4.0558386 -1.2178659 -1.5221356
-3.9903164 -1.2131624 -1.5084434
-3.9501176 -1.2147732 -1.5001544
-3.9091425 -1.216943 -1.4917185
-3.8663526 -1.2144916 -1.482792
-3.8330774 -1.2120303 -1.4758366
-3.718925 -1.2096558 -1.4521264
-3.6429121 -1.1997458 -1.4361315
-3.6051497 -1.1723081 -1.4276272
-3.4786177 -1.0902293 -1.399376
-3.3593006 -1.0777577 -1.3743454
-3.1681929 -1.1529102 -1.3366126
-3.1393769 -1.154135 -1.3306725
-3.1301343 -1.152952 -1.3287282
-3.0447702 -1.1518508 -1.3110142
-3.0067101 -1.1518919 -1.3031294
-2.9501622 -1.1495674 -1.2913556
-2.9017744 -1.1532001 -1.2814201
-2.8637149 -1.1532419 -1.2735355
-2.825655 -1.1532837 -1.2656509
-2.7495363 -1.1533663 -1.2498817
-2.694073 -1.1462662 -1.2382143
-2.5277896 -1.158788 -1.2040721
-2.5065053 -1.1584091 -1.1996528
-2.4396658 -1.1593325 -1.1858271
-2.3117621 -1.1383033 -1.1588053
-2.2829776 -1.1391683 -1.1528628
-2.1976187 -1.1359773 -1.135098
-2.1502755 -1.1377276 -1.1253324
-2.1214895 -1.1385921 -1.1193895
-2.0844133 -1.135363 -1.1116276
-2.0463588 -1.1354206 -1.1037445
-1.9990342 -1.1346712 -1.0939206
-1.8468158 -1.1349008 -1.0623879
-1.8365681 -1.1373801 -1.0603261
-1.8180299 -1.135767 -1.0564451
-1.7707067 -1.1350172 -1.0466216
-1.7419205 -1.1358814 -1.0406787
-1.7038662 -1.1359384 -1.0327957
-1.656543 -1.1351888 -1.0229721
-1.6287351 -1.1327677 -1.0171506
-1.5433574 -1.1320758 -0.99944389
-1.475538 -1.1362849 -0.98549658
-1.4282143 -1.135535 -0.97567296
-1.3530841 -1.1323633 -0.96002799
-1.3242984 -1.133229 -0.95408523
-1.304781 -1.1349002 -0.95008284
-1.2759953 -1.1357648 -0.9441402
-1.228693 -1.1325166 -0.934259
-1.2111325 -1.1276165 -0.93049914
-1.1394029 -1.1139812 -0.9152993
-1.0887551 -1.1144176 -0.90481639
-1.0725627 -1.1149037 -0.90147346
-0.8877759 -1.057286 -0.86175883
-0.8590107 -1.0556514 -0.85575837
-0.47807407 1.0643027 -0.72427714
-0.58641958 0.98994476 -0.74856865
-0.59362793 0.94933563 -0.75106895
-0.60525942 0.90956849 -0.75446475
-0.60010338 0.83038789 -0.75535929
-0.58945608 0.74883705 -0.75517511
-0.59053659 0.7095477 -0.75637293
-0.57602978 0.58810955 -0.7563777
-0.57981968 0.46817416 -0.76013625
-0.59655762 0.39059943 -0.76552725
-0.61030626 0.3110528 -0.77034783
-0.82951689 -0.01622808 -0.82387984
-0.84602308 -0.033693552 -0.82773274
-0.81430149 -0.14906153 -0.82402033
-0.60959578 -0.35313627 -0.7866661
-0.57038927 -0.49312556 -0.78201324
0.28033638 -1.0826195 -0.62036383
0.29448509 -1.0676489 -0.61706126
0.15362787 -1.1085013 -0.6472584
0.18299294 -1.1092827 -0.64119363
0.21119881 -1.1101618 -0.63537145
0.22799969 -1.1087605 -0.63185561
-11.522141 -1.0525897 -3.0649934
-11.606388 -0.93356937 -3.0794978
-11.831606 -0.73224586 -3.1211705
-11.724075 -0.5963127 -3.095521
-11.626508 -0.41299897 -3.0707614
-11.587938 -0.13146168 -3.0557907
-11.591645 -0.091794074 -3.0555754
-11.527969 0.068488538 -3.038409
-11.477921 0.2545808 -3.0234261
-11.532423 0.50249988 -3.0285723
-11.436635 0.73853332 -3.0028744
-11.437145 0.77850252 -3.0019894
-11.440039 0.81847054 -3.0015979
-6.1963201 -0.63803685 -1.951251
-6.5768738 -0.37399939 -2.0235529
-6.9054623 -0.59833717 -2.0971951
-6.6815867 -1.0638131 -2.0623493
-6.6579351 -1.0650973 -2.0574808
-6.3926144 -0.97351456 -2.0002382
-6.2411251 -0.8338908 -1.9653896
-7.3290224 -0.36862275 -2.1792586
-7.4397182 -0.36501226 -2.2021043
-7.7066517 -0.73147625 -2.2664955
-7.7046986 -0.75069809 -2.2665672
-7.4644437 -0.34828985 -2.2068126
-7.5113678 -0.34962484 -2.216568
-7.6974926 -0.31015199 -2.254153
-7.7435985 -0.29102868 -2.2632318
-7.7906256 -0.28700686 -2.2728758
-7.8046384 -0.31202757 -2.2763991
-7.7986507 -0.35285762 -2.2761707
-7.7821665 -0.4736214 -2.2757492
-7.7294264 -0.63357526 -2.2687871
-7.7148533 -0.7325986 -2.2682226
-7.7107315 -0.75205994 -2.2678511
-10.55871 1.2601941 -2.8080435
-10.520477 1.2552416 -2.800245
-10.482337 1.2577848 -2.7922795
-9.8876667 1.132453 -2.6721759
-10.066458 1.2276754 -2.7068594
-10.129744 1.2369263 -2.7197423
-10.244576 1.261776 -2.7429185
-10.121102 1.2481484 -2.7176738
-10.074257 1.256917 -2.7077503
-10.013643 1.2575068 -2.6951768
-9.8991814 1.2602811 -2.6713927
-9.8316307 1.257113 -2.6574755
-9.6414948 -0.16195139 -2.65326
-9.663764 -0.20257896 -2.6588812
-9.7820282 -0.45878261 -2.6897359
-9.822216 -0.48886377 -2.698808
-9.9185658 -0.80892843 -2.7267053
-9.9343014 -0.88892508 -2.7319491
-10.171657 -1.1081874 -2.7865624
-10.192183 -1.1115576 -2.7908988
-10.312462 -1.1182712 -2.8159862
-10.344847 -1.1116863 -2.8225329
-10.459295 -1.1167806 -2.8463719
-10.468089 -1.117612 -2.8482146
-10.485679 -1.119272 -2.8519001
-10.582563 -1.1202068 -2.8719969
-10.608973 -1.1201984 -2.8774686
-10.617714 -1.126026 -2.8794241
-10.681238 -1.2284966 -2.8951259
-10.630086 -1.2072296 -2.8840005
-10.531998 -1.1826015 -2.8630669
-10.435113 -1.1816671 -2.8429699
-10.283037 -1.1240673 -2.8100333
-10.135204 -1.1210155 -2.7793279
-10.108761 -1.1208572 -2.7738452
-10.079432 -1.1191525 -2.7677259
-10.020714 -1.1207411 -2.7555995
-10.003075 -1.1214695 -2.7519631
-9.9385605 -1.1137258 -2.7384043
-9.9003983 -1.1136336 -2.730495
-9.8710394 -1.1144277 -2.724432
-9.7674026 -1.1277555 -2.7032895
-9.7453842 -1.1283513 -2.6987424
-9.6066647 -1.1253324 -2.6699259
-9.4628735 -1.1208551 -2.6400228
-9.4156008 -1.1223502 -2.6302652
-9.3378983 -1.1220304 -2.6141582
-9.2808895 -1.1187875 -2.6022658
-9.1781521 -1.1159481 -2.5809093
-9.1018553 -1.1132683 -2.5650346
-9.0519705 -1.1132429 -2.5546982
-8.9609547 -1.1103389 -2.5357685
-8.6749153 -1.2153711 -2.4791074
-8.6560726 -1.1953366 -2.4747069
-8.6138945 -1.1204093 -2.4641104
-8.6311407 -1.1205041 -2.4676859
-8.720252 -1.1098577 -2.4858851
-8.7761116 -1.1042241 -2.4973192
-8.8348322 -1.1026356 -2.5094461
-8.9375696 -1.1054742 -2.5308027
-8.9580946 -1.1062927 -2.5350757
-9.2447052 -0.72363341 -2.5849729
-9.1020784 -0.48411804 -2.549484
-9.059639 -0.43982401 -2.5395927
-9.0922155 -0.40283942 -2.5454257
-9.1873741 -0.16405502 -2.5592222
-9.1902399 -0.12408251 -2.558825
-9.2079716 -0.098273218 -2.5618589
-9.2638321 -0.092639625 -2.5732932
-9.3772812 -0.16277999 -2.5985374
-9.4982681 -1.1094055 -2.6470723
-9.5657902 -1.1087022 -2.6610451
-9.6650505 -0.52760327 -2.6672051
0 0 0 1 0 0 0 1 0 0 0 1 0 0 0 0 0 404 1 0 0
