ply
format ascii 1.0
comment PCL generated
element vertex 234
property float x
property float y
property float z
element camera 1
property float view_px
property float view_py
property float view_pz
property float x_axisx
property float x_axisy
property float x_axisz
property float y_axisx
property float y_axisy
property float y_axisz
property float z_axisx
property float z_axisy
property float z_axisz
property float focal
property float scalex
property float scaley
property float centerx
property float centery
property int viewportx
property int viewporty
property float k1
property float k2
end_header
-11.366657 1.0557226 -3.0591204
-11.36797 1.1763669 -3.0554805
-10.940308 1.2618076 -2.8062787
-10.904238 1.2545452 -2.7857876
-10.846808 1.2609737 -2.752507
-10.820686 1.2602285 -2.7375028
-10.750545 1.2625022 -2.6970584
-10.719717 1.2626953 -2.6793125
-10.707891 1.261939 -2.6725345
-10.66703 1.2589043 -2.6491325
-10.61932 1.2548814 -2.6218257
-10.58953 1.249495 -2.6048796
-10.559915 1.2516018 -2.5877614
-10.428726 1.2487795 -2.5123749
-10.369322 1.2455004 -2.4783108
-10.315573 1.2495898 -2.4472334
-10.280539 1.2543143 -2.4269013
-10.321911 1.2539639 -2.4507208
-10.375217 1.2628596 -2.481071
-10.446939 1.259903 -2.52245
-10.48837 1.2620488 -2.546212
-10.565633 1.261469 -2.5906923
-10.577391 1.2632241 -2.5973942
-10.660871 1.2620227 -2.6454747
-10.666352 1.2619026 -2.6486335
-1.8504884 0.37753817 2.3920507
-1.8516772 0.44747931 2.3939147
-1.8359323 0.64631373 2.4102185
-1.8305807 0.72560501 2.4161866
-1.8105667 0.88561958 2.4335327
-1.8347509 0.84637254 2.4181867
-1.8268149 0.4467608 2.408195
-1.8090334 0.52569252 2.4213026
-1.8135278 0.58797151 2.4209852
-0.41587448 -0.24575576 3.1948619
-0.44278145 -0.3251338 3.176487
-0.46392345 -0.44472039 3.1599646
-0.46989584 -0.52452797 3.1536205
-0.46920204 -0.56449503 3.1525636
-0.46229362 -0.64452022 3.1536233
-0.4404192 -0.72502953 3.1632776
-0.43903065 -0.80496085 3.1611645
-0.65665388 -1.1660991 3.0227816
-0.70113897 -1.1823766 2.9965904
-0.7266283 -1.1856779 2.9818027
-0.77437687 -1.1861179 2.9543109
-0.83720589 -1.1813318 2.9183316
-0.77832794 -1.1823229 2.9521756
-0.54718351 -0.7624895 3.1004777
-0.55273485 -0.44276053 3.1089313
-0.60846138 -0.16159889 3.0871077
-0.60801125 -0.12157428 3.0888247
-0.61296797 0.094296984 3.0938368
-0.61364651 0.13426375 3.0949025
-0.61058044 0.15830424 3.0975425
-0.61085987 0.25415927 3.1008739
-0.58596039 0.45344332 3.1224618
-0.49395657 0.57214379 3.1797278
-0.46655512 0.69155055 3.1998456
-0.37980843 0.84999192 3.2555344
-0.38451099 0.72225988 3.2481751
-0.38510323 0.68972987 3.246649
-0.41089439 0.61040246 3.2289181
-0.41504574 0.45019767 3.2206929
-0.44291258 0.29076704 3.1988494
-0.44155502 0.21083421 3.1967187
-0.44195461 0.15492663 3.1944518
-0.39059877 -0.0064532906 3.2181242
-10.79754 1.2647232 -2.7240198
-10.749951 1.2656944 -2.6966007
-10.736969 1.2655231 -2.689136
-0.75688934 1.4278077 3.0596015
-0.96874714 1.4140371 2.9371908
-0.77786303 1.4078881 3.0468068
-0.69578123 1.4099864 3.0941155
-0.59195852 1.4131552 3.1539738
-0.55138922 1.411266 3.1772494
-0.52865839 1.4114128 3.1903348
-10.84507 1.2612536 -2.7514961
-10.113636 1.2592137 -2.3306828
-10.083964 1.2588233 -2.3136227
-10.042474 1.2541782 -2.2899172
-10.078306 1.2514521 -2.3106351
-10.108038 1.2543402 -2.3276391
-10.154949 1.2563659 -2.3545589
-9.3447027 -0.040487286 -1.9355657
-9.2789583 -0.20043543 -1.9035614
-9.341012 -0.40381497 -1.9466779
-9.3494492 -0.44367343 -1.952985
-9.4170818 -0.64757776 -1.9993315
-9.4314938 -0.66738689 -2.0083463
-9.8888865 -0.85046738 -2.278213
-10.2875 -0.7246725 -2.5030043
-10.423842 -0.7620194 -2.5828197
-10.426773 -0.76167852 -2.5844939
-10.431247 -0.56425291 -2.5798755
-10.48201 -0.36257413 -2.6017389
-10.473114 -0.32258895 -2.5951633
-10.471649 -0.32275909 -2.5943267
-10.433411 -0.32444921 -2.5723844
-10.404917 -0.32241508 -2.5559137
-10.314696 -0.35856563 -2.5053158
-10.303431 -0.36621094 -2.4991114
-9.9179211 -0.39199147 -2.2782173
-9.872776 -0.37003389 -2.2514393
-9.6954899 -0.1273715 -2.1405842
-9.6942282 -0.044934258 -2.1368544
-9.6480789 0.025680088 -2.1077259
-9.6265268 0.031651586 -2.0951071
-9.6178474 0.032777891 -2.0900719
-9.5943909 0.036230519 -2.0764484
-9.5109739 0.032379881 -2.0285881
-9.5072193 0.032721251 -2.0264151
-9.3822641 -0.00032424927 -1.9557164
-7.7242332 1.106293 -0.96132219
-7.8781681 1.1508925 -1.0482761
-7.887434 1.151005 -1.0536038
-7.8053637 1.09368 -1.0084666
-7.7156487 1.0526322 -0.95833731
-7.7039604 1.0513772 -0.95165741
-7.6435328 1.052901 -0.91683018
-7.6077375 1.0572304 -0.89607465
-7.5960388 1.0585054 -0.88929653
-7.5554914 1.0705699 -0.86552477
-7.5259132 1.0922433 -0.84771502
-7.5082855 1.1106253 -0.8369019
-7.5327053 1.1124291 -0.85088778
-7.5534163 1.1131945 -0.86277771
-7.6113029 1.1067033 -0.89632392
-7.6866169 1.1013883 -0.93985546
-0.47366714 1.4267621 3.2225378
-0.4259181 1.4271696 3.2500288
-0.49197769 1.4258597 3.2119684
-0.62804556 1.4269353 3.1337101
-0.70909739 1.425719 3.0870264
-8.5037651 -1.2809575 -1.4968575
-8.4877663 -1.2806959 -1.4876418
-8.4653502 -1.2564304 -1.4738586
-8.6459055 -1.2805017 -1.5786324
-5.2350011 -0.11403781 0.42659596
-5.4701109 -0.20126542 0.28812924
-5.4791279 -0.21365866 0.28248897
-5.6990633 -0.34207112 0.15125372
-5.7585597 -0.33395174 0.11731346
-5.833971 -0.33763546 0.073785305
-5.901351 -0.33580518 0.035079777
-5.9607954 -0.33018488 0.0010784566
-5.9670272 -0.32986009 -0.0024957955
-6.0685039 -0.32827419 -0.060830504
-6.1278973 -0.32515049 -0.094893485
-6.2231417 -0.32388976 -0.14965394
-6.2286568 -0.32297 -0.15279385
-6.3004112 -0.3241947 -0.19412801
-6.3654723 -0.31265911 -0.23114583
-6.3716516 -0.31483194 -0.23478088
-6.6172767 -0.38333544 -0.37861612
-7.1046863 -0.3854785 -0.65916371
-7.1514349 -0.38512531 -0.68605137
-7.2641082 -0.56861085 -0.75757146
-7.27493 -0.58348256 -0.76434028
-7.1493258 -0.62322545 -0.69351208
-7.0248346 -0.74420434 -0.62628353
-6.90137 -0.62401873 -0.55085993
-6.625679 -0.41128001 -0.384469
-6.4122024 -0.35574317 -0.25960526
-6.3769155 -0.36197081 -0.23952708
-6.323966 -0.38026887 -0.20972499
-6.2864709 -0.3972854 -0.18876919
-6.1801229 -0.97867745 -0.14875409
-5.9748201 -0.86010206 -0.026297152
-5.7117724 -1.2091593 0.11235155
-5.7119894 -1.2602262 0.11036614
-5.6516156 -1.2497523 0.14548868
-5.6376619 -1.21902 0.15463765
-5.5445385 -0.97597635 0.21707788
-5.1151471 -0.6936481 0.47444767
-5.1070995 -0.65608215 0.48044685
-5.1074834 -0.63860095 0.48086298
-5.1225109 -0.45269391 0.47898844
-5.125289 -0.40856457 0.47899765
-5.1269088 -0.21506703 0.48511475
-5.1153469 -0.17551428 0.49320871
-5.0838733 -0.10451871 0.51390594
-5.0929713 -0.092575684 0.5091058
-5.1138153 -0.081565097 0.49751279
-5.1321564 -0.080380075 0.4870019
-5.1452866 -0.078640953 0.47950974
-5.1747899 -0.075665548 0.46264103
-8.7872181 -1.2793847 -1.6599069
-8.8066721 -1.2834104 -1.6712478
-8.8218584 -1.2657529 -1.6793432
-3.4701557 -0.367531 1.4329039
-3.0460186 -0.43805107 1.6743954
-3.4703748 -0.35754234 1.4331417
-3.5479984 -0.33791879 1.3891896
-3.5704355 -0.32934418 1.3765911
-3.6701677 -0.31612769 1.3196838
-3.7030454 -0.31589496 1.3007735
-3.7924514 -0.32490101 1.2489988
-3.8871155 -0.31582057 1.194857
-3.9531369 -0.31796536 1.1567883
-3.9860258 -0.32064894 1.1377653
-4.0061522 -0.3219308 1.1261374
-4.1709404 -0.27093464 1.0331711
-4.2082906 -0.24198169 1.0127337
-4.2673965 -0.22765225 0.97924447
-4.3038588 -0.23526993 0.9579854
-4.3148584 -0.24097097 0.95144832
-4.322845 -0.24655506 0.94664907
-4.5380082 -0.32656169 0.81992328
-4.5407991 -0.32611358 0.81833351
-4.5653563 -0.60857356 0.79391253
-4.5647068 -0.65008432 0.79277372
-4.449317 -0.72540641 0.85642838
-4.1685371 -0.64093465 1.0210747
-4.0697479 -1.1844653 1.0581195
-4.0331779 -1.181842 1.0792584
-3.9925637 -1.1841116 1.1025463
-3.9559925 -1.1814873 1.1236861
-3.9377079 -1.1801759 1.1342554
-3.8859301 -1.1842353 1.1639019
-3.8676448 -1.1829222 1.1744716
-3.8270311 -1.1851919 1.1977592
-3.9738183 -0.64510608 1.1329694
-3.7092049 -0.44416755 1.292556
-3.6233172 -0.42317972 1.3427429
-3.5117211 -0.40180466 1.4077373
-10.250247 1.2594173 -2.4092851
-10.190842 1.2561362 -2.3752208
-10.197058 1.2555163 -2.3788207
-10.244648 1.254544 -2.4062405
-1.8246725 -1.1525466 2.3511634
-1.7952323 -1.1530445 2.3680861
-1.8135436 -1.1539304 2.357517
0 0 0 1 0 0 0 1 0 0 0 1 0 0 0 0 0 234 1 0 0
