ply
format ascii 1.0
comment PCL generated
element vertex 216
property float x
property float y
property float z
element camera 1
property float view_px
property float view_py
property float view_pz
property float x_axisx
property float x_axisy
property float x_axisz
property float y_axisx
property float y_axisy
property float y_axisz
property float z_axisx
property float z_axisy
property float z_axisz
property float focal
property float scalex
property float scaley
property float centerx
property float centery
property int viewportx
property int viewporty
property float k1
property float k2
end_header
0.4514389 1.4137095 3.0969176
0.65589809 1.1331258 3.1027372
0.65596008 1.01328 3.1044304
0.65619469 0.97324806 3.1049981
0.65663767 0.73343378 3.1083896
0.61714792 0.6532076 3.1091645
0.65714216 0.37377143 3.1134748
0.65608835 0.33424056 3.1140237
0.45754385 0.17318088 3.1144965
0.38563442 -0.052898571 3.1170373
0.39742994 -0.21428196 3.1194239
0.39595032 -0.25353086 3.1199648
0.33909893 -0.80626136 3.1272566
0.65672255 -0.89054126 3.1313303
0.37858009 -0.85316294 3.1282775
0.18207502 -0.8558988 3.1265323
0.14211369 -0.85615939 3.1261733
0.10211992 -0.73673284 3.1241233
0.081457138 -0.57700133 3.1216795
0.061038971 -0.53705174 3.1209297
0.055810452 -0.45720029 3.1197543
0.25959253 -0.273417 3.1190081
0.37644386 -0.034464836 3.1166935
0.34356928 0.17040053 3.1135011
0.019978523 0.45020753 3.1066115
-0.018655777 0.70664835 3.1026382
-0.019304752 0.80924886 3.1011832
0.020251751 0.96932936 3.0992811
0.019910812 1.0094024 3.0987117
0.019205093 1.1294979 3.0970089
0.012228489 1.3993114 3.0931344
-0.48188734 1.4743532 3.0875893
0.01046896 1.4124749 3.0929325
0.4117918 1.415923 3.0965266
-9.4172173 -1.0167476 3.0416701
-9.5387878 -0.93248326 3.0393765
-9.5388136 -0.89262015 3.0388131
-9.5002432 -0.61741662 3.0352757
-9.5816441 -0.37581217 3.0311241
-9.7029619 -0.079514027 3.0258374
-9.5841751 -0.090491652 3.0270708
-9.5441799 -0.092708111 3.0274651
-9.503664 -0.092718944 3.027833
-9.4242773 -0.086861238 3.0284708
-9.3435192 -0.091714337 3.0292726
-9.3031111 -0.086683944 3.0295682
-9.2243843 -0.085446715 3.0302653
-9.1856213 -0.086991459 3.0306389
-9.1056643 -0.086426094 3.0313568
-9.0245247 -0.079035312 3.0319889
-8.9445515 -0.080969527 3.0327423
-8.9045887 -0.078186378 3.0330656
-8.8247976 -0.087492332 3.0339212
-8.784605 -0.084837139 3.0342486
-8.7856388 -0.12661184 3.0348294
-8.7560749 -0.24709882 3.0367997
-9.023942 -0.52765596 3.0383313
-9.0979338 -0.91930813 3.0431919
-9.0979309 -0.97406429 3.0439656
-9.1779661 -0.97465819 3.0432475
-9.3374233 -1.0160161 3.0423841
-9.3773193 -1.0163816 3.0420272
-4.3042483 1.478031 3.0528409
-4.3618279 1.4755337 3.0523536
-4.7817326 1.4049437 3.0495393
-4.4749784 1.0323917 3.0575862
-4.479228 0.95219857 3.0586805
-4.4958744 0.79214096 3.0607903
-4.5127301 0.67207074 3.0623333
-4.5100207 0.6320979 3.0629225
-4.488976 0.43227583 3.0659363
-4.4835558 0.35232896 3.0671148
-4.4704299 0.23243855 3.0689273
-4.8226085 -0.073615566 3.0700538
-5.244493 0.10377303 3.0637186
-5.3635144 0.38543814 3.0586596
-5.3562412 0.42547357 3.0581601
-5.3639598 0.46541709 3.0575256
-5.2474003 0.74701887 3.054606
-5.2080631 0.96193159 3.0519271
-5.329205 0.95183545 3.0509701
-5.5689502 0.98517787 3.0483229
-5.648653 1.0244302 3.047045
-5.6954308 0.98390383 3.0471928
-5.8952494 0.74336952 3.0487769
-5.8440943 0.30812693 3.0553892
-5.8440251 0.29562968 3.0555665
-5.9264607 -0.076503694 3.0600748
-5.9388657 -0.086071461 3.0600972
-5.9288092 -0.09600468 3.060329
-5.8034806 -0.55813807 3.0679946
-5.8019972 -0.79310465 3.071327
-5.8433614 -0.96534926 3.0733845
-5.6425247 -0.84438115 3.073499
-5.3229675 -0.9220925 3.0774972
-5.2939105 -0.92170614 3.0777557
-5.0185528 -0.87455922 3.0795891
-4.8191686 -0.89839405 3.0817356
-4.6390362 -0.94703013 3.0840578
-4.2254791 -0.96125442 3.0880125
-4.1868405 -0.95278412 3.0882437
-4.1845994 -0.88925487 3.0873666
-4.3847284 -0.78569335 3.0840871
-4.6631331 -0.82808 3.0821588
-4.7858181 -0.82727408 3.0810337
-5.0195179 -0.67458797 3.0767555
-5.0455503 -0.4004795 3.0726473
-4.6220584 -0.18491586 3.0734465
-4.2278805 -0.27967268 3.0783629
-4.1427145 -0.030155867 3.0756114
-4.151526 0.14642222 3.0730371
-4.1478376 0.2783742 3.0712068
-4.1430035 0.31838685 3.0706854
-4.138308 0.39339134 3.0696685
-4.1261621 0.47842854 3.0685775
-3.6368399 0.63955122 3.0707433
-3.7006521 0.76064765 3.0684536
-3.7422562 0.84347785 3.0669057
-3.7722168 0.84082979 3.0666714
-4.1051106 1.1184131 3.0597284
-4.1020145 1.1985468 3.0586247
-2.3457656 -0.76995593 3.1023729
-2.425725 -0.32616812 3.0953782
-1.9505558 -0.11246003 3.0966725
-1.9453282 -0.16992106 3.0975318
-1.930022 -0.24982511 3.0987995
-1.9478581 -0.34809804 3.1000257
-1.9486439 -0.37024134 3.1003313
-1.5521963 -0.67144221 3.1081846
-1.3902967 -1.1830195 3.1168807
-1.3867838 -1.1869178 3.1169674
-1.3503263 -1.1853206 3.117276
-1.3051121 -1.187224 3.1177132
-1.2669039 -1.1863273 3.1180472
-1.1817315 -1.1880333 3.1188445
-1.1452744 -1.1864375 3.119153
-1.1834836 -1.1873331 3.1188188
-1.2817109 -1.1685317 3.1176615
-1.3191729 -1.168716 3.1173241
-2.0339456 1.4040885 3.0744934
-1.9360871 1.4464184 3.0747838
-1.9159777 1.4454048 3.0749805
-1.7534218 1.4226017 3.0767782
-1.8333213 1.4172066 3.0761292
-1.9115086 1.4210764 3.0753648
-2.0317569 1.4031717 3.0745263
-2.2296238 1.4034916 3.0727255
-2.2513547 1.4041266 3.0725193
-2.274579 1.40327 3.0723207
-2.2620912 1.4033306 3.0724332
-2.2342913 1.403329 3.0726855
-3.0986514 0.018516451 3.0844011
-2.5859318 0.14480674 3.0872712
-2.5568185 0.1621953 3.0872898
-2.5234375 0.18501644 3.0872705
-2.4712975 0.1983507 3.0875554
-1.9511397 0.032500893 3.0946198
-1.9899111 0.52430356 3.0873206
-1.9684303 0.605735 3.0863655
-2.031944 0.68715602 3.0846388
-2.0900605 0.60587537 3.0852594
-2.1470723 0.48246884 3.0864851
-2.5873039 0.1054301 3.0878148
-1.3902917 1.4254121 3.0800347
-1.1570199 1.4093561 3.0823791
-1.3930569 1.4066104 3.0802753
-1.4745092 1.4068571 3.0795324
-1.5162199 1.4073927 3.0791461
-1.5579312 1.4079304 3.0787599
-1.635989 1.4067543 3.078068
-3.1269016 -0.3015765 3.0886662
-3.1954448 -0.10204814 3.0852256
-3.1041348 0.018758178 3.084348
-10.789672 1.069461 2.9997432
-10.813316 1.1495807 2.9983969
-10.81358 1.0850183 2.9993064
-10.813343 1.0525292 2.9997675
-11.05303 0.59571254 3.0040445
-11.013887 0.52920568 3.0053394
-10.950254 0.11150026 3.0118172
-10.94977 0.47430259 3.0066969
-10.713079 0.79360098 3.0043352
-10.749111 0.98980588 3.0012364
-1.0253956 -1.1858457 3.1202328
-1.0653553 -1.1860437 3.1198728
-1.1035624 -1.18694 3.1195385
-1.0636032 -1.1867435 3.1198986
-1.1172805 1.4096456 3.0827355
-1.0773196 1.4098433 3.0830956
-1.1174994 1.4097376 3.0827324
-1.9327397 -0.0091884136 3.0953755
-1.9478519 -0.051157862 3.0958312
-2.3838029 -0.81334221 3.1026404
-2.2252927 -0.91682583 3.105541
-2.2263143 -0.77169031 3.1034815
-1.9492781 -0.42987609 3.1011679
-0.94197369 -1.1868529 3.1210041
-0.9037652 -1.1859556 3.1213384
-0.9454751 -1.1854516 3.1209526
-0.98368454 -1.1863488 3.1206183
-1.5918319 1.4226592 3.0782442
-1.6735024 1.4229965 3.0774982
-3.0211511 -0.42098933 3.0913129
-3.0212858 -0.4258967 3.0913808
-10.939278 0.04214672 3.0128965
-10.924402 0.028585367 3.0132232
-10.846395 0.015450224 3.0141168
-10.774343 -0.0021154135 3.0150189
-10.814396 0.010123074 3.0144825
-10.963031 0.067320906 3.0123255
-10.969927 0.074267395 3.0121646
-10.957333 0.096677259 3.0119624
-4.8616624 1.4070474 3.048784
-4.8234529 1.4079792 3.0491176
-4.9033427 1.4000847 3.0485041
-4.9415717 1.4041522 3.0480995
0 0 0 1 0 0 0 1 0 0 0 1 0 0 0 0 0 216 1 0 0
