ply
format ascii 1.0
comment PCL generated
element vertex 255
property float x
property float y
property float z
element camera 1
property float view_px
property float view_py
property float view_pz
property float x_axisx
property float x_axisy
property float x_axisz
property float y_axisx
property float y_axisy
property float y_axisz
property float z_axisx
property float z_axisy
property float z_axisz
property float focal
property float scalex
property float scaley
property float centerx
property float centery
property int viewportx
property int viewporty
property float k1
property float k2
end_header
-3.6052723 -0.087591007 -0.1609304
-3.4522789 -0.60272074 -0.075549781
-3.8856959 -0.34757012 -0.2737295
-4.0271521 -0.65487981 -0.32423702
-4.0274334 -0.6948384 -0.32290971
-4.0718021 -0.76932091 -0.33954656
-4.0815082 -0.60632676 -0.34969196
-4.0895205 -0.56905591 -0.35453701
-4.1814075 -0.33400941 -0.40311843
-4.1954966 -0.23321222 -0.41291738
-4.2095571 -0.17360522 -0.42120916
-4.2007203 -0.093497038 -0.42026418
-4.1771169 -0.081645787 -0.41040581
-4.0936165 -0.083401442 -0.37394547
-4.0667548 -0.087779403 -0.36207789
-4.0173812 -0.12659757 -0.33914798
-3.5797005 0.032690141 -0.15414855
-3.4869146 0.098422855 -0.1160897
-3.4379649 0.10821408 -0.09510836
-3.3890154 0.11800197 -0.074127138
-3.34165 0.12011947 -0.053557992
-3.2585621 0.13069557 -0.017724752
-3.1299765 -0.0022244975 0.043147326
-2.9842215 -0.20524949 0.11404735
-3.1816902 -0.042869236 0.022080839
-3.3676343 -0.0054505281 -0.060327649
0.97727299 -0.13217686 1.8381608
0.95918894 -0.31237385 1.836817
0.80915689 -0.32122287 1.7717412
0.81617022 -0.30446509 1.7741899
0.85097647 -0.0036067218 1.7784443
0.81468964 0.11645451 1.7582705
0.80344677 0.27651992 1.7475615
0.80268192 0.31654483 1.7457757
0.80412102 0.39636871 1.7435064
0.80335474 0.4363915 1.7417202
0.80456972 0.47626713 1.740803
0.8038044 0.51628977 1.7390168
0.80447674 0.63613844 1.734961
0.86913347 0.79457414 1.7573948
0.86958122 0.87447345 1.7546906
0.87003088 0.95437175 1.7519872
0.87070513 1.0742196 1.7479322
0.45196915 1.4067885 1.5533428
0.38862133 1.4115373 1.5255578
0.33973694 1.4167783 1.5040596
0.27360153 1.4173957 1.4752095
0.19521761 1.4230058 1.4408395
0.17786551 1.4230253 1.4332752
0.13145828 1.4243658 1.4129982
0.10207891 1.4225086 1.4002595
0.024961948 1.4285024 1.3664279
-0.015855789 1.4285702 1.3486333
0.00085639954 1.4294542 1.3558857
0.021178722 1.4292134 1.364753
0.0869174 1.4277055 1.3934624
0.12098265 1.4285703 1.4082794
0.14119005 1.4304748 1.4170184
0.16069603 1.4307213 1.4255118
0.2158103 1.4306502 1.4495382
0.27505827 1.4306973 1.4753618
0.30743313 1.4299794 1.4894998
0.43161964 1.463629 1.5424099
0.5183444 1.4486176 1.5807569
0.88721466 1.1928792 1.750823
0.89479637 1.1323625 1.7563236
0.95700788 0.92537135 1.790952
0.96361446 0.86742538 1.7959344
1.0054011 0.70955646 1.8198771
0.99709892 0.58857214 1.8206487
0.98659229 0.42778572 1.8219035
0.96926832 0.2874938 1.819443
0.96426964 0.18890999 1.8208413
0.96034098 0.10831596 1.8220534
-7.8171506 -1.3153276 -1.9522834
-7.6921597 -1.2420349 -1.900461
-7.7528844 -0.75722647 -1.9445226
-7.2777643 -0.66631258 -1.7407227
-7.1869793 -0.85018337 -1.6944785
-7.0942159 -0.85839403 -1.6537461
-6.6446285 -0.92678112 -1.4552951
-6.5730033 -0.89545059 -1.4252115
-6.4385452 -0.8519991 -1.3681798
-6.5586329 -0.39707181 -1.4370323
-6.5144711 -0.3359766 -1.4199998
-6.5248013 -0.32627088 -1.4248548
-6.5555029 -0.32106322 -1.4384265
-6.7194552 -0.32693639 -1.5096779
-6.8014312 -0.32987142 -1.5453037
-6.8680472 -0.33416328 -1.5741851
-6.9346628 -0.33845514 -1.6030662
-6.9500237 -0.33709997 -1.6098108
-7.008296 -0.33867127 -1.635154
-7.0319815 -0.33753976 -1.6455193
-7.0984821 -0.3268528 -1.6748939
-7.113843 -0.32549652 -1.681639
-7.1381197 -0.34040076 -1.69168
-7.581502 -0.17524578 -1.8909376
-7.5891142 -0.1743633 -1.8942878
-7.6069632 -0.17446183 -1.9020643
-7.6302314 -0.18233776 -1.9119208
-7.6448488 -0.19020635 -1.9180069
-7.6519508 -0.23091847 -1.9196253
-7.6533022 -0.28030509 -1.918422
-7.6240625 -0.38994908 -1.9016981
-7.8030481 -0.70855653 -1.9681544
-7.780591 -0.76538521 -1.9563034
-7.8187604 -1.3147453 -1.9530063
-7.8669815 -1.3557305 -1.9725378
-7.9078722 -1.3836385 -1.9893489
-8.0493011 -1.4330683 -2.0492024
-8.1018038 -1.429855 -2.0722041
-8.0647631 -1.4417881 -2.0556254
-7.9699798 -1.4534765 -2.0138865
-7.905529 -1.4027089 -1.9876356
-7.8384948 -1.3385556 -1.9607441
-11.016356 1.2649434 -3.440407
-11.088742 1.2582744 -3.4717176
-11.095808 1.2544057 -3.4746571
-11.116798 1.218931 -3.4825191
-11.047225 1.1754843 -3.4506166
-10.962276 1.1342862 -3.4120939
-10.950755 1.133594 -3.4070466
-10.761703 1.262412 -3.3293154
-10.780433 1.2619517 -3.3374629
-10.232727 1.2511221 -3.0983317
-10.321012 1.2664179 -3.1373696
-10.351908 1.2659836 -3.1508207
-10.391449 1.2650117 -3.168021
-10.462847 1.2636629 -3.1990931
-10.474694 1.2629647 -3.2042322
-10.572685 1.2561662 -3.2466981
-10.58469 1.2563585 -3.2519381
-10.192257 1.1834983 -3.0782378
-10.186653 1.1840421 -3.0758145
-9.8504906 1.1547214 -2.9282215
-9.6704292 1.2516639 -2.8532531
-9.6448174 1.2556795 -2.8422351
-9.6192064 1.2596934 -2.8312171
-9.4827461 1.2624575 -2.771836
-9.5014305 1.2669629 -2.780144
-10.217363 1.250198 -3.0916016
-9.8711376 1.1741523 -2.9379268
-9.7702656 1.2515583 -2.8967669
-9.7548418 1.2552501 -2.8901775
-9.7036953 1.2532939 -2.8678126
-9.6912127 1.2536196 -2.8623834
-9.6579285 1.2544867 -2.8479068
-10.329915 1.184016 -3.1382596
-10.385789 1.1819102 -3.1625381
-10.422927 1.1813215 -3.1787047
-10.436052 1.1814061 -3.1844289
-10.542831 1.2100462 -3.2320116
-10.609262 1.2408767 -3.2620866
-9.2531376 -0.72019273 -2.5998077
-9.0483522 -0.45390999 -2.5202069
-9.0554037 -0.44222817 -2.5237045
-9.1884766 -0.16048494 -2.5919328
-9.1893768 -0.11474682 -2.5939853
-9.2046356 -0.096002631 -2.6013165
-9.2686424 -0.086847708 -2.6295483
-9.3457565 -0.16625178 -2.6602802
-9.4872761 -0.231508 -2.7195985
-9.520874 -0.27482077 -2.7326722
-9.7676048 -0.44515911 -2.8340378
-9.8221893 -0.48402026 -2.8564198
-9.8634281 -0.51920962 -2.8731186
-9.8676243 -0.52431166 -2.874763
-9.8755484 -0.80910504 -2.8678823
-9.8907032 -0.88938159 -2.8715749
-9.8043652 -0.8052696 -2.8369937
-9.6417255 -0.52509421 -2.7762675
-7.2721701 1.2305685 -1.807117
-7.3739138 1.2416047 -1.8518662
-7.2362061 1.2450984 -1.7919679
-7.1695871 1.2493979 -1.7630856
-7.0850449 1.2534716 -1.7263825
-7.1850405 1.2382854 -1.7694182
-0.65881395 0.38375989 1.1062894
-0.59673905 0.51649809 1.1285303
-0.65517592 0.70333958 1.0962784
-0.64755297 0.94485945 1.0908372
-0.69388103 0.66377765 1.080843
-0.74259973 0.58827364 1.0623469
-0.7427423 0.57579011 1.0627379
-0.71129727 0.43172672 1.081672
-0.71143818 0.41924256 1.0820637
-0.69791222 0.22302207 1.0950797
-2.8198028 -0.32529691 0.19007158
-2.9912777 -0.80602288 0.13277209
-2.7486217 -0.32275906 0.22100633
-2.7328296 -0.32409459 0.22793847
-2.4538722 -0.64172083 0.36105818
-2.4390686 -0.68691403 0.36915082
-2.4382961 -0.61700296 0.36695063
-2.3235049 -0.37574992 0.40823221
-2.3287458 -0.32744887 0.40419507
-2.3308148 -0.32749435 0.40329492
-2.3890867 -0.32231 0.37770683
-2.3969169 -0.32148704 0.37426394
-2.4284985 -0.31871846 0.3603974
-2.5016725 -0.32476655 0.32872128
-2.5278401 -0.32593471 0.31735742
-2.594274 -0.32347131 0.28831035
-2.6148262 -0.32139838 0.27927673
-2.6492829 -0.31553063 0.26404458
-2.7189074 -0.31534296 0.23368931
-2.7312629 -0.31568661 0.22831619
-5.0696464 -1.2299259 -0.75778019
-4.8165474 -1.256436 -0.64649552
-4.6377892 -1.2562132 -0.56858534
-4.6112804 -1.2562664 -0.55702853
-4.4656868 -1.2206079 -0.49486002
-4.3819427 -1.1873996 -0.45956203
-4.4325666 -1.2173495 -0.48054159
-4.2653933 -1.1958865 -0.40845174
-4.1245532 -1.2477343 -0.3451798
-4.1106682 -1.2466726 -0.3391661
-4.0440397 -1.2479511 -0.31007725
-3.8925426 -1.2130263 -0.24530888
-3.8671169 -1.2131865 -0.23422024
-3.8359854 -1.2123069 -0.22068238
0.2824049 -1.1431394 1.5719616
0.16728401 -1.1445324 1.5218325
0.1202035 -1.1396413 1.5011332
0.087059498 -1.1406496 1.4867227
0.053919315 -1.1416565 1.4723139
0.0050821304 -1.1410345 1.4510038
-0.043754101 -1.1404119 1.4296942
-0.11110687 -1.1253824 1.3997905
-0.049039364 -1.1557136 1.4279456
0.050409317 -1.1501937 1.4710937
0.13238716 -1.1498096 1.506813
0.1480813 -1.1514387 1.5137129
0.21854258 -1.1637094 1.5448713
0.36083269 -1.1562822 1.6066244
0.40614319 -1.1676198 1.626786
0.43479538 -1.1750472 1.6395445
0.39926004 -1.1399716 1.6227825
0.33297539 -1.1419889 1.5939629
-5.0047784 -1.2011138 -0.73055059
-4.7416067 -1.212697 -0.61541712
-4.7084503 -1.2044452 -0.601264
-4.6615944 -1.2120174 -0.58056545
-4.6607051 -1.2122446 -0.5801695
-5.0725713 -1.2103072 -0.75976706
-5.1869688 -1.2071106 -0.80974746
-5.2356272 -1.2066514 -0.83097363
-5.3368106 -1.2111501 -0.87491494
-5.5788937 -1.2170413 -0.98022211
-5.5457091 -1.2311234 -0.96524644
-5.2897825 -1.2583497 -0.85270327
-5.2481217 -1.2522339 -0.83476579
-5.1373334 -1.2241343 -0.7874943
-9.635869 1.2567638 -2.8383739
0 0 0 1 0 0 0 1 0 0 0 1 0 0 0 0 0 255 1 0 0
