ply
format ascii 1.0
comment PCL generated
element vertex 204
property float x
property float y
property float z
element camera 1
property float view_px
property float view_py
property float view_pz
property float x_axisx
property float x_axisy
property float x_axisz
property float y_axisx
property float y_axisy
property float y_axisz
property float z_axisx
property float z_axisy
property float z_axisz
property float focal
property float scalex
property float scaley
property float centerx
property float centery
property int viewportx
property int viewporty
property float k1
property float k2
end_header
-8.5452404 -1.3016791 0.90179968
-8.5540848 -1.2387869 0.90489781
-8.4506035 -1.2765279 0.83657598
-8.2893534 -1.2701247 0.7271167
-8.2435532 -1.2738404 0.69628096
-8.1976852 -1.2732706 0.66520298
-8.1697588 -1.2762876 0.6464355
-8.2324734 -1.2770114 0.68892574
-8.2699165 -1.2757944 0.7142185
-8.2967777 -1.2764052 0.73243153
-8.4910021 -1.3225911 0.8660419
-8.5334072 -1.3232429 0.89478016
-10.768222 0.83529711 2.3085408
-10.973671 0.51170731 2.4624977
-10.88714 0.26878607 2.4150805
-10.873713 0.10386801 2.413568
-10.892744 0.185471 2.4227028
-11.059408 0.46241689 2.5228062
-11.150324 0.51813638 2.5817943
-11.114416 0.51605964 2.5575814
-10.853182 0.9068718 2.3627691
-10.873353 0.98529565 2.3728209
-10.857758 1.0666354 2.3585248
-10.818075 1.0113891 2.334199
-10.80856 0.99214613 2.3286419
-10.789535 0.95366371 2.3175302
-10.875847 -0.060023069 2.422544
-10.756464 -0.34170091 2.3546662
-10.844931 -0.79007107 2.4351621
-10.827491 -0.30757129 2.4011831
-1.2149944 -1.1933429 -4.0656939
-1.1692286 -1.1974314 -4.096489
-1.1433258 -1.1980271 -4.1139979
-1.1152306 -1.1984556 -4.132998
-1.2120347 -1.1757293 -4.0685072
-1.2505517 -1.178533 -4.0423021
-7.130743 -0.62380522 -0.086952865
-7.1085072 -0.34257442 -0.11492962
-7.0873423 -0.35292363 -0.12878251
-6.9303045 -0.56881261 -0.22517532
-6.8888483 -0.58342129 -0.25256938
-6.8278866 -0.62299263 -0.29202151
-6.8813038 -0.6205492 -0.2559709
-7.0092797 -0.66497338 -0.16729087
-7.1392064 -0.64199412 -0.080387473
-9.0340366 -0.0011760592 1.1729497
-9.0368443 0.15855777 1.1675106
-9.0586929 0.18196797 1.1812257
-9.104598 0.1860705 1.2121147
-9.1603775 0.18961102 1.2497147
-9.1961231 0.18429357 1.2741581
-9.2239094 0.18231934 1.2930595
-9.2302341 0.17919421 1.2974852
-9.3259201 0.15743709 1.3632637
-9.3605213 0.11490744 1.3886427
-9.2941151 -0.16844907 1.3567072
-9.2956409 -0.17590609 1.3580834
-9.3914967 -0.40525591 1.4335157
-9.4159756 -0.4444955 1.4518911
-9.7508793 -0.69666171 1.6902059
-9.7686615 -0.69376951 1.7021109
-9.7865696 -0.69521475 1.7143012
-9.9052887 -0.81520665 1.8001868
-9.7496376 -0.6984663 1.6894478
-9.4853106 -0.85319245 1.5176107
-9.4383221 -0.80936754 1.4837862
-9.0815325 -0.85107255 1.2441591
-9.0671072 -0.84956217 1.2343234
-9.0000963 -0.80377662 1.186854
-8.9949455 -0.64063144 1.1758698
-8.9841824 -0.52018189 1.1630481
-8.9239244 -0.36572844 1.1151568
-8.9205856 -0.36080122 1.1126696
-8.898591 -0.31951296 1.0958825
-5.9098873 -0.69448256 -0.9102143
-5.9204769 -0.65394139 -0.90490806
-5.9534454 -0.63134563 -0.88362694
-6.0766068 -0.44326967 -0.80889046
-6.0923305 -0.38061595 -0.80112481
-6.1018329 -0.29995492 -0.79839814
-6.1056952 -0.25887841 -0.79767108
-6.1100774 -0.24806347 -0.79520124
-6.1320143 -0.17955291 -0.78349841
-6.140368 -0.16270152 -0.7786175
-6.1693587 -0.12227431 -0.76084852
-6.2340813 -0.08969146 -0.7185294
-6.3185968 -0.053288162 -0.6629858
-6.3283195 -0.097052187 -0.65439236
-6.3289042 -0.13696453 -0.65216279
-6.2889447 -0.29561207 -0.67192465
-6.3114424 -0.64053404 -0.64084387
-6.3007503 -0.66990405 -0.64673269
-6.2909136 -0.69914865 -0.65204811
-6.0272961 -0.69167876 -0.83085829
-5.9159565 -0.69361633 -0.90614516
-10.377256 -0.3602111 2.0987973
-10.270132 -0.29842398 2.0234356
-10.300085 -0.34312421 2.0457673
-4.3418455 -0.7982536 -1.9669971
-4.5326991 -1.196564 -1.8194873
-4.3545008 -1.2496786 -1.9376853
-4.2710905 -1.2165831 -1.9956741
-4.0156403 -0.92391062 -2.1820607
-4.1276593 -0.70069098 -2.1164823
-4.0860271 -0.42348856 -2.1574054
-3.8991978 -0.30923584 -2.2891374
-3.7481556 -0.32203579 -2.3908036
-3.7201505 -0.32017875 -2.4098482
-3.6007266 -0.32164934 -2.4906297
-3.2884283 -0.31441051 -2.7023854
-3.2145159 -0.32170698 -2.7520883
-3.0032716 -0.67763931 -2.8787429
-2.9924316 -0.75334889 -2.8826025
-2.9912672 -0.75575262 -2.8832803
-2.9287677 -0.83150339 -2.922111
-2.9044483 -0.70844924 -2.9442296
-2.7936609 -0.37894446 -3.0343733
-2.7972863 -0.37549835 -3.0320773
-2.8525178 -0.31932959 -2.9972672
-2.8754251 -0.30574763 -2.9823833
-2.8984609 -0.30580813 -2.9667854
-2.9204588 -0.30952168 -2.9517224
-3.000144 -0.31222686 -2.8976517
-3.2206504 0.059507847 -2.7654529
-3.4024763 0.049223065 -2.6418858
-3.4882257 0.088047802 -2.585618
-3.4878976 0.075567305 -2.5852668
-3.4849777 0.048292994 -2.5859904
-3.7799067 -0.30571282 -2.3700585
-3.8361778 -0.29944128 -2.3322515
-3.8888345 -0.30635589 -2.2962856
-3.9519203 -0.31365475 -2.2532415
-3.9728465 -0.31192514 -2.2391543
-4.0572548 -0.302517 -2.1824429
-4.1205373 -0.3023262 -2.1396098
-4.1767435 -0.29855084 -2.1017323
-4.2225189 -0.29439253 -2.0709338
-4.2785292 -0.29810393 -2.032845
-4.330987 -0.31250829 -1.9966692
-4.3351831 -0.32036388 -1.9934673
-4.3525152 -0.35754192 -1.9800255
-4.3174047 -0.75561821 -1.9855025
-5.1102295 -1.2063218 -1.4280558
-5.1944633 -1.2019619 -1.3712306
-5.2719789 -1.2019832 -1.3187522
-5.3853383 -1.2119532 -1.2415506
-5.4690595 -1.2030103 -1.1852831
-5.5403776 -1.2236915 -1.1360508
-5.5120368 -1.2416514 -1.1544119
-5.4029865 -1.2233639 -1.2290787
-5.2994604 -1.2357104 -1.2985973
-5.2816062 -1.2322054 -1.3108459
-5.2261801 -1.2159284 -1.3491166
-5.190567 -1.2128465 -1.373368
-5.1524615 -1.2161242 -1.3990145
-0.13788033 -1.217077 -4.7938008
-0.10254049 -1.2215196 -4.8175211
-0.1801796 -1.2214301 -4.7649641
-0.20104361 -1.221856 -4.7508202
-0.22576523 -1.2246884 -4.7339535
-0.25377369 -1.2264223 -4.7149124
-0.30979204 -1.2298915 -4.6768289
-0.38344812 -1.2323873 -4.6268497
-0.42730665 -1.2374794 -4.5969238
-0.45525885 -1.2420437 -4.5777907
-0.48335314 -1.2416148 -4.5587907
-0.50088263 -1.2429483 -4.5468621
-0.52904797 -1.2400224 -4.5279288
-0.56763601 -1.2403294 -4.501791
-0.59566021 -1.2423967 -4.4827237
-0.61326027 -1.2412338 -4.4708624
-0.6484623 -1.2389059 -4.4471378
-0.68001413 -1.238615 -4.4257908
-0.74338007 -1.2333622 -4.3831339
-0.71204233 -1.2261633 -4.4046803
-0.65760088 -1.2039175 -4.4425588
-0.63963795 -1.2015002 -4.4548306
-0.56978035 -1.2030189 -4.5020537
-0.49969006 -1.1993051 -4.549675
-0.48126078 -1.199142 -4.5621591
-0.46632338 -1.1999123 -4.5722361
-0.42672253 -1.2039362 -4.5988603
-0.37673759 -1.2005427 -4.6328559
-0.33821297 -1.198251 -4.6590424
-0.32061863 -1.1990695 -4.6709156
-0.23960733 -1.2188113 -4.7248526
-0.20164919 -1.2187169 -4.7505541
-0.16588974 -1.2188114 -4.7747583
-7.9663873 -1.2915061 0.50945377
-7.9383907 -1.2970195 0.49075353
-7.8927498 -1.2764728 0.45891082
-7.9237156 -1.2768587 0.47989225
-7.9398813 -1.2768562 0.49083626
-7.9672432 -1.2775435 0.50939143
-7.9988251 -1.274863 0.53064895
-8.0190954 -1.2775453 0.54449511
-8.0347633 -1.2789741 0.55516827
-8.11063 -1.2792597 0.60654235
-8.1540203 -1.2790778 0.6359086
-7.7489014 -1.25905 0.36072624
-7.6761856 -1.2262521 0.30999124
-7.6799021 -1.2308018 0.31271601
-7.6879549 -1.2386261 0.3185277
-7.6954298 -1.2401904 0.3236599
0 0 0 1 0 0 0 1 0 0 0 1 0 0 0 0 0 204 1 0 0
