ply
format ascii 1.0
comment PCL generated
element vertex 381
property float x
property float y
property float z
element camera 1
property float view_px
property float view_py
property float view_pz
property float x_axisx
property float x_axisy
property float x_axisz
property float y_axisx
property float y_axisy
property float y_axisz
property float z_axisx
property float z_axisy
property float z_axisz
property float focal
property float scalex
property float scaley
property float centerx
property float centery
property int viewportx
property int viewporty
property float k1
property float k2
end_header
0.47986412 -1.0864778 1.418371
0.5118885 -1.1249495 1.4203992
0.46011305 -1.1424496 1.415313
0.45525742 -1.1429167 1.4148626
0.41571903 -1.1432445 1.4112742
0.38103867 -1.1431084 1.4081361
0.27274418 -1.1673543 1.397778
0.17363977 -1.1456835 1.3892934
0.12921762 -1.1439799 1.3853086
0.089682102 -1.1443079 1.3817203
0.045288086 -1.145103 1.3776815
0.00089454651 -1.1458976 1.3736427
-0.11030531 -1.1326783 1.3638709
-0.26682043 -1.089787 1.3506674
-0.27946281 -1.0875447 1.3495731
-0.2993207 -1.081483 1.3479121
-0.36856079 -1.0690846 1.341922
-0.31908751 -1.0701087 1.3463796
-0.2621665 -1.0718279 1.3514961
-0.21047211 -1.066364 1.356302
-0.1434679 -1.0783384 1.3620992
-0.073989868 -1.0886093 1.3681591
-0.029597282 -1.0878153 1.3721979
0.023323059 -1.0887041 1.3769708
0.031949997 -1.0885259 1.3777561
0.094015121 -1.0988588 1.3831432
0.16820621 -1.0961684 1.3899238
0.25216532 -1.0975426 1.3974969
0.33597994 -1.0864227 1.4053403
0.38525724 -1.0876616 1.4097754
0.45456266 -1.0829382 1.4161596
0.40300274 1.4112754 1.468037
0.35841131 1.4151142 1.4640853
0.27935028 1.41711 1.4569699
0.22458839 1.4232564 1.4521494
0.19988966 1.4230988 1.4499087
0.14375114 1.4232888 1.4448285
0.13081312 1.4235346 1.4436623
0.10392046 1.4229813 1.4412141
0.074241638 1.4257996 1.4385898
0.080084801 1.4255638 1.4391137
0.11803293 1.4255309 1.4425499
0.15088558 1.4271631 1.4455626
0.16727257 1.4275398 1.4470553
0.19989109 1.4265447 1.4499869
0.25477648 1.4295743 1.4550267
0.31883383 1.4282315 1.460798
0.34361124 1.4292638 1.4630656
0.55609369 1.4314919 1.4823611
0.56871796 1.4311893 1.4834976
0.87335253 1.1106499 1.5038217
0.5214982 1.4170272 1.4788997
-9.1776104 -0.1562925 0.56476605
-9.3852739 0.098582923 0.551736
-9.4016151 -0.043838143 0.54702717
-9.8312073 -0.25235268 0.50339097
-9.8386288 -0.25239089 0.50271785
-9.982316 -0.28526747 0.48895854
-10.020683 -0.29527673 0.48525667
-9.9148064 -0.37585834 0.49301919
-9.8140488 -0.61444801 0.49673578
-9.8087234 -0.65440381 0.49631226
-9.8046751 -0.68845248 0.49590698
-10.113712 -1.0955964 0.45868647
-10.177496 -1.106593 0.45266011
-10.234125 -1.105913 0.4475466
-10.331249 -1.1141474 0.43856323
-10.399912 -1.12059 0.43219829
-10.364782 -1.1261169 0.43525466
-10.320728 -1.1226883 0.43932244
-10.28117 -1.1199895 0.44296652
-10.24752 -1.1205457 0.44600159
-10.207896 -1.1253517 0.44948149
-10.089199 -1.119777 0.46035841
-10.080173 -1.1208488 0.46115157
-10.039352 -1.1204202 0.46485856
-10.023861 -1.1211843 0.46624434
-9.9907551 -1.1236044 0.46918789
-9.9613895 -1.1252701 0.47180986
-9.9293699 -1.1264164 0.47468391
-9.8899689 -1.1236933 0.47831434
-9.8504105 -1.1209853 0.48195854
-9.8214836 -1.1169555 0.48466986
-9.6983366 -1.1056315 0.49608022
-9.6278429 -1.0909295 0.50279832
-9.5865307 -1.0899817 0.50656146
-9.4211187 -1.0921799 0.5214932
-9.7431555 -0.8063724 0.49880549
-9.7702141 -0.69486594 0.4988828
-9.7875738 -0.48952907 0.50196576
-9.7984838 -0.2785801 0.50576013
-9.2555122 -0.1715014 0.5573656
-9.1203423 -0.48454243 0.56251109
-9.1202116 -0.52223021 0.56166852
-9.1387672 -0.65010154 0.55708885
-9.1323099 -0.81000006 0.55404854
-11.147348 0.72007072 0.40623209
-10.701334 1.0014839 0.45300835
-11.050442 1.1835561 0.4255169
-11.055066 1.1830471 0.42508653
-11.068449 1.1807029 0.42382124
-11.128959 1.1599911 0.41787124
-11.132568 1.1579001 0.41749686
-11.164375 1.1177602 0.41370606
-11.185935 1.0376865 0.40993801
-11.204575 0.95693469 0.40641898
-11.209169 0.91692829 0.40509588
-11.186741 0.79846573 0.40444157
-11.168367 0.67860031 0.40338811
-11.152281 0.63731194 0.40390912
-11.142972 0.63802636 0.40476838
-11.142269 0.63813829 0.40483457
-8.6773291 -1.4057963 0.58174944
-8.7539692 -1.405762 0.57480872
-8.8067245 -1.3265102 0.57182735
-9.0715656 -1.0997193 0.55298197
-9.1111727 -1.0974295 0.54944658
-9.1947966 -1.1011466 0.54178834
-9.208272 -1.1010571 0.5405699
-9.269454 -1.1032599 0.53497863
-9.2784443 -1.102366 0.53418458
-9.3665533 -1.106887 0.52610189
-6.4982996 -0.11640555 0.80833995
-6.1175508 -0.34098467 0.83773351
-6.2129698 -0.82442498 0.81813103
-6.6445713 -0.74589044 0.78082061
-6.7408743 -0.55881381 0.77633953
-6.7472987 -0.34212044 0.78067046
-6.8480577 -0.33985206 0.77159595
-6.8876386 -0.34004739 0.76800662
-7.0370579 -0.32940418 0.75471479
-7.1967959 -0.34906787 0.73980123
-7.3100462 -0.38875857 0.72864413
-7.3307562 -0.39096409 0.72671843
-7.3455391 -0.39255038 0.72534347
-7.3004785 -0.45230493 0.72807002
-7.2633219 -0.43247536 0.73188496
-7.1641712 -0.40138647 0.74157
-7.1143556 -0.38933653 0.74635506
-6.9401093 -0.40985292 0.76167166
-6.8451214 -0.47005346 0.76891005
-6.691081 -0.6946339 0.77777016
-6.6913857 -0.78727293 0.77564234
-6.99541 -1.0696068 0.74170548
-7.0044031 -1.0710336 0.74085861
-7.1140862 -1.0776882 0.73077357
-7.162704 -1.0743122 0.72644669
-7.2463169 -1.0804136 0.7187354
-7.3209825 -1.08009 0.71198016
-7.4397025 -1.0831752 0.70115757
-7.4944825 -1.0827614 0.69620538
-7.5539269 -1.0855459 0.69075835
-7.5629196 -1.0869715 0.68991148
-7.6159658 -1.0918059 0.68499744
-7.624959 -1.0932337 0.68415052
-7.6861258 -1.0999314 0.67845869
-7.7147555 -1.0999025 0.67586631
-7.7192512 -1.1006312 0.67544258
-7.7983685 -1.1060303 0.66815442
-7.8469849 -1.1026902 0.66382694
-7.8820477 -1.1046593 0.66060656
-7.96557 -1.1207836 0.65267622
-8.040143 -1.1304489 0.64570284
-8.081687 -1.1294999 0.64196169
-8.1543694 -1.1328181 0.6353035
-8.158865 -1.1335479 0.63487983
-8.2003613 -1.1376208 0.63102907
-8.3081045 -1.1428847 0.62115121
-8.3827925 -1.1400565 0.61445075
-8.4574585 -1.1397269 0.60769558
-8.5410938 -1.1433548 0.60003835
-8.6530914 -1.1182232 0.59046429
-8.739336 -1.1068701 0.58291042
-8.8339796 -1.1084667 0.57430214
-9.1023865 -0.80273783 0.55692339
-9.1118126 -0.76757133 0.55686694
-9.1232624 -0.6828897 0.55774981
-9.1219149 -0.649234 0.55863488
-9.1161118 -0.60359073 0.56019527
-9.1132412 -0.52148724 0.56231666
-9.0503683 -0.36123243 0.57164431
-9.0385761 -0.32472134 0.57354009
-9.0414133 -0.28475222 0.57418931
-9.136591 -0.20455673 0.5673871
-9.1616001 -0.1746943 0.56579894
-6.3556957 0.072936177 0.82554847
-6.3112121 0.078159034 0.82969582
-6.3067169 0.078887463 0.83011949
-6.2491736 0.084504128 0.83545864
-6.2005782 0.083664238 0.83984095
-6.0666647 0.055311441 0.85132688
-5.8260899 -0.038121283 0.87099791
-5.7885356 -0.063273132 0.87382907
-5.475265 -0.33643758 0.89600945
-5.4006 -0.33676061 0.90276468
-5.3886809 -0.33601049 0.90386122
-5.3169188 -0.3381564 0.91031218
-5.2716269 -0.33474347 0.91449171
-5.2764444 -0.37535602 0.91313463
-5.4994774 -0.62055373 0.88737518
-5.2795162 -1.0572709 0.8973965
-5.2403426 -1.0613855 0.90085119
-5.1499267 -1.0673468 0.90890521
-5.1203003 -1.0670457 0.91159534
-5.0609927 -1.0739367 0.91681063
-4.9423895 -1.0762085 0.92750126
-5.0682859 -1.0859525 0.9158777
-5.0862489 -1.091305 0.91412938
-5.0952625 -1.0902336 0.91333735
-5.1654768 -1.084199 0.90711468
-5.2311502 -1.0824485 0.90120625
-5.2931905 -1.0887091 0.89544523
-5.4329076 -1.1566058 0.88125151
-5.5737762 -1.2007411 0.8674922
-5.6133566 -1.2009361 0.86390293
-5.7765312 -1.162447 0.84999651
-5.8728147 -1.1569659 0.84140021
-6.0101409 -1.0929333 0.83041412
-6.2995834 -1.1436489 0.80304897
-6.3371429 -1.1431425 0.79965866
-6.3546844 -1.1428832 0.79807574
-6.3742485 -1.1433259 0.7962938
-6.3987617 -1.1437925 0.79406297
-6.4380617 -1.1439419 0.79050016
-6.5591559 -1.1649203 0.77905685
-6.6473103 -1.1667366 0.77103138
-6.7264724 -1.1671265 0.76385272
-6.8407402 -1.1644998 0.75356281
-6.875802 -1.1664807 0.75034231
-6.9198799 -1.1673888 0.74632955
-7.1127558 -1.2276248 0.72749478
-7.1520252 -1.2628045 0.72314054
-7.231143 -1.2681928 0.71585256
-7.272747 -1.2690891 0.71206409
-7.3192968 -1.2700089 0.70782715
-7.3634844 -1.2584229 0.70408762
-7.403111 -1.2536206 0.70060748
-7.4426928 -1.2538147 0.69701809
-7.5497084 -1.277289 0.68679333
-7.8352928 -1.2740307 0.66100132
-7.8758349 -1.2938478 0.65688008
-7.9154611 -1.2890508 0.65339983
-8.0014782 -1.2780492 0.64585847
-8.0210438 -1.2785025 0.64407611
-8.0694227 -1.2834307 0.63958263
-8.1396189 -1.2822406 0.63325191
-8.3127899 -1.2831519 0.6175468
-8.4365063 -1.3202314 0.60550094
-8.456522 -1.3199794 0.60369384
-6.1754885 -0.80954802 0.821863
-6.0424595 -0.89678496 0.83193392
-5.5602694 -0.69310248 0.88022441
-5.6776433 -0.34062514 0.87758482
-1.0035677 -1.0417876 1.2850273
-0.91706228 -1.0491624 1.2926949
-0.80839348 -1.0554136 1.3023956
-0.79349232 -1.0532827 1.3037934
-0.74425697 -1.0549341 1.3082154
-0.70945978 -1.0549617 1.3113664
-0.68980169 -1.0577453 1.3130838
-1.0060482 -1.0506942 1.2846006
-0.96650839 -1.0531366 1.2881265
-0.93192244 -1.058789 1.2911308
-0.81334543 -1.0586233 1.3018743
-0.79844427 -1.0564926 1.3032722
-4.1437054 -1.1639843 0.9978494
-4.042264 -1.18265 1.006614
-3.9582663 -1.1813633 1.0142509
-3.9335635 -1.1846955 1.0164127
-3.8890934 -1.1834836 1.020468
-3.8347392 -1.1799999 1.0254699
-3.8050954 -1.1821961 1.028105
-3.7556829 -1.179848 1.0326335
-3.7210975 -1.1809092 1.035742
-3.610074 -1.1623995 1.0462172
-3.244436 -1.1594453 1.0794005
-3.224673 -1.1599708 1.0811787
-2.9857695 -1.0539455 1.1052203
-2.9018092 -1.0476608 1.1129673
-2.8524599 -1.0468318 1.1174556
-2.7353938 -1.0673444 1.1275935
-2.6317027 -1.0718057 1.1368837
-2.6267369 -1.0710965 1.1373496
-2.5476995 -1.0684857 1.1445674
-2.4043019 -1.0622698 1.157696
-2.3697288 -1.0654227 1.1607559
-2.2956727 -1.0610228 1.1675631
-2.2511952 -1.057759 1.1716654
-2.2807715 -1.0588927 1.1689609
-2.3106022 -1.058156 1.1662759
-2.6373885 -0.72711599 1.1441834
-2.6359365 -0.7142697 1.1446061
-2.6377025 -0.68464321 1.1451179
-2.6320827 -0.52710378 1.1491985
-2.6247325 -0.43140113 1.1520339
-2.8972003 -0.3448706 1.1293179
-2.9763861 -0.32753289 1.1225389
-3.0208745 -0.32624656 1.1185387
-3.0900278 -0.32662418 1.1122668
-3.1641619 -0.32314166 1.1056314
-3.2382579 -0.32465437 1.098886
-3.2481604 -0.32442769 1.0979943
-3.3222921 -0.32094455 1.091359
-3.3519549 -0.31625068 1.0887789
-3.3816633 -0.31557181 1.0861034
-3.4754641 -0.32011184 1.0775049
-3.5495219 -0.32662207 1.0706497
-3.5594244 -0.3263965 1.0697579
-3.6830065 -0.32026431 1.0587039
-3.7160494 -0.31884819 1.0557433
-3.7670245 -0.31905371 1.0511217
-3.8411384 -0.3180683 1.0444314
-3.8510404 -0.31784177 1.0435398
-3.8738523 -0.31907982 1.0414456
-3.9053521 -0.31956244 1.0385816
-3.9399993 -0.31776807 1.0354843
-3.9893489 -0.31859705 1.0309958
-4.2271152 -0.24248478 1.0111865
-4.2865181 -0.22873509 1.0061181
-4.3308969 -0.24243799 1.0017879
-4.3333488 -0.24494085 1.0015091
-4.4779067 -0.36281696 0.98574382
-4.4401016 -0.44265658 0.9873578
-4.4609866 -0.69327742 0.97978431
-4.4631977 -0.72825992 0.97879094
-4.7447672 -1.0733306 0.94546545
-4.8337188 -1.0642436 0.93761498
-4.9324875 -1.0764334 0.92839301
-4.8534498 -1.0737848 0.93561161
-10.390672 0.88196027 0.47843575
-10.373132 0.88170063 0.48001853
-10.322332 1.1242861 0.49011928
-10.298091 1.1651305 0.49324083
-10.363457 1.1189964 0.48627463
-1.3421364 -1.0457802 1.254272
-1.4359331 -1.0381012 1.2459507
-1.6039691 -1.0397439 1.2306942
-1.6780386 -1.0416446 1.2239425
-1.7719913 -1.0438864 1.2153822
-1.806535 -1.0457313 1.2122117
-1.8519597 -1.0466293 1.2080772
-1.855969 -1.0465026 1.2077169
-1.895534 -1.0447631 1.2041728
-1.9251115 -1.0458977 1.2014682
-1.9499617 -1.0469489 1.1991937
-1.954689 -1.0470313 1.1987637
-1.9844 -1.0459809 1.1960965
-2.0091043 -1.0460165 1.1938583
-2.0486555 -1.0467749 1.1902587
-2.1061876 -1.0494044 1.1849884
-2.1820922 -1.0565691 1.1779512
-2.053524 -1.0649772 1.1894052
-1.9990978 -1.0627915 1.1943842
-1.9349475 -1.064811 1.2001486
-1.8659291 -1.0486271 1.2067666
-1.7868788 -1.0485154 1.2139289
-1.7423851 -1.0477495 1.2179761
-1.6682453 -1.0583433 1.2244509
-1.5892653 -1.0457374 1.2318901
-1.4557872 -1.0434407 1.2440314
-1.3816752 -1.0490375 1.250617
-1.3421497 -1.0489823 1.2541982
-1.203732 -1.040976 1.2669164
-1.1147466 -1.0394453 1.2750106
-1.060462 -1.055379 1.279566
-1.1494231 -1.044805 1.2717484
-1.1691604 -1.04413 1.2699761
-4.4329205 -1.1397995 0.97220302
-4.3462834 -1.1604291 0.97958219
-4.2500858 -1.1453278 0.98863733
-0.61073637 -1.0601324 1.3201907
-0.57116938 -1.0675747 1.3236057
-0.53163004 -1.0700179 1.3271314
-0.502038 -1.0713819 1.3297807
-0.42772913 -1.068855 1.3365682
-0.47723055 -1.0628339 1.3322213
-0.48716497 -1.0642536 1.3312893
-0.55626869 -1.0654449 1.3250035
-4.6014538 -1.0699221 0.95852286
-10.411856 -0.058134615 0.4552038
-10.395439 -0.33656514 0.4503783
0 0 0 1 0 0 0 1 0 0 0 1 0 0 0 0 0 381 1 0 0
