ply
format ascii 1.0
comment PCL generated
element vertex 212
property float x
property float y
property float z
element camera 1
property float view_px
property float view_py
property float view_pz
property float x_axisx
property float x_axisy
property float x_axisz
property float y_axisx
property float y_axisy
property float y_axisz
property float z_axisx
property float z_axisy
property float z_axisz
property float focal
property float scalex
property float scaley
property float centerx
property float centery
property int viewportx
property int viewporty
property float k1
property float k2
end_header
0.80216932 0.98039186 1.5189379
0.82649517 1.1168721 1.525941
0.82606125 1.0769395 1.527445
0.85209179 0.9134376 1.5483843
0.8839674 0.81285739 1.569698
0.86179543 0.67122054 1.5640637
0.82863426 0.8735131 1.5376488
0.045939922 1.4265075 1.0975569
-0.26096725 1.1072543 0.94827569
-0.28696585 1.0637358 0.93634546
-0.30363178 0.59029603 0.94805038
-0.30591774 0.58549041 0.94704401
-0.51933718 0.21292464 0.84977543
-0.61576271 0.21653594 0.79835975
-0.57349014 0.33998424 0.81546938
-0.5630517 0.53947949 0.81235301
-0.55894566 0.61866415 0.81109631
-0.56084538 0.73503053 0.8050319
-0.54507875 0.7899338 0.81102836
-0.53207731 0.85564613 0.81508577
-0.27720356 1.1203887 0.93907416
0.43548727 -1.1463933 1.4163932
0.46615219 -1.1451943 1.4326421
0.51048088 -1.1260064 1.4553734
0.44229507 -1.1253141 1.4190964
0.36453056 -1.126065 1.3777903
-10.235311 0.72335041 -4.3373003
-10.573696 0.84348381 -4.5224004
-10.581634 0.84347355 -4.5266194
-10.737391 0.83219004 -4.6089277
-10.829779 0.82678616 -4.6578059
-10.908455 0.84119844 -4.7002554
-10.89773 0.91695642 -4.697844
-10.88405 0.95670485 -4.6922994
-10.780304 0.99868834 -4.6389723
-10.748436 0.9995712 -4.6220698
-10.594988 1.0010445 -4.5405626
-10.560158 0.98170149 -4.5212073
-4.5100131 -1.2361284 -1.2086828
-4.715539 -1.202678 -1.319391
-4.5496101 -1.2108557 -1.2308298
-4.5012884 -1.2035002 -1.2054621
-4.4484801 -1.2092586 -1.1771396
-4.3085938 -1.2240124 -1.1021369
-8.5496941 1.2691895 -3.4649541
-8.584197 1.2720495 -3.4834194
-8.6286268 1.2660066 -3.5067754
0.33687735 1.4250973 1.2522775
0.28143501 1.4230452 1.2228943
0.2312355 1.4263543 1.1960648
0.28174162 1.4327136 1.2226371
0.30826807 1.4319113 1.2367731
0.36027956 1.4239955 1.2647656
-5.340054 -1.2187597 -1.6506779
-5.2573199 -1.2125443 -1.6069673
-5.3228288 -1.220246 -1.6414566
-5.4645967 -1.2479922 -1.7156137
-5.478766 -1.2477072 -1.7231582
-5.4652739 -1.2472315 -1.7160068
-10.697649 -0.28985789 -4.5390639
-10.684645 -0.32261822 -4.5307283
-10.679371 -0.35814363 -4.526382
-10.175152 -0.39251924 -4.2568512
-10.655413 -0.43711978 -4.5102153
-10.749897 -0.31034204 -4.5659494
0.10034275 1.422248 1.1266621
0.10887957 1.4218256 1.1312186
0.1471982 1.422383 1.151564
0.15815783 1.4224193 1.1573886
0.19435024 1.422282 1.176634
0.062635899 1.426757 1.1064218
0.12526369 1.4310427 1.1395277
0.18706751 1.4296397 1.1724428
-6.3782339 -0.95404345 -2.214061
-6.6780367 -0.99572307 -2.3716226
-6.9266863 -0.79905921 -2.5123444
-7.3509173 -0.66844535 -2.7435341
-7.2798042 -1.2451868 -2.6806798
-7.3150396 -1.2560022 -2.698941
-7.3942013 -1.2870731 -2.7396727
-7.4329524 -1.2937702 -2.7599814
-7.500505 -1.3075423 -2.7952933
-7.5623269 -1.3247223 -2.8274112
-7.6699963 -1.3279194 -2.8845081
-7.7446227 -1.3318036 -2.9240098
-7.8064671 -1.3456385 -2.9562848
-7.9179211 -1.3494234 -3.015368
-7.968257 -1.3540108 -3.0419269
-8.0450001 -1.3627894 -3.0823412
-8.2734556 -1.3106538 -3.2060504
-8.2874718 -1.3095194 -3.2135503
-8.2808447 -1.2780783 -3.2113934
-8.2635059 -1.2774829 -3.2022018
-8.1175108 -1.3103962 -3.123163
-7.952353 -1.3166562 -3.0350952
-7.8068447 -1.2458234 -2.9608212
-7.7279449 -1.2451029 -2.91891
-7.5211935 -1.2907007 -2.8070226
-7.4741864 -1.2881221 -2.7821465
-7.3976555 -1.2688226 -2.7423015
-7.3275127 -1.2482718 -2.7059071
-6.0057225 -0.87563491 -2.019444
-6.4368658 -0.63189763 -2.2592218
-6.3131123 -0.36073416 -2.2052143
-5.8512797 -0.43642265 -1.9564214
-4.8686085 -1.2049425 -1.4006629
-4.8471699 -1.1952401 -1.3896878
-4.7553706 -1.1973765 -1.3407955
-4.8075743 -1.220513 -1.3675413
-4.7769256 -1.2170647 -1.3513986
-4.7285457 -1.2047161 -1.3262167
-7.0328178 1.2595793 -2.6581821
-7.1254272 1.248826 -2.7069449
-7.0811353 1.2399768 -2.6830153
-7.0294876 1.2331266 -2.6552627
-6.9099083 1.228996 -2.591516
-6.837009 1.2491455 -2.5536389
-6.8133678 1.2607139 -2.541574
-6.8442693 1.2546335 -2.5577369
-6.8578806 1.2520939 -2.5648623
-4.1202168 -1.2570927 -1.0005609
-4.2259169 -1.2191207 -1.0583992
-4.0765896 -1.2541007 -0.97749889
-3.894603 -1.2083061 -0.8827461
-3.6908998 -1.2294968 -0.77353936
-3.6471269 -1.2140222 -0.75094223
-3.6778939 -1.227457 -0.76671404
-9.5597477 0.89057899 -3.9854422
-9.5272779 0.97644663 -3.9719114
-9.2868042 1.2680072 -3.8567429
-9.5240746 0.9736824 -3.9700885
-3.8574455 -1.2737461 -0.86015111
-3.9975667 -1.2789639 -0.93441135
-3.8444686 -1.2742032 -0.85323292
-3.7878349 -1.2691716 -0.82334554
-3.4037762 -0.31861371 -0.66047275
-3.3731866 -0.3201583 -0.64414448
-3.2989683 -0.31871045 -0.60475385
-3.2376988 -0.31431019 -0.5723747
-3.1282277 -0.31254011 -0.51425803
-3.0670185 -0.31313124 -0.4816941
-3.0095739 -0.31951952 -0.45087981
-2.9836178 -0.32043314 -0.437042
-2.9530578 -0.32447347 -0.42062128
-2.9299402 -0.32590035 -0.40827024
-2.8652575 -0.35237902 -0.3727355
-2.506232 -0.11535102 -0.19217706
-2.4925573 -0.097470984 -0.18568444
-2.4141581 -0.1245117 -0.14283371
-2.1068437 -0.11165243 0.019972801
-2.1025591 -0.11950522 0.022591472
-2.1443684 -0.15819591 0.0020467043
-2.1391928 -0.6010862 0.024035335
-2.1381681 -0.68288225 0.028133035
-2.139791 -0.68318278 0.02728343
-2.15608 -0.68530881 0.018716693
-2.3029821 -0.63400221 -0.061603427
-2.5359282 -0.67704535 -0.18356538
-2.663516 -0.70788229 -0.25005019
-2.9320123 -0.4285484 -0.40491307
-2.9626312 -0.42950049 -0.42114842
-3.2378545 -0.68779624 -0.5562346
-3.2547841 -0.66336745 -0.56629544
-3.4222684 -0.39242268 -0.66709691
-3.4484367 -0.37490645 -0.6817686
-7.3957157 -0.44777575 -2.7769337
-7.3383303 -0.36343086 -2.7500916
-7.3210955 -0.36202049 -2.7409911
-7.2802153 -0.35795546 -2.7194362
-7.2421656 -0.35840729 -2.6991897
-7.1668367 -0.35401767 -2.6593366
-7.1223335 -0.34823301 -2.6359303
-7.0879283 -0.352902 -2.6174383
-6.99547 -0.35958338 -2.5679979
-6.8991575 -0.33708706 -2.5177765
-6.6913185 -0.044602945 -2.419996
-6.6929092 -0.0047308803 -2.4225736
-6.6718354 0.074815854 -2.4148259
-6.6478858 0.079736933 -2.4023085
-6.6035795 0.089093223 -2.3791621
-6.5223842 0.10162996 -2.3365443
-6.495224 0.1017199 -2.3221099
-6.4644814 0.095321462 -2.3054898
-6.4537792 0.089422569 -2.2995443
-6.3550768 0.0023342669 -2.2432923
-6.2889161 -0.021271542 -2.2070968
-6.2100711 -0.027644098 -2.1649067
-6.1794133 -0.049009398 -2.1476815
-6.0436063 -0.1376072 -2.0716395
-5.775702 -0.14281225 -1.9289985
-5.6238179 -0.2998907 -1.8414359
-5.5378623 -0.32768139 -1.7945355
-5.5403099 -0.36767703 -1.7940995
-5.5559893 -0.38818538 -1.8015437
-5.6509476 -0.40379098 -1.8513447
-5.6954308 -0.40707919 -1.8748484
-5.8055029 -0.44674191 -1.9316388
-7.3872566 -0.46579427 -2.7716541
-0.12480402 -1.1264223 1.1176809
-0.076873302 -1.1288241 1.1432647
-0.054674625 -1.1334556 1.1552664
-0.13410473 -1.15162 1.1138314
-0.19734764 -1.131705 1.079347
-0.23049545 -1.128114 1.0615698
-0.22474909 -1.1268198 1.0645684
0.19312286 -1.1286472 1.2867841
0.1761446 -1.1285484 1.2777544
0.18517256 -1.1265146 1.2824651
0.20625448 -1.1256896 1.2936362
-5.5883856 -1.2473892 -1.7814445
-5.5670547 -1.2366585 -1.7705716
-5.5980883 -1.2527202 -1.786371
0 0 0 1 0 0 0 1 0 0 0 1 0 0 0 0 0 212 1 0 0
