ply
format ascii 1.0
comment PCL generated
element vertex 367
property float x
property float y
property float z
element camera 1
property float view_px
property float view_py
property float view_pz
property float x_axisx
property float x_axisy
property float x_axisz
property float y_axisx
property float y_axisy
property float y_axisz
property float z_axisx
property float z_axisy
property float z_axisz
property float focal
property float scalex
property float scaley
property float centerx
property float centery
property int viewportx
property int viewporty
property float k1
property float k2
end_header
-0.24930525 -0.61345643 0.31647789
-0.27217817 -0.60900539 0.31030202
-0.28358698 -0.61177939 0.30716598
-0.27909184 -0.63540399 0.30812681
-0.52504158 -1.0575622 0.2364912
-0.58729506 -1.0673773 0.21943831
-0.66644001 -1.0742582 0.19782043
-0.67510605 -1.0742042 0.19546247
-0.68903017 -1.0739608 0.19167531
-0.698246 -1.0739725 0.1891669
-0.74613857 -1.0753317 0.17611659
-0.8058939 -1.0684268 0.15992939
-0.89103413 -1.0712906 0.13672447
-0.96993923 -1.0748261 0.11520922
-1.0182571 -1.0701457 0.10211027
-1.128901 -1.0627815 0.072077632
-1.2140555 -1.0631464 0.048896551
-1.1631522 -1.0661044 0.062718391
-1.1350923 -1.0696104 0.070316553
-1.0410867 -1.0731936 0.095862627
0.041106224 -1.0670224 0.39047754
-0.0967803 -1.1149172 0.3524158
-0.11109209 -1.1148083 0.34852159
-0.12322855 -1.1150637 0.34521556
-0.13595009 -1.114966 0.34175408
-0.21980667 -1.1156355 0.318923
-0.24524927 -1.115442 0.31200027
-0.26708984 -1.1155812 0.30605435
-0.29353857 -1.1157278 0.29885399
-0.30626059 -1.1156309 0.29539239
-0.50473976 -1.0662365 0.24192047
-0.5361557 -1.0710714 0.23331618
-0.56838846 -1.0761068 0.22448719
-0.62670326 -1.0766454 0.20860934
-0.70043612 -1.0767359 0.18853998
-0.73470259 -1.077558 0.17920434
-0.74872637 -1.0770543 0.1753931
-0.81103659 -1.0768713 0.15843582
-0.88218355 -1.0752387 0.13908947
-0.90762949 -1.0750098 0.13216627
-10.020374 1.2556485 -2.3221836
-10.083488 1.2585649 -2.3393288
-10.120497 1.2584239 -2.3494039
-10.079288 1.2566174 -2.3382077
-10.04225 1.2542583 -2.3281529
-6.9412498 -0.44163641 -1.5029939
-6.644608 -0.92927068 -1.4276774
-6.9081168 -1.0612197 -1.5008651
-6.9613662 -1.0565342 -1.5153062
-7.2182646 -0.85115463 -1.5829439
-6.564774 -0.39861941 -1.4000481
-6.4191198 -0.85786402 -1.3655111
-6.1965528 -1.0652307 -1.3072395
-6.100575 -1.071768 -1.2811894
-5.9962783 -1.074441 -1.2528322
-5.9331269 -1.0817645 -1.2357254
-5.8893576 -1.0807151 -1.2238008
-5.7631998 -1.080364 -1.1894598
-5.7303977 -1.0770783 -1.1804953
-5.70433 -1.0771209 -1.1734008
-5.6235485 -1.0758523 -1.1514
-5.5386348 -1.0701524 -1.1282252
-5.5016246 -1.0699342 -1.1181495
-5.4385214 -1.0722589 -1.1010002
-5.3796015 -1.0740139 -1.0849832
-5.2684979 -1.080857 -1.0548197
-5.1990309 -1.0879458 -1.0359913
-5.1756563 -1.0868286 -1.0296168
-5.120481 -1.077481 -1.0144955
-5.0986195 -1.074457 -1.0085117
-5.0054789 -1.0727854 -0.9831425
-4.9203348 -1.0720129 -0.95995986
-4.8948374 -1.075101 -0.95305443
-4.7842412 -1.0724189 -0.92292303
-4.7332468 -1.0785971 -0.90911227
-4.6849766 -1.0778861 -0.89596641
-4.662179 -1.0765843 -0.88974696
-4.5885005 -1.0689641 -0.86960888
-4.5261083 -1.0744908 -0.85268867
-4.4268656 -1.0774577 -0.8257103
-4.3416977 -1.0791851 -0.80254889
-4.0833635 -0.69127095 -0.72792345
-4.033062 -0.64619654 -0.71373147
-3.9439428 -0.37010989 -0.68640554
-4.0198154 -0.13027829 -0.70438945
-3.9412158 -0.11487401 -0.68282533
-3.9081295 -0.17004645 -0.67443353
-3.5962117 -0.31113681 -0.59110594
-3.4630389 -0.28215793 -0.55453742
-3.3239577 -0.31944719 -0.51709759
-3.2502329 -0.31682649 -0.49700236
-3.1677234 -0.31916168 -0.47457129
-3.128217 -0.31599274 -0.46378338
-3.0343304 -0.31517854 -0.43822068
-2.983336 -0.32135591 -0.42440993
-2.9607439 -0.32379082 -0.41828805
-2.9314587 -0.32543987 -0.41033566
-2.8892283 -0.34553811 -0.39906508
-2.4533131 -0.12061882 -0.27791882
-2.4372857 -0.10310131 -0.27336168
-2.2300801 -0.10732549 -0.21701241
-2.0851064 -0.15834284 -0.17812145
-2.1190825 -0.63861001 -0.19270897
-1.8243241 -1.037698 -0.11692047
-1.7505774 -1.040107 -0.096875191
-1.6996732 -1.0430658 -0.083053231
-1.6285691 -1.0371972 -0.06363523
-1.4924812 -1.0447907 -0.026679993
-1.4696369 -1.0442423 -0.020456195
-1.4582005 -1.046468 -0.017368197
-1.3818235 -1.0546538 0.003328681
-1.2825737 -1.067292 0.030201554
-1.2965817 -1.0692888 0.026366591
-1.4160452 -1.0629758 -0.006078124
-1.6596527 -1.1387894 -0.073225141
-1.7728539 -1.1381478 -0.10402858
-1.7816739 -1.1391994 -0.10644078
-1.7956967 -1.1386957 -0.11025178
-1.8465867 -1.1382377 -0.1240977
-1.8720322 -1.1380088 -0.1310209
-1.9431634 -1.1388777 -0.15039074
-1.9774289 -1.1396995 -0.15972602
-2.0168972 -1.1389673 -0.17046022
-2.0309205 -1.1384643 -0.17427146
-2.0537643 -1.1390125 -0.18049502
-2.0880289 -1.139835 -0.18983006
-2.1020517 -1.1393331 -0.19364119
-2.1846209 -1.1379745 -0.21609938
-2.2266748 -1.1389644 -0.22755647
-2.2723615 -1.1400614 -0.24000347
-2.3435085 -1.1384295 -0.25934982
-2.3601184 -1.139649 -0.26388407
-2.3855629 -1.1394203 -0.27080691
-2.4426723 -1.1407912 -0.28636593
-2.4681175 -1.1405616 -0.29328895
-2.4795387 -1.1408367 -0.29640055
-2.5558724 -1.1401484 -0.31716913
-2.5646942 -1.1412001 -0.31958187
-2.6244047 -1.1417944 -0.33584023
-2.6723237 -1.1431694 -0.34889787
-2.6837211 -1.1438197 -0.35200715
-2.7065182 -1.1451211 -0.35822642
-2.729337 -1.1439219 -0.36442381
-2.757468 -1.1439415 -0.37208056
-2.7802639 -1.1452427 -0.37829959
-2.8144586 -1.1471951 -0.3876282
-2.8540108 -1.145365 -0.39837301
-2.8794844 -1.1447763 -0.40529978
-2.9277554 -1.1454873 -0.41844583
-2.9733498 -1.1480893 -0.43088442
-2.9988232 -1.1474998 -0.43781108
-3.095366 -1.1489224 -0.46410352
-3.120841 -1.1483331 -0.47103059
-3.174468 -1.1452646 -0.48559242
-3.2173836 -1.1497564 -0.49732292
-3.3903501 -1.1494116 -0.54439634
-3.6144304 -1.1719891 -0.60563654
-3.8201721 -1.2535393 -0.66254109
-3.9001517 -1.2740245 -0.68453741
-3.9256477 -1.2709358 -0.69144237
-4.0845156 -1.2743288 -0.73472005
-4.162714 -1.2546997 -0.75578552
-4.1654778 -1.2538357 -0.75652808
-4.3705878 -1.2563467 -0.81238192
-4.5277014 -1.1950771 -0.85446304
-4.6014252 -1.1976988 -0.87455803
-4.68648 -1.2084701 -0.89782763
-4.845614 -1.1818697 -0.94084418
-4.9552107 -1.217006 -0.97106439
-4.9926629 -1.2321048 -0.98142588
-5.2257075 -1.2461902 -1.0450115
-5.2682357 -1.235114 -1.0564634
-5.4547467 -1.2258363 -1.1071241
-5.4957957 -1.2404863 -1.1184593
-5.5329752 -1.223206 -1.1283866
-5.5768909 -1.2092575 -1.1401843
-5.7299213 -1.1726637 -1.1814286
-5.9037809 -1.1529034 -1.2285291
-5.9105411 -1.1537335 -1.2303783
-5.9256668 -1.153428 -1.2344917
-5.9778028 -1.1533403 -1.2486808
-6.0106535 -1.151628 -1.257603
-6.132628 -1.1525476 -1.2908117
-6.1586719 -1.1550038 -1.2979275
-6.2326932 -1.1554418 -1.3180791
-6.2587595 -1.1553984 -1.3251733
-6.2806439 -1.1559229 -1.3311355
-6.3437238 -1.1560984 -1.3483063
-6.3656321 -1.1541235 -1.3542472
-6.6170645 -1.0817996 -1.4218767
-6.6540756 -1.0820173 -1.4319526
-6.7062111 -1.0819314 -1.4461416
-6.8172417 -1.0825877 -1.4763688
-6.821425 -1.08202 -1.477501
-6.8694029 -1.0800012 -1.490537
-6.9434228 -1.0804397 -1.5106882
-7.0022945 -1.0836824 -1.5267477
-7.0570307 -1.082495 -1.5416324
-7.094017 -1.0852128 -1.5517294
-7.1352353 -1.0823646 -1.5629163
-7.2159905 -1.0861331 -1.5849378
-7.2530251 -1.0838522 -1.5949923
-7.3748536 -1.0997691 -1.628328
-7.5010352 -1.0976212 -1.6626477
-7.5337901 -1.1059073 -1.6716549
-7.5575447 -1.1058505 -1.6781197
-7.7733951 -1.1928815 -1.7378365
-7.8682761 -1.3128343 -1.7649945
-7.9210382 -1.3541467 -1.7798145
-7.9674878 -1.4022722 -1.7929919
-8.0042992 -1.4224579 -1.8032357
-8.2131996 -1.2354069 -1.8580134
-8.4302559 -1.2375896 -1.9171149
-8.4535561 -1.2378371 -1.9234594
-8.7113562 -1.2379045 -1.9936271
-8.7732563 -1.1995877 -2.0100486
-8.9872398 -1.1114354 -2.0673094
-9.0393019 -1.1111076 -2.0814757
-9.2582045 -0.58402205 -2.135195
-9.1491299 -0.44318157 -2.1039414
-9.1431646 -0.40285873 -2.1018696
-9.0328007 -0.21671844 -2.0697618
-9.0330639 -0.18922174 -2.0695274
-9.0792418 -0.16219753 -2.0817957
-9.2123356 -0.0029372573 -2.1162496
-9.2418795 0.0041176677 -2.1242123
-9.2789288 0.0089293122 -2.1342428
-9.4445724 0.036180079 -2.179024
-9.4456882 0.036080718 -2.1793287
-9.5532904 0.038128376 -2.2085924
-9.5711756 0.035241961 -2.2134924
-9.586132 0.029575884 -2.2176263
-9.6210241 -0.0064854622 -2.227524
-9.6554489 -0.034159064 -2.2372012
-9.6578531 -0.086372435 -2.2384362
-9.837966 -0.3675825 -2.2905853
-9.9000015 -0.40008003 -2.307831
-10.309883 -0.36582044 -2.4190097
-10.323817 -0.35836893 -2.4227195
-10.435451 -0.32376677 -2.4527187
-10.471751 -0.32637638 -2.4626279
-10.530518 -0.3263306 -2.478622
-10.533772 -0.32631043 -2.4795077
-10.55856 -0.36616755 -2.4866977
-10.506606 -0.64561534 -2.4756641
-10.492987 -0.76591545 -2.4732947
-10.624863 -1.1221234 -2.5131488
-10.887529 -1.1847578 -2.5853367
-10.584774 -1.1660466 -2.5027261
-10.424908 -1.1248827 -2.4587569
-10.317877 -1.1182997 -2.4295526
-10.248064 -1.1072855 -2.4104288
-10.111065 -1.1194947 -2.3732767
-10.100094 -1.1191423 -2.3702865
-10.088984 -1.1189736 -2.3672609
-10.074062 -1.1193068 -2.3632033
-10.052097 -1.1211038 -2.357245
-10.019159 -1.1225498 -2.3482962
-9.9630795 -1.1162441 -2.3329625
-9.9561977 -1.1150274 -2.3310757
-9.889123 -1.1108701 -2.3127737
-9.8190899 -1.1221284 -2.2938375
-9.7971468 -1.1214256 -2.2878575
-9.7861767 -1.1210735 -2.2848678
-9.6382179 -1.1153245 -2.2445328
-9.6162491 -1.1171224 -2.2385736
-9.564188 -1.117449 -2.2244074
-9.4572706 -1.1160214 -2.1952913
-9.438097 -1.1199009 -2.1901159
-9.4051857 -1.118848 -2.1811466
-9.3942137 -1.1184967 -2.1781561
-9.3270445 -1.1243391 -2.1599393
-9.2091789 -1.1200597 -2.1278119
-9.1982088 -1.1197085 -2.1248221
-9.1680899 -1.1207378 -2.1166358
-9.0941572 -1.1128633 -2.0964258
-10.900385 1.260896 -2.5616422
-10.889446 1.2615917 -2.5586574
-10.519305 1.2604908 -2.4579263
-10.486414 1.2550787 -2.4490342
-10.445148 1.248273 -2.4378784
-10.371099 1.2460545 -2.4177489
-10.338285 1.2481399 -2.4087946
-10.238271 1.2553632 -2.3814926
-10.279482 1.2571697 -2.3926892
-10.323231 1.2543883 -2.4046278
-10.412443 1.2603581 -2.428843
-10.493232 1.2599365 -2.4508362
-11.29172 -1.0269459 -2.693593
-11.339648 -1.0323699 -2.7066979
-11.376734 -1.0224981 -2.7166817
-11.43572 -1.0157189 -2.7326612
-11.449636 -1.0107684 -2.7363937
-11.507769 -0.9709726 -2.7517738
-11.68264 -0.8130073 -2.7976127
-11.677315 -0.79286093 -2.7959392
-11.635983 -0.73260945 -2.7840199
-11.530428 -0.64736038 -2.7543426
-11.505597 -0.17159635 -2.7422943
-11.597677 -0.10987025 -2.7666698
-11.60124 -0.092464507 -2.7674458
-11.580685 -0.091910303 -2.7618451
-11.548136 -0.091684699 -2.7529838
-11.50771 -0.091027915 -2.7419734
-11.409381 -0.17740721 -2.7161713
-11.416592 -0.65766007 -2.7234735
-11.273861 -1.0101583 -2.6885452
-10.898493 -1.1850542 -2.5883241
-6.5746069 -0.33868033 -1.402058
-6.6995573 -0.33979604 -1.4360788
-6.8201957 -0.34572616 -1.4689796
-6.8710117 -0.34060585 -1.4827535
-6.8875303 -0.33783349 -1.4872187
-6.9203572 -0.33862069 -1.4961621
-6.9729123 -0.34162858 -1.5104997
-6.9803848 -0.34187138 -1.5125362
-7.0271325 -0.34734449 -1.5253206
-7.5073919 -0.50498235 -1.6577883
-7.5941963 -0.42609158 -1.6805371
-7.6035194 -0.41864738 -1.6829919
-7.6265798 -0.42628431 -1.6893532
-7.6382942 -0.43171212 -1.6926019
-7.6507726 -0.49162245 -1.6966643
-7.766222 -0.66458917 -1.73001
-7.8138213 -0.70508993 -1.7434157
-8.0448685 -0.91401392 -1.808624
-8.2290125 -1.1411136 -1.8612686
-8.4516277 -1.1978285 -1.9224896
-8.469696 -1.1978469 -1.9274077
-8.673275 -1.1183655 -1.9819331
-8.7432613 -1.1121075 -2.0009122
-8.7583466 -1.1090925 -2.0049844
-8.773428 -1.1060781 -2.0090556
-8.7844009 -1.1064301 -2.0120461
-8.817338 -1.1049833 -2.0209947
-8.8283081 -1.1053352 -2.0239844
-8.9010448 -1.1068976 -2.0437989
-8.9612341 -1.1090999 -2.0602055
-8.9913521 -1.1080689 -2.0683913
-2.9482112 -0.42438406 -0.41599542
-3.2516675 -0.688631 -0.50152689
-2.9910567 -1.0374787 -0.43447393
-2.8945353 -1.0335567 -0.40815961
-2.8322103 -1.0315851 -0.39117432
-2.5856543 -0.63999522 -0.31971377
-10.974245 1.2456197 -2.5819149
-11.00703 1.241035 -2.5908895
-10.996092 1.2417303 -2.5879045
-10.893322 1.2335449 -2.5600243
-10.867357 1.2429879 -2.5528522
-11.479092 1.0566657 -2.7214229
-11.492079 0.97413111 -2.7258754
-11.461994 0.85807383 -2.7189775
-11.430896 0.76320708 -2.7115684
-11.407253 0.61701334 -2.706759
-11.371497 0.61845803 -2.697011
-11.365814 0.61978745 -2.6954494
-11.348837 0.6461556 -2.6905355
-11.360998 0.70109975 -2.6932344
-11.380368 0.78101242 -2.697618
-11.389791 0.8208462 -2.6997397
-11.415106 0.89955235 -2.7057548
-6.516778 -0.3383379 -1.3863146
-6.528441 -0.32840723 -1.3893785
-10.183529 1.2538407 -2.3666105
-10.205432 1.2549492 -2.3725595
-10.190322 1.2561989 -2.368433
0 0 0 1 0 0 0 1 0 0 0 1 0 0 0 0 0 367 1 0 0
