ply
format ascii 1.0
comment PCL generated
element vertex 404
property float x
property float y
property float z
element camera 1
property float view_px
property float view_py
property float view_pz
property float x_axisx
property float x_axisy
property float x_axisz
property float y_axisx
property float y_axisy
property float y_axisz
property float z_axisx
property float z_axisy
property float z_axisz
property float focal
property float scalex
property float scaley
property float centerx
property float centery
property int viewportx
property int viewporty
property float k1
property float k2
end_header
0.23573303 -1.1084113 -0.93854117
0.24926329 -0.90809977 -0.93678522
0.09879303 -1.067106 -0.97011411
-0.058101654 -1.1088263 -1.0056938
-0.22626162 -1.0572352 -1.0444705
-0.24164581 -1.0502425 -1.0480332
-0.40731001 -0.87022817 -1.0870965
-0.42788744 -0.6279487 -1.0934156
-0.33802557 -0.3880021 -1.0744786
-0.33042955 -0.355941 -1.0729566
-0.38499832 -0.10880879 -1.0870768
-0.18541288 0.24687272 -1.0438349
0.11088896 0.46581274 -0.97757638
0.13630581 0.70106882 -0.97333682
0.26676702 0.90702564 -0.94489431
0.22815752 0.98684317 -0.95425081
0.18737173 1.0266447 -0.96383786
0.1324501 1.0663519 -0.97665501
-0.032405853 0.86535889 -1.0129915
-0.22006845 0.74405473 -1.0550722
-0.37888432 0.7488578 -1.0914012
-0.37869596 0.62886769 -1.0905577
-0.37157583 0.50279015 -1.0880892
-0.50868654 0.18700111 -1.1173189
-1.013382 0.31506729 -1.2335204
-1.0180855 0.31003821 -1.2345618
-0.66377497 -0.03146565 -1.1513066
-0.65199757 -0.031390846 -1.1486154
-0.34515476 -0.34805185 -1.0763745
0.21307707 -1.129281 -0.94357991
0.092657566 -1.1078682 -0.97124445
0.07881403 -1.1081978 -0.97440612
0.051125526 -1.1088599 -0.98072994
-0.047475815 -1.1092737 -1.0032623
-0.074302197 -1.1091723 -1.009394
-0.29034567 -1.0635701 -1.0590746
-0.30803537 -1.0620835 -1.0631275
-0.42470837 -1.0605133 -1.0898032
-0.47110605 -1.065864 -1.1003716
-0.51880598 -1.060717 -1.1113077
-0.55419159 -1.055244 -1.1194316
-0.65957403 -1.0570604 -1.1435044
-0.82034492 -1.0526299 -1.1802777
-0.86570978 -1.0592686 -1.1906015
-1.0263486 -1.1298308 -1.2268444
-1.1017237 -1.1328083 -1.2440513
-1.1217284 -1.1320336 -1.2486286
-1.1517329 -1.1308722 -1.2554938
-1.1871057 -1.1328993 -1.2635646
-1.2071109 -1.1321244 -1.268142
-1.2548018 -1.1319761 -1.2790426
-1.2724886 -1.1329899 -1.2830782
-1.3201799 -1.1328412 -1.2939789
-1.4220157 -1.1530361 -1.3171184
-1.5086303 -1.1340359 -1.3370409
-1.5486374 -1.1324879 -1.3461946
-1.5763249 -1.1331136 -1.3525183
-1.6140153 -1.1333525 -1.361131
-1.6317015 -1.134366 -1.3651663
-1.6793938 -1.1342183 -1.3760672
-1.7270846 -1.1340692 -1.3869679
-1.7570908 -1.1329086 -1.3938334
-1.794781 -1.133147 -1.4024459
-1.8124676 -1.134161 -1.4064813
-1.830153 -1.1351743 -1.4105165
-1.9055328 -1.1356523 -1.4277413
-1.9355392 -1.1344904 -1.4346069
-2.0032396 -1.1310688 -1.4501026
-2.1163094 -1.1317849 -1.4759395
-2.133991 -1.1352983 -1.4799572
-2.1516774 -1.1363113 -1.4839926
-2.1993687 -1.1361629 -1.4948934
-2.2216907 -1.1336012 -1.5000122
-2.2493825 -1.1317273 -1.5063536
-2.3624482 -1.1349434 -1.532173
-2.3901372 -1.1355699 -1.5384971
-2.4832027 -1.1370617 -1.559757
-2.5132082 -1.1359004 -1.5666225
-2.5232108 -1.1355128 -1.5689111
-2.5432136 -1.1347387 -1.573488
-2.5809047 -1.1349771 -1.5821006
-2.7015295 -1.1492336 -1.609574
-2.7314563 -1.1517011 -1.6163971
-2.7591732 -1.1519663 -1.62273
-2.7868893 -1.1522316 -1.6290628
-2.8168275 -1.1521986 -1.6359053
-2.8268068 -1.1521876 -1.6381861
-2.8545234 -1.1524527 -1.644519
-2.909956 -1.1529832 -1.6571844
-2.9299147 -1.152962 -1.661746
-2.9376724 -1.1532493 -1.6635171
-2.9676099 -1.1532164 -1.6703596
-3.2140892 -1.0772247 -1.7271988
-3.2418165 -1.0749902 -1.7335508
-3.3335798 -1.0565317 -1.7546462
-3.4466491 -1.0572368 -1.7804832
-3.4843392 -1.057472 -1.7890956
-3.5597188 -1.0579419 -1.8063204
-3.5974097 -1.0581771 -1.8149331
-3.6551065 -1.0550379 -1.8281404
-3.6827917 -1.0582097 -1.8344467
-3.7104754 -1.0613823 -1.8407525
-3.7481661 -1.0616167 -1.8493651
-3.8235462 -1.0620868 -1.8665899
-3.8612354 -1.0623221 -1.8752021
-3.9366226 -1.0577922 -1.8924619
-4.1728969 -0.96127534 -1.9471058
-4.2602873 -0.75984091 -1.9684227
-4.0579023 -0.39885968 -1.924576
-3.9757011 -0.3586939 -1.9060571
-4.0140696 -0.31890571 -1.9150915
-4.1227641 -0.31980288 -1.9399276
-4.1617055 -0.31998211 -1.9488263
-4.2791672 -0.30799863 -1.9757519
-4.3845601 -0.3021566 -1.9998782
-4.4186573 -0.36086309 -2.0072794
-4.418694 -0.76032913 -2.0046227
-4.6573772 -1.0507916 -2.0572355
-4.7304368 -1.0557451 -2.0739002
-4.7881284 -1.0576065 -2.0870731
-4.8535047 -1.0585139 -2.1020086
-4.9188881 -1.0569205 -2.1169624
-5.1938195 -0.64317572 -2.1825576
-5.2056122 -0.63324982 -2.1853189
-5.4355597 -0.30039474 -2.2400937
-5.5016418 -0.29415244 -2.2552383
-5.4849687 -0.30896863 -2.2513287
-5.4468117 -0.34854823 -2.2423441
-5.4971609 -0.82661146 -2.2506618
-5.7692089 -1.0895135 -2.311084
-5.8070297 -1.0899301 -2.319725
-5.8354545 -1.0949273 -2.3261881
-5.7787895 -1.0940907 -2.3132432
-5.7504563 -1.0936724 -2.3067703
-5.6936798 -1.0907567 -2.2938137
-5.4851594 -1.1484563 -2.2457719
-5.4709926 -1.1482477 -2.2425354
-5.4609118 -1.1482477 -2.2402315
-5.3947587 -1.1474116 -2.2251179
-5.3569365 -1.1469948 -2.2164764
-5.2960548 -1.1463684 -2.2025664
-5.2718062 -1.1461613 -2.1970258
-5.1450748 -1.0853348 -2.1684675
-4.8050466 -1.1637319 -2.0902317
-4.7579665 -1.1739063 -2.0794036
-4.600915 -1.2032354 -2.0433142
-4.4595318 -1.2018862 -2.0110104
-4.3287029 -1.2492745 -1.9807936
-4.1026306 -1.22525 -1.9292855
-3.89979 -1.2790439 -1.8825679
-3.8434153 -1.2984599 -1.8695539
-3.8295562 -1.298328 -1.8663874
-3.7154481 -1.2777145 -1.8404458
-3.667829 -1.2649705 -1.8296475
-3.6031413 -1.2571913 -1.8149152
-3.5813828 -1.2571232 -1.8099427
-3.5049813 -1.2342639 -1.7926339
-3.4729764 -1.2165034 -1.7854377
-3.4236097 -1.1762633 -1.7744236
-11.620706 -0.46816406 -3.6525764
-11.5194 -0.32856128 -3.6303544
-11.614696 0.010843098 -3.6543984
-11.629827 0.11082929 -3.658524
-11.493387 0.53191334 -3.6301498
-11.450367 0.55475551 -3.62047
-11.507183 0.55186695 -3.633436
-11.714995 0.50518173 -3.6806197
-11.752829 0.50735611 -3.6892805
-11.78948 0.071127534 -3.694747
-11.82125 0.048085093 -3.7018542
-11.54025 -0.32775614 -3.6351252
-9.0878706 -0.24166051 -3.0752134
-9.086834 -0.32167146 -3.0744426
-9.1457987 -0.2420786 -3.08845
-9.1464577 -0.12209097 -3.089401
-9.1178818 -0.16180634 -3.0826051
-7.8381248 -1.1273897 -2.7836776
-7.5061083 -0.64998966 -2.7109809
-7.5419359 -0.60541135 -2.7194667
-7.5701337 -0.43007854 -2.7270808
-7.5910764 -0.38834399 -2.7321455
-7.6060801 -0.33553952 -2.7359271
-7.5587311 -0.33547789 -2.7251058
-7.3455162 -0.36042178 -2.6762097
-7.3360271 -0.36042219 -2.674041
-7.3075619 -0.3604247 -2.6675353
-7.2604065 -0.35708725 -2.6567802
-7.2414083 -0.35958993 -2.6524217
-7.1564326 -0.35583389 -2.6330256
-7.1186128 -0.35541719 -2.6243849
-7.0902996 -0.35249826 -2.6179333
-7.0713024 -0.35500041 -2.613575
-7.0238161 -0.36000454 -2.6026886
-6.9671316 -0.36166787 -2.5897224
-6.8633251 -0.34041587 -2.5661395
-6.6475511 -0.12095255 -2.5182889
-6.5469384 0.079969466 -2.4966345
-6.5451808 0.082469225 -2.4962494
-6.4746704 0.09238559 -2.4802005
-6.4368825 0.097789586 -2.4716003
-6.3990231 0.090694427 -2.4629002
-6.1004267 0.044877708 -2.394351
-6.090971 0.044981778 -2.3921907
-6.0501842 0.045399606 -2.3828716
-6.0433903 0.0056121349 -2.3810534
-6.4023542 -0.038349986 -2.4628007
-6.480545 -0.15917513 -2.4798651
-6.3547397 -0.63788784 -2.4479187
-6.354404 -0.6778847 -2.4475751
-6.3546605 -0.71788144 -2.447367
-6.3549166 -0.75787848 -2.4471586
-6.1371584 -1.075349 -2.3952725
-6.034265 -1.0865937 -2.3716815
-6.0058208 -1.0840973 -2.3651972
-5.9491134 -1.0882603 -2.3522091
-6.0341315 -1.0870152 -2.3716481
-6.0529757 -1.0874336 -2.375952
-6.2300625 -1.1167843 -2.4162292
-6.4116044 -1.178683 -2.4573073
-6.4589152 -1.1790994 -2.4681172
-6.5818667 -1.1803517 -2.4962091
-6.6291766 -1.1807683 -2.507019
-6.676506 -1.1786849 -2.5178499
-6.7426386 -1.1820204 -2.5329421
-6.8210135 -1.1622508 -2.5509865
-6.9608488 -1.1236882 -2.5832028
-7.0648227 -1.1249419 -2.6069574
-7.2695231 -1.2470183 -2.6529269
-7.3096328 -1.2574354 -2.6620243
-7.3945107 -1.2882667 -2.6812172
-7.478322 -1.2895213 -2.7003636
-7.5361795 -1.3049369 -2.7134843
-7.6116953 -1.3207705 -2.7306376
-7.7505159 -1.3103729 -2.762434
-7.8800426 -1.3109653 -2.7920332
-7.9415255 -1.3113694 -2.8060822
-8.0172243 -1.3288025 -2.8232667
-8.2206259 -1.2349403 -2.8703799
-8.3980799 -1.2746568 -2.9106717
-8.4332561 -1.2762237 -2.9187007
-8.4526157 -1.2572882 -2.9232516
-8.7651615 -1.0990996 -2.9957385
-8.8029842 -1.0969739 -3.0043969
-8.8316107 -1.0960364 -3.0109458
-8.8881302 -1.0999066 -3.0238373
-8.9545765 -1.0968435 -3.0390439
-9.0866852 -1.1064593 -3.0691731
-9.143549 -1.1112078 -3.0821376
-9.2096272 -1.1122668 -3.0972323
-9.266573 -1.1020157 -3.1103156
-8.9931841 -0.92054498 -3.0490439
-8.7086687 -1.090229 -2.9828863
-8.6804171 -1.0870442 -2.9764509
-8.623868 -1.0881734 -2.9635191
-8.5952435 -1.0891107 -2.9569709
-8.538722 -1.08524 -2.9440789
-8.5291681 -1.0880512 -2.9418764
-8.4057064 -1.1138656 -2.9134874
-8.3583698 -1.1113051 -2.9026856
-8.3300886 -1.1131189 -2.8962102
-8.3092537 -1.1133801 -2.8914466
-8.2643442 -1.1154373 -2.8811688
-8.197608 -1.1076252 -2.8659687
-8.0936422 -1.121191 -2.8421168
-7.9705772 -1.1378837 -2.8138795
-10.32037 1.1813719 -3.3663921
-10.471477 1.2729666 -3.4015381
-10.329485 1.2715375 -3.3690767
-10.301178 1.2718296 -3.3626091
-10.251194 1.261997 -3.35112
-10.045206 1.2336285 -3.3038526
-10.101983 1.2132926 -3.3166931
-9.3929453 1.2446313 -3.1548531
-9.3551502 1.2475052 -3.1462343
-9.2700443 1.2579045 -3.1268528
-9.2589664 1.2582557 -3.1243234
-9.2036514 1.2647383 -3.1117246
-9.2322636 1.2632778 -3.1182539
-9.2535172 1.2605681 -3.1230936
-9.3030949 1.2598581 -3.1344194
-9.3299303 1.2608323 -3.1405592
-9.3683357 1.2604802 -3.1493344
-9.5255871 1.2692006 -3.1853318
-10.312911 -1.1267316 -3.3492892
-10.322443 -1.1263648 -3.35147
-10.416822 -1.1255422 -3.3730459
-10.454625 -1.1283554 -3.3816667
-10.587122 -1.1285622 -3.4119473
-10.615411 -1.1267443 -3.4184246
-10.643681 -1.1299257 -3.4248645
-10.548635 -1.2250249 -3.4025078
-10.473013 -1.2243963 -3.3852286
-10.293813 -1.2181743 -3.3443141
-10.108506 -1.1266644 -3.3025732
-10.089094 -1.1239133 -3.2981553
-10.023361 -1.1237309 -3.283133
-9.9099369 -1.1226104 -3.2572179
-9.8622694 -1.1166743 -3.2463629
-9.8343449 -1.1168649 -3.2399797
-9.7771111 -1.1162403 -3.2269032
-9.6449738 -1.1116234 -3.1967342
-9.8415785 -0.56690013 -3.245302
-9.8748379 -0.56641459 -3.2529066
-10.029217 -1.1127708 -3.2845445
-10.076557 -1.1127176 -3.2953646
-10.133129 -1.1115818 -3.3083012
-10.208731 -1.1172094 -3.3255424
-10.256046 -1.1246539 -3.3363066
-7.7017221 1.2584176 -2.7684197
-7.8038855 1.2500446 -2.791713
-7.8795033 1.2492976 -2.8089902
-7.9551468 1.2535493 -2.8263068
-8.0116825 1.2521093 -2.8392184
-8.0307646 1.2528031 -2.8435841
-8.0498466 1.2534964 -2.84795
-8.0120392 1.2538693 -2.8393116
-7.9456329 1.2582023 -2.8241634
-7.898612 1.2549894 -2.8133955
-7.8608179 1.2578626 -2.8047769
-7.7756586 1.2582638 -2.7853165
-7.7000418 1.2590101 -2.7680397
-7.6829309 1.2595563 -2.7641325
-6.7938647 1.2587554 -2.5609331
-6.8692517 1.2535729 -2.5781279
-7.0397992 1.2595623 -2.6171463
-7.1436896 1.2504816 -2.6408296
-7.1532021 1.2508495 -2.6430061
-7.0940552 1.241483 -2.6294258
-7.087008 1.2395265 -2.6278019
-7.0584579 1.2359252 -2.621253
-7.0065489 1.2419498 -2.6094294
-6.9566979 1.2407241 -2.5980279
-6.8883276 1.2261839 -2.5823052
-6.841104 1.2437196 -2.571629
-6.7750735 1.2598946 -2.5566459
-11.438473 -1.1004511 -3.6067092
-11.485806 -1.1028978 -3.6175108
-11.514095 -1.1010802 -3.6239884
-11.561448 -1.0985252 -3.6348276
-11.59465 -1.0883561 -3.6424837
-11.630327 -1.0482076 -3.6509056
-11.656466 -1.010926 -3.6571281
-11.680336 -0.96817982 -3.662869
-11.6675 -0.92801976 -3.660203
-11.656909 -0.89343762 -3.6580133
-11.625225 -0.84789848 -3.6510758
-9.9119682 1.2557697 -3.2735491
-9.9131613 1.2558129 -3.2738218
-9.9107971 1.255836 -3.2732821
-1.9002979 -1.0574698 -1.4270663
-1.9733696 -1.0547358 -1.4437851
-2.0010536 -1.0578625 -1.4500914
-2.0964379 -1.0575647 -1.4718931
-2.1918261 -1.0547699 -1.4937127
-2.2218301 -1.0536085 -1.5005777
-2.2672014 -1.0577469 -1.5109196
-2.3125753 -1.0593865 -1.5212787
-2.4833391 -1.0595678 -1.5603052
-2.4933417 -1.0591813 -1.5625939
-2.513345 -1.0584072 -1.5671707
-2.5233469 -1.0580192 -1.5694592
-2.5433452 -1.0597442 -1.5740182
-2.5987275 -1.0584972 -1.5866841
-2.6187305 -1.0577228 -1.5912609
-2.7317965 -1.0609391 -1.6170805
-2.76949 -1.0586789 -1.6257102
-2.8271832 -1.0581442 -1.6388996
-2.8548722 -1.0587699 -1.6452236
-3.0156314 -1.0759634 -1.6818502
-3.1287305 -1.0742264 -1.7077103
-9.3231354 -1.0983865 -3.1232672
-9.2951965 -1.1010776 -3.1168637
-9.3517313 -1.1024492 -3.1297755
-9.41782 -1.1010084 -3.1448896
-9.4651709 -1.1010696 -3.1557109
-9.5032949 -1.1073179 -3.1643825
-9.5311918 -1.1121261 -3.1707263
-9.4463749 -1.1125692 -3.1513386
-11.600318 -0.81886721 -3.645577
-11.566653 -0.89036989 -3.6374059
-11.34856 -1.0880996 -3.5862422
-1.4333868 -1.0560659 -1.3203642
-1.4833951 -1.0541301 -1.3318064
-1.5387721 -1.0553823 -1.3444544
-1.5487742 -1.0549942 -1.346743
-1.5687771 -1.05422 -1.3513197
-1.5964651 -1.054847 -1.3576436
-1.6341603 -1.0525854 -1.3662739
-1.6618435 -1.055712 -1.3725798
-1.7472291 -1.0533028 -1.3921106
-1.832607 -1.0558932 -1.4116063
-1.8602948 -1.0565184 -1.4179301
-0.95109653 -1.0568594 -1.2101326
-1.0264764 -1.0573372 -1.2273573
-1.1495514 -1.0551672 -1.2555003
-1.1795588 -1.0540059 -1.2623661
-1.2095599 -1.0553432 -1.2692139
-1.2372427 -1.0584698 -1.2755198
-1.292623 -1.0572226 -1.2881854
-1.3703251 -1.0534135 -1.3059692
-0.72729158 -1.0436386 -1.1590706
-0.76498938 -1.0388784 -1.1677181
-0.80268049 -1.0391177 -1.1763307
-0.89572001 -1.0556068 -1.1974846
0 0 0 1 0 0 0 1 0 0 0 1 0 0 0 0 0 404 1 0 0
