ply
format ascii 1.0
comment PCL generated
element vertex 347
property float x
property float y
property float z
element camera 1
property float view_px
property float view_py
property float view_pz
property float x_axisx
property float x_axisy
property float x_axisz
property float y_axisx
property float y_axisy
property float y_axisz
property float z_axisx
property float z_axisy
property float z_axisz
property float focal
property float scalex
property float scaley
property float centerx
property float centery
property int viewportx
property int viewporty
property float k1
property float k2
end_header
-0.29928827 1.2528105 -3.2443924
-0.41329193 1.2479534 -3.1867108
-0.7002306 0.89372212 -3.0490808
-0.8490181 0.84792012 -2.9746709
-0.94149065 0.76715165 -2.9295793
-0.90810966 0.68729943 -2.9482632
-1.0823641 0.24564373 -2.8696837
-1.0945263 0.15859628 -2.8654404
-0.88600063 -0.22386947 -2.9795866
-0.88603258 -0.26135096 -2.9803977
-0.90109396 -0.38561904 -2.9755068
-0.90111637 -0.41310579 -2.9761024
-0.84429693 -0.48278326 -3.0064425
-0.69613457 -0.59951735 -3.0841241
-0.9191246 -1.0891521 -2.9818993
-0.86178398 -1.0963807 -3.0111251
-0.79451275 -1.0904188 -3.0450935
-0.69733095 -1.0882964 -3.0943084
-0.68485498 -1.0885172 -3.1006374
-0.61759806 -1.1000463 -3.134985
-0.60264301 -1.1032155 -3.1426353
-0.52042103 -1.102921 -3.1843081
-0.49050379 -1.0992645 -3.1993923
-0.42571831 -1.1003491 -3.2322564
-0.37588835 -1.0982635 -3.2574692
-0.36092615 -1.0939354 -3.2649584
-0.33100271 -1.0802835 -3.2798252
-0.27188921 -1.0506709 -3.3091364
-0.0081934929 -1.0883632 -3.4436369
-0.24270678 -1.0332683 -3.323545
-0.049555779 -0.4914135 -3.4094911
-0.13489914 -0.43959504 -3.3650861
-0.20756388 -0.3741776 -3.326808
-0.24884319 -0.37083793 -3.3058095
-0.26760769 -0.37041512 -3.2962885
-0.35440493 -0.38983774 -3.2527189
-0.59148836 0.12916011 -3.1210823
-0.14516544 0.4183262 -3.3409414
-0.114676 0.49719054 -3.3546553
0.017776966 0.65816075 -3.4182429
0.031778336 0.66540462 -3.42518
0.030963898 0.61794013 -3.4258151
0.050895691 0.49763054 -3.4385748
0.04746151 0.37774152 -3.4394808
-0.015625477 0.37816066 -3.4074926
-0.020456314 0.37864441 -3.4050331
-0.056287289 0.3796044 -3.3868489
-0.13704777 0.41100067 -3.3452177
-0.30360746 1.2360303 -3.2425737
-0.35334635 1.1968982 -3.2182245
-0.68142176 0.84840411 -3.0596156
-0.66087437 0.72935373 -3.0726595
-0.63984632 0.67022997 -3.0846238
-0.65253448 0.44987422 -3.0830569
-5.9105859 -0.33545259 -0.43506503
-5.9543204 -0.32071987 -0.41257042
-6.0340958 -0.3265191 -0.37226003
-6.0984402 -0.3353782 -0.33983901
-6.1447339 -0.33619496 -0.31639057
-6.2412348 -0.3207463 -0.26713276
-6.2901449 -0.32266882 -0.24238251
-6.339056 -0.32459164 -0.21763161
-6.4020829 -0.31665453 -0.18550792
-6.4483724 -0.31247422 -0.16195127
-6.4651146 -0.31621534 -0.15354705
-6.528151 -0.32327089 -0.12174934
-6.5603218 -0.32395279 -0.10545683
-6.6722684 -0.3329317 -0.048908889
-6.6876984 -0.33237067 -0.041075051
-6.8331189 -0.33383787 0.032607019
-6.8639784 -0.33021763 0.0483298
-6.8974619 -0.33770016 0.065137446
-7.0093994 -0.33168644 0.1220119
-7.0570059 -0.33930355 0.14597553
-7.0630674 -0.38940871 0.14794207
-6.9283662 -0.40654731 0.079282999
-6.8640251 -0.40518564 0.046698183
-6.8318548 -0.40450472 0.030406117
-6.7842531 -0.4043842 0.0062792003
-6.6723108 -0.40290055 -0.050432056
-6.6079702 -0.40153918 -0.083016604
-6.5281982 -0.40073776 -0.12343565
-6.4805975 -0.40061745 -0.14756203
-6.416256 -0.39925486 -0.18014702
-6.1450238 -0.70158523 -0.32431051
-5.9071884 -1.0877638 -0.45339614
-5.7785144 -1.0975332 -0.51883727
-5.7322173 -1.0892202 -0.54212213
-5.6859231 -1.0884035 -0.56557065
-5.6035299 -1.0789987 -0.60712868
-5.5263762 -1.0793036 -0.64624476
-5.4620376 -1.0829394 -0.67893869
-5.3990107 -1.0908765 -0.71106267
-5.351408 -1.0882573 -0.73513484
-5.23946 -1.0767781 -0.79162812
-5.1091013 -1.0713074 -0.85758698
-4.7602615 -1.1003615 -1.0350568
-4.6283731 -1.0758662 -1.1013709
-4.5636544 -1.0748268 -1.1341542
-4.5185528 -1.075192 -1.1570244
-4.4515481 -1.0742228 -1.190968
-4.4087696 -1.0795144 -1.2127695
-4.3464465 -1.093398 -1.2446679
-4.3291702 -1.0994196 -1.253558
-4.0206051 -1.0932682 -1.4098353
-3.9731073 -1.0787128 -1.433591
-3.7880924 -1.0753148 -1.5273008
-3.6910334 -1.0762542 -1.5765213
-3.6737006 -1.0747802 -1.5852747
-3.5095816 -1.0672557 -1.6683013
-3.184011 -1.058744 -1.8331467
-3.5127888 -1.1921149 -1.6694322
-3.6255004 -1.275172 -1.6141318
-3.6697042 -1.2975137 -1.592218
-4.0531287 -1.116276 -1.393857
-4.1658249 -1.1968342 -1.3385094
-4.2502151 -1.2067733 -1.2959511
-4.2803621 -1.2173582 -1.2809029
-4.3255196 -1.2244895 -1.2581699
-4.4120855 -1.2193666 -1.2141759
-4.5047035 -1.2360566 -1.1675961
-4.597044 -1.2152686 -1.1203294
-4.7309246 -1.1997164 -1.0521214
-4.7783661 -1.2067776 -1.0282288
-5.0430536 -1.2002642 -0.89391387
-5.1726389 -1.2223322 -0.82871366
-5.2778153 -1.2498491 -0.7760067
-5.3180323 -1.2556989 -0.75574982
-5.3978009 -1.2515025 -0.715222
-5.4299631 -1.2396896 -0.69865799
-5.526463 -1.2217407 -0.6493454
-5.6062298 -1.215046 -0.60876369
-5.6860118 -1.2333407 -0.56872559
-5.7349162 -1.2252681 -0.54375744
-5.798645 -1.2155704 -0.51123899
-5.8072433 -1.2151425 -0.50687104
-6.0680618 -1.1236559 -0.37264115
-6.1324015 -1.1225185 -0.34000197
-6.1800022 -1.1226392 -0.31587553
-6.2121725 -1.1233206 -0.29958338
-6.3395252 -1.0917569 -0.23433088
-6.371696 -1.0924373 -0.21803838
-6.4347186 -1.0770047 -0.18575129
-6.4012403 -1.077019 -0.20272195
-6.209465 -0.97477758 -0.2976763
-10.604067 0.91468841 1.9716822
-10.860498 1.0695012 2.1050863
-10.852114 0.86923164 2.0964146
-10.883018 0.66927773 2.1076655
-11.078577 0.51214737 2.2033257
-11.031179 0.35232389 2.1757712
-11.019886 0.30673176 2.1690407
-11.028188 0.07166791 2.1680589
-11.032919 0.056842148 2.1701298
-11.021694 -0.063729763 2.161778
-10.901144 -0.34587696 2.0944414
-10.88772 -0.38633555 2.0867438
-10.895329 -0.3036547 2.0924258
-10.846741 0.014624774 2.0748234
-10.911083 0.087307751 2.1090436
-10.890505 0.4689526 2.1070375
-10.605098 0.84974796 1.9707707
-5.842402 -0.35921931 -0.47015226
-5.8366256 -0.37442327 -0.473416
-5.780756 -0.48390871 -0.50415379
-5.7759409 -0.49657881 -0.50687432
-5.9634523 -0.4971661 -0.41183695
-0.18228149 -0.44481915 -3.3411832
-0.33536339 -0.41259825 -3.2628736
-0.39807701 -0.41369283 -3.2311082
-0.65316057 -0.5965848 -3.1058431
-0.4780035 -1.0695002 -3.2050714
-0.26006413 -1.0341728 -3.3147659
-7.6341133 -1.2370317 0.4186945
-7.8634849 -1.2816449 0.533979
-7.8962874 -1.2817858 0.55060363
-7.9419494 -1.2818956 0.5737474
-7.9750948 -1.2825074 0.59053564
-8.3710299 -1.1584496 0.79397559
-8.4040833 -1.1582825 0.81073451
-8.5789671 -1.1142414 0.90035594
-8.6125488 -1.1166095 0.91732621
-8.6587334 -1.1124817 0.9408288
-8.6923065 -1.1073545 0.95796025
-8.7203054 -1.1003162 0.97230852
-8.7538834 -1.1001852 0.98933244
-9.001009 -0.84772629 1.120175
-9.0322571 -0.64758778 1.1404332
-9.0183792 -0.5277884 1.1360433
-8.9461184 -0.37183979 1.1028568
-8.9420891 -0.36676195 1.1009265
-8.9206085 -0.32720143 1.0909113
-9.0556221 -0.0083348751 1.1663901
-9.0534153 0.15163922 1.1688036
-9.0698814 0.17533004 1.1776735
-9.072588 0.17689276 1.1790797
-9.1033716 0.18304378 1.1948199
-9.1201649 0.18182474 1.2033054
-9.1509581 0.18048006 1.2188851
-9.184535 0.1830411 1.2359618
-9.2167206 0.18239999 1.2522629
-9.2475204 0.17855662 1.2677903
-9.3943815 0.17063171 1.3420599
-9.4406395 0.17720634 1.3656538
-9.4561157 0.12530571 1.3723528
-9.4763393 -0.37146729 1.3716365
-9.5280781 -0.41295835 1.396947
-9.4802084 -0.53104901 1.3700746
-9.4983978 -0.80852628 1.3731689
-9.7895241 -1.1280813 1.5136874
-9.8278294 -1.1338928 1.5329762
-9.860714 -1.1353984 1.5496125
-10.116882 -0.73473752 1.6883105
-10.106863 -0.69466186 1.6841167
-10.089223 -0.5751068 1.6778141
-10.109241 -0.49554008 1.6897181
-10.125299 -0.46587431 1.6985132
-10.202025 -0.33676994 1.7402562
-10.250435 -0.29674411 1.765679
-10.277205 -0.29557899 1.7792743
-10.237208 -0.42727304 1.7560927
-10.186438 -0.5354681 1.7279681
-10.159306 -0.73457432 1.7098185
-10.156479 -0.78465605 1.7072805
-10.153629 -0.81474495 1.7051715
-10.332539 -1.136312 1.788762
-10.288445 -1.1430314 1.7662624
-10.270267 -1.1476152 1.7569472
-10.175097 -1.1424206 1.7088188
-10.144306 -1.146004 1.6931325
-10.063139 -1.1410367 1.6520978
-10.014839 -1.1375713 1.6276911
-9.9693613 -1.1375686 1.6046382
-9.9445925 -1.1375477 1.5920831
-9.9210682 -1.1391003 1.5801245
-9.904994 -1.141283 1.5719279
-9.8888865 -1.1434565 1.5637151
-9.8091116 -1.137717 1.5234035
-9.64814 -1.1694419 1.4411061
-9.6092501 -1.1316051 1.4222277
-9.3108644 -1.0911493 1.2718678
-9.2646732 -1.0902792 1.2484726
-9.2478828 -1.0890938 1.2399875
-9.2016935 -1.0907228 1.2165381
-9.1527252 -1.0963932 1.1915908
-9.0715694 -1.1014211 1.1503414
-9.0421696 -1.1017346 1.1354318
-8.9610062 -1.1017667 1.0942889
-8.914813 -1.0983963 1.0709475
-8.8644457 -1.0998416 1.0453844
-8.802865 -1.1045107 1.0140659
-8.6400299 -1.2048852 0.92930806
-8.5613194 -1.2840774 0.88766098
-8.5360126 -1.3196239 0.87404811
-8.4913158 -1.3194239 0.85139549
-8.4637966 -1.2821848 0.83826756
-6.9468303 -1.0867958 0.073624313
-6.9931202 -1.0826151 0.097181082
-6.9776917 -1.0856739 0.089292884
-7.6213574 -1.2358472 0.41225457
-7.5955715 -1.234458 0.39921427
-7.5026751 -1.1912575 0.35307842
-7.4754229 -1.0831029 0.34165192
-7.5076098 -1.0837409 0.35795355
-7.5559373 -1.087346 0.38237125
-7.5719872 -1.0875134 0.39050323
-7.6041741 -1.0881504 0.40680504
-7.6203127 -1.0886297 0.41497511
-7.6363611 -1.088787 0.42310661
-7.6517577 -1.0882601 0.43092293
-7.716876 -1.0930536 0.46382576
-7.7490668 -1.0961949 0.48007417
-7.7812562 -1.0993356 0.49632186
-7.8134518 -1.1074741 0.51246232
-7.8456459 -1.1131138 0.5286569
-7.8840418 -1.1203986 0.54795933
-6.528616 -1.0829386 -0.13828537
-6.5929551 -1.0818017 -0.10564634
-6.611002 -1.0798483 -0.096455216
-6.6277409 -1.0785921 -0.087942362
-6.6572943 -1.078166 -0.07295236
-6.706203 -1.0775914 -0.048147619
-6.7872872 -1.0851927 -0.0072132945
-6.8490109 -1.0854483 0.024069041
-6.8027153 -1.0821337 0.00067475438
-6.5131798 -1.0735041 -0.14590165
-6.5453534 -1.0791831 -0.12971812
-6.6264291 -1.0742897 -0.088512301
-6.6586003 -1.0774705 -0.072274804
-2.2125051 -1.1524177 -2.3276753
-2.2299428 -1.1537955 -2.3188667
-2.277292 -1.1538329 -2.2948661
-2.3246429 -1.1538699 -2.2708645
-2.3395987 -1.1531994 -2.2632685
-2.4566348 -1.0812857 -2.2023544
-2.4217579 -1.0785301 -2.2199731
-2.3245792 -1.0789057 -2.2692418
-2.2273955 -1.0742846 -2.3184023
-2.182528 -1.0762962 -2.3411903
-2.1476545 -1.0760397 -2.3588624
-2.13518 -1.0787586 -2.3652458
-1.9882298 -1.149514 -2.4412975
-2.0355792 -1.1495497 -2.4172966
-2.1327605 -1.1516724 -2.3680818
-2.8913019 -1.0779772 -1.9819468
-2.9236422 -1.0759971 -1.9655097
-2.9710481 -1.0780603 -1.941525
-2.9883609 -1.077037 -1.9327264
-3.0207205 -1.0775554 -1.9163346
-3.0530801 -1.0780755 -1.8999429
-3.0854392 -1.078595 -1.8835514
-3.1516526 -1.0607449 -1.8495935
-3.0869164 -1.0597453 -1.8823863
-3.0545495 -1.0592452 -1.8987823
-3.0221725 -1.0562463 -1.9151281
-2.9898052 -1.0557462 -1.9315242
-2.9574459 -1.0577466 -1.9479716
-2.8992946 -1.0563092 -1.9774169
-2.860343 -1.0562477 -1.9971603
-2.8519158 -1.0563836 -2.001435
-2.7956083 -1.0552475 -2.0299525
-2.7805965 -1.0557771 -2.0375738
-2.8354313 -1.0790823 -2.0102923
-2.8503871 -1.0784124 -2.0026965
-1.3651848 -1.0829164 -2.7556515
-1.3826199 -1.0817964 -2.746789
-1.4150162 -1.0850024 -2.7304378
-1.3726311 -1.0890614 -2.7520127
-1.3203192 -1.0874262 -2.7784939
-1.2405734 -1.0841842 -2.8188457
-1.1907411 -1.082098 -2.8440599
-1.16083 -1.0834385 -2.8592515
-1.1446319 -1.0830846 -2.8674545
-1.0785999 -1.0756485 -2.9007626
-1.0162964 -1.0787811 -2.9324136
-1.0097661 -1.0791435 -2.9357314
-0.97829533 -1.0808229 -2.9517212
-1.0486941 -1.0844853 -2.9161167
-1.0810876 -1.0851938 -2.8997121
-1.1110015 -1.0863507 -2.8845739
-1.1334019 -1.089327 -2.8732848
-1.1957054 -1.0861956 -2.8416338
-1.2038035 -1.0863726 -2.837533
-1.5745039 -1.0864912 -2.6496258
-1.5595465 -1.0846622 -2.6571674
-1.5445895 -1.0853332 -2.6647639
-1.2854409 -1.0821722 -2.7960577
0 0 0 1 0 0 0 1 0 0 0 1 0 0 0 0 0 347 1 0 0
