ply
format ascii 1.0
comment PCL generated
element vertex 334
property float x
property float y
property float z
element camera 1
property float view_px
property float view_py
property float view_pz
property float x_axisx
property float x_axisy
property float x_axisz
property float y_axisx
property float y_axisy
property float y_axisz
property float z_axisx
property float z_axisy
property float z_axisz
property float focal
property float scalex
property float scaley
property float centerx
property float centery
property int viewportx
property int viewporty
property float k1
property float k2
end_header
-0.096554279 -1.1279399 1.202065
-0.16521358 -1.1493495 1.1805112
-0.26810503 -1.1284046 1.1475427
-0.30404949 -1.1290029 1.1361253
-0.3902998 -1.1192608 1.1085875
-0.42825174 -1.1184273 1.0965137
-0.60007381 -1.06653 1.0412455
-0.6384716 -1.064615 1.0290167
-0.65127087 -1.0639775 1.0249403
-0.72309017 -1.0671362 1.002152
-0.74619865 -1.068104 0.9948191
-0.78211021 -1.0709321 0.9834401
-0.83082104 -1.0731239 0.96798486
-0.92823887 -1.0750059 0.93704396
-0.9744463 -1.069443 0.92228669
-0.94884062 -1.0657204 0.93037874
-0.82831097 -1.0603719 0.96862203
-0.80520487 -1.0619024 0.97598559
-0.70778513 -1.0575204 1.0068955
-0.50597382 -0.99841493 1.070297
-0.34052372 -0.91965461 1.1218932
-0.33571625 -0.91489607 1.1233611
-0.28629017 -0.9553473 1.1395814
-0.27052212 -0.97007823 1.144779
-5.5098472 -1.2135143 -0.51748955
-5.4546995 -1.2550676 -0.49943691
-5.4118648 -1.2544777 -0.48582923
-5.2334752 -1.2564312 -0.4291029
-5.0977149 -1.2468725 -0.38607144
-5.0617805 -1.2540233 -0.37455946
-5.0259089 -1.236176 -0.36338252
-4.9389801 -1.2147883 -0.33602142
-4.8702087 -1.215338 -0.3141554
-4.8500071 -1.2151418 -0.30773664
-4.7027602 -1.1980416 -0.26114932
-4.5137162 -1.253216 -0.20036566
-4.2821617 -1.1846281 -0.1276297
-4.1810112 -1.1696565 -0.095667422
-4.1233244 -1.1744312 -0.077271342
-3.9743986 -1.2076447 -0.029516101
-3.9492531 -1.2075902 -0.021524191
-3.9339943 -1.2072536 -0.016678452
-3.912926 -1.2077212 -0.0099758506
-3.7313054 -1.1259642 0.046722353
-3.5701244 -1.086756 0.097460091
-3.4310291 -1.1243919 0.14214635
-3.3771062 -1.143867 0.15953135
-3.3539701 -1.1433055 0.16687822
-3.2565823 -1.1430326 0.19782984
-3.2334452 -1.1424714 0.20517695
-3.1488357 -1.1419849 0.23206419
-3.0104048 -1.1209792 0.27580011
-3.0440087 -0.80200928 0.26109874
-3.4466214 -1.1030554 0.13692129
-3.5600011 -1.0865111 0.10067469
-3.5735784 -1.0862855 0.096356273
-3.6593983 -1.0862777 0.069078028
-3.6709669 -1.0865586 0.065404475
-3.6825345 -1.0868393 0.061731219
-3.7162049 -1.0871661 0.05103308
-4.0797367 -0.72928321 -0.069027483
-4.0798368 -0.6892882 -0.069563389
-3.9330704 -0.33300287 -0.027403891
-3.6546037 0.035484254 0.056463242
-3.6187079 0.043331921 0.067773938
-3.5213194 0.043605268 0.098725736
-3.3650429 0.10978264 0.14756465
-3.0380845 -0.20167607 0.25541508
-3.2573092 0.11582655 0.181732
-3.3304896 0.13612431 0.15821552
-3.4161954 0.12562716 0.13110596
-3.4648581 0.11299407 0.11579758
-3.5179985 0.095315993 0.099129558
-3.6673946 0.040695012 0.052331924
-3.9517298 -0.32852098 -0.033391356
-4.0384259 -0.32253709 -0.061023355
-4.0976353 -0.32993895 -0.079750061
-4.137351 -0.329988 -0.092373073
-4.1589379 -0.32837069 -0.099255025
-4.2100716 -0.3200238 -0.11561316
-4.2551174 -0.32945135 -0.1298123
-4.2587409 -0.33015931 -0.1309551
-4.2083683 -0.44932064 -0.11344206
-4.1462951 -0.68936765 -0.09068644
-4.1412101 -0.72920799 -0.088568032
-4.5179067 -1.0532975 -0.2042174
-4.5825553 -1.0697218 -0.22455913
-4.6081066 -1.0717978 -0.23265454
-4.6799302 -1.0749952 -0.25544366
-4.7493525 -1.0716782 -0.27755156
-4.7876821 -1.0735418 -0.28971115
-4.8443117 -1.0754368 -0.30768734
-4.8698707 -1.0750127 -0.31581658
-4.9696727 -1.076802 -0.34751651
-5.0007453 -1.07912 -0.35736382
-5.0755358 -1.077213 -0.3811602
-5.1595378 -1.0977609 -0.40760154
-5.2811551 -1.1886485 -0.44511247
-5.374042 -1.2111151 -0.47435364
-5.447783 -1.2118882 -0.49778277
-11.487295 -0.13022339 -2.4310949
-11.40272 -0.1317969 -2.4041929
-11.258893 -0.13248235 -2.3584683
-11.19581 -0.13332397 -2.3384066
-11.237253 -0.15597469 -2.3512938
-11.305353 -0.61201704 -2.3671918
-11.233255 -0.9734332 -2.3397198
-10.936307 -1.1109637 -2.2436004
-11.24865 -1.0127118 -2.3441179
-11.260998 -1.0146399 -2.3480186
-11.286686 -1.0163829 -2.3561614
-11.357831 -1.0118128 -2.3788331
-11.407227 -1.0195301 -2.3944364
-11.496407 -0.93126333 -2.4238949
-11.532425 -0.89025915 -2.4358602
-11.53152 -0.73099118 -2.4375799
-11.518875 -0.69068086 -2.4340689
-11.479768 -0.65042526 -2.4221458
-11.489566 -0.17010665 -2.431314
-11.546795 -0.13058287 -2.4500027
-5.9575315 -0.67169988 -0.66661662
-5.9517546 -0.69584173 -0.66447604
-5.9800768 -1.0851914 -0.668571
-5.8056598 -1.212604 -0.61152607
-8.0219479 -1.0910374 -1.3175128
-8.1538258 -1.0959485 -1.3593688
-8.1785202 -1.1048489 -1.3671057
-8.4205379 -1.1394262 -1.4435959
-8.4857807 -1.156348 -1.4641204
-8.5692444 -1.1588423 -1.4906181
-8.5804424 -1.1575711 -1.4941937
-8.5962191 -1.1577749 -1.4992057
-8.8770905 -1.1010383 -1.5891967
-8.9028177 -1.1028281 -1.5973516
-8.9265203 -1.1038427 -1.6048727
-8.9625807 -1.1043094 -1.6163287
-9.2397108 -0.72617126 -1.7091815
-9.2375622 -0.68615288 -1.709003
-9.2111788 -0.40445113 -1.7041676
-9.2172995 -0.23277277 -1.708277
-9.3924608 -0.0054556727 -1.7668176
-9.4092655 -0.0050984025 -1.7721636
-9.4617844 -0.0047590137 -1.7888613
-9.4686098 -0.0047209859 -1.7910311
-9.4708004 -0.0048760176 -1.7917254
-9.7116404 -0.31060141 -1.8644238
-9.9981012 -0.31542897 -1.9554155
-10.034019 -0.40335703 -1.9657238
-10.31039 -0.6393531 -2.050595
-10.382528 -0.63266677 -2.0736084
-10.479354 -0.63733739 -2.1043258
-10.496112 -0.64613336 -2.1095417
-10.526756 -0.66178519 -2.1190846
-10.562803 -0.67718697 -2.1303484
-10.625607 -0.9262892 -2.147171
-10.153265 -1.103194 -1.9948058
-10.138975 -1.115397 -1.9901102
-10.06581 -1.1239737 -1.9667461
-10.042094 -1.127993 -1.9591572
-9.9926653 -1.1250522 -1.9434831
-9.957612 -1.127578 -1.9323096
-9.9205303 -1.1291208 -1.9205036
-9.89785 -1.1261322 -1.9133322
-9.690855 -1.1687222 -1.8470011
-9.6547928 -1.1682578 -1.8355446
-9.6283264 -1.1682695 -1.8271322
-9.6179581 -1.1678259 -1.8238423
-9.5584602 -1.1673667 -1.8049362
-9.4510345 -1.1628376 -1.7708478
-9.4446678 -1.163354 -1.7688177
-9.2790556 -1.1651753 -1.7161543
-9.2210369 -1.1647812 -1.6977179
-9.1857491 -1.1642809 -1.6865079
-9.1562586 -1.1642973 -1.6771338
-9.143898 -1.1648461 -1.6731982
-8.8718052 -1.2395915 -1.5857704
-8.8232784 -1.2796644 -1.5698408
-8.6555948 -1.2778084 -1.5165656
-8.4922285 -1.2764068 -1.4646567
-8.4763241 -1.2764673 -1.4596006
-8.324419 -1.2499533 -1.4116514
-8.1331682 -1.2381521 -1.3510103
-8.0577478 -1.1914799 -1.3276259
-7.8292947 -1.0842578 -1.2563629
-7.7685003 -1.0898886 -1.2369682
-7.7581663 -1.0912133 -1.2336669
-7.6716561 -1.090054 -1.2061839
-7.661324 -1.0913792 -1.202883
-7.6366024 -1.0924758 -1.1950113
-7.6069894 -1.0907836 -1.1856201
-7.5892019 -1.0904484 -1.1799704
-7.570919 -1.0902888 -1.1741612
-7.5521259 -1.0895941 -1.1681964
-7.5150437 -1.0912404 -1.1563891
-7.5026846 -1.091789 -1.1524538
-7.4522099 -1.0897888 -1.1364354
-7.4275613 -1.0859976 -1.1286486
-7.3421683 -1.0854166 -1.1015134
-7.3193474 -1.0845091 -1.0942712
-7.3307552 -1.0862123 -1.0978758
-7.3430877 -1.085609 -1.1018033
-0.60917234 0.94113916 1.0130489
-0.5082922 1.0209024 1.0441084
-0.43689919 1.0619731 1.0662832
-0.4745183 0.94239265 1.0558331
-0.56455517 0.70161217 1.0302496
-0.56227064 0.51445359 1.0333345
-0.55199671 0.48353904 1.0369899
-0.57695293 0.20134723 1.0326142
-0.57792616 0.18735099 1.0324814
-0.69841003 0.22196186 0.99374884
-0.67259455 0.41567296 0.99951285
-0.67258167 0.42817074 0.99935943
-0.70832777 0.57280308 0.98617429
-0.70831394 0.58530003 0.98602122
-0.68628597 0.62373799 0.99253851
-0.65137005 0.74153525 1.002152
-0.6198163 0.86180025 1.0106654
-6.2478976 -0.05333066 -0.76670438
-6.1395836 -0.086833715 -0.73185414
-6.0918884 -0.1596148 -0.7157768
-6.0386953 -0.21743333 -0.69814044
-5.9910064 -0.37645286 -0.68097794
-5.9545875 -0.49592495 -0.66789633
-6.3325744 -0.61895514 -0.78649002
-6.3222542 -0.33792311 -0.78675187
-6.3247585 -0.29951316 -0.78803205
-6.3247385 -0.25797448 -0.78854918
-6.3375535 -0.17865264 -0.79362226
-6.3465705 -0.13907582 -0.79698718
-6.3332949 -0.10044873 -0.79325438
-6.3208489 -0.09200567 -0.78940481
0.17047024 1.426892 1.2547383
0.20796728 1.4273639 1.2666509
0.28329039 1.4280763 1.2905836
0.2033906 1.4257622 1.2652164
0.1538496 1.4257026 1.2494702
-6.5344343 -1.0772239 -0.84487581
-6.3449335 -0.6573903 -0.78993392
-6.6435509 -1.0839015 -0.87947464
-6.5599947 -1.0837054 -0.85291862
-6.4508705 -1.0795262 -0.81828582
-6.401557 -1.0769423 -0.80264384
-6.3540726 -1.0772419 -0.78754693
-6.3170972 -1.0715561 -0.77586591
-6.1974416 -1.0808606 -0.73771578
-6.1129613 -1.0829716 -0.71083677
-6.0892162 -1.0843718 -0.70327157
-6.0408115 -1.0844793 -0.68788475
-5.8228097 -1.213179 -0.61697
-5.8002424 -1.220367 -0.60970634
-7.0896506 -1.0894421 -1.0211992
-7.1133823 -1.0930411 -1.028697
-7.1247969 -1.0922451 -1.0323353
-7.197885 -1.0834321 -1.0556775
-7.1266623 -1.0826325 -1.0330493
-7.054513 -1.0841404 -1.0100973
-7.0175233 -1.0834525 -0.99834871
-6.9216576 -1.0763619 -0.96796679
-6.8476501 -1.0849823 -0.94433469
-6.8010983 -1.0804752 -0.92959493
-6.7289572 -1.0794835 -0.90667707
-6.6919608 -1.0812957 -0.89489484
-6.6673026 -1.0800035 -0.8870734
-2.4014876 -1.0471157 0.46841556
-2.3439808 -1.0478617 0.48670369
-2.400244 -1.0482366 0.46882492
-2.4399741 -1.0478456 0.45619172
-2.3814023 -0.38822564 0.46649498
-2.6824965 -0.31428123 0.36985916
-2.4300284 -0.32793105 0.45027906
-2.345403 -0.32041192 0.47708279
-2.3223002 -0.32444364 0.48447686
-2.3095045 -0.32758075 0.48858351
-9.2960682 -0.64576435 -1.7281084
-9.5405998 -1.10215 -1.8000813
-9.5890083 -1.1070653 -1.8154061
-9.6250629 -1.1100311 -1.826829
-9.6805124 -1.1078529 -1.8444812
-9.8579073 -1.047822 -1.9016232
-9.8915339 -0.47039139 -1.9195895
-9.6865082 -0.46916059 -1.8544369
-9.6586666 -0.4620178 -1.8456774
-9.3369617 -0.5710423 -1.7420483
0.057343483 1.4253874 1.2187994
0.039754391 1.4243412 1.213222
0.058974266 1.4247811 1.2193255
0.080793381 1.4244723 1.2262647
0.10591459 1.4255896 1.2342355
0.078857422 1.4247587 1.2256458
0.064404011 1.4252548 1.2210453
-1.8898873 -1.0450628 0.63100356
-1.8052731 -1.0450423 0.65789813
-1.7693648 -1.044713 0.66930753
-1.7494545 -1.0435853 0.67562193
-1.7462559 -1.0437443 0.67664057
-1.7359495 -1.0446385 0.67992777
-1.7078576 -1.0456588 0.68886977
-1.6869926 -1.0447133 0.69548982
-1.6279774 -1.0434144 0.71423167
-1.5898285 -1.0455635 0.72638446
-1.494916 -1.0539351 0.75665826
-1.4565086 -1.0483509 0.76879591
-1.4181046 -1.045267 0.78096384
-1.2488842 -1.0527223 0.83484501
-1.1564727 -1.0663481 0.86439008
-1.1436725 -1.0669851 0.86846668
-1.1820812 -1.0725695 0.85632879
-1.3545384 -1.162057 0.8026405
-1.5835872 -1.1633552 0.72985309
-1.7821836 -1.0590713 0.66541404
-1.8283978 -1.0585077 0.65071756
-6.933042 -1.0855631 -0.97146952
-6.9928446 -1.0896586 -0.99042618
-7.0042586 -1.0888627 -0.99406433
-7.8663836 -1.0801131 -1.2682039
-7.913784 -1.0821413 -1.2832446
-7.973527 -1.0911193 -1.3021209
-7.9972277 -1.0921347 -1.3096415
-2.1796448 -1.047955 0.53893954
-2.0232141 -1.0472758 0.58865303
-2.177155 -1.0502002 0.53975922
-2.2745662 -1.0470831 0.50875753
-6.8723006 -1.0887742 -0.95212215
-6.813417 -1.0848711 -0.93345499
-6.7042861 -1.0831913 -0.89878857
-7.78192 -1.0722324 -1.2414562
-7.6809897 -1.0846629 -1.2092185
-7.6572437 -1.0860622 -1.2016532
-7.6211724 -1.0855659 -1.190194
-7.596509 -1.0867742 -1.1823393
-7.5644932 -1.0865459 -1.1721659
-7.5274115 -1.0881925 -1.1603587
-7.4503741 -1.0894045 -1.1358569
0 0 0 1 0 0 0 1 0 0 0 1 0 0 0 0 0 334 1 0 0
