ply
format ascii 1.0
comment PCL generated
element vertex 242
property float x
property float y
property float z
element camera 1
property float view_px
property float view_py
property float view_pz
property float x_axisx
property float x_axisy
property float x_axisz
property float y_axisx
property float y_axisy
property float y_axisz
property float z_axisx
property float z_axisy
property float z_axisz
property float focal
property float scalex
property float scaley
property float centerx
property float centery
property int viewportx
property int viewporty
property float k1
property float k2
end_header
-2.6164651 -0.82113373 3.3570335
-2.4186041 -0.87621236 3.3494442
-2.2589388 -0.85660887 3.345567
-2.5003743 -0.32715723 3.3710461
-2.0200796 -0.29214481 3.3585424
-1.8798704 -0.33081523 3.3531771
-1.5543227 -0.69161487 3.3312106
-1.5589418 -0.73032403 3.3299844
-1.556181 -0.8102237 3.3271022
-1.5391159 -0.83266187 3.3258271
-1.4984512 -0.84931159 3.3240802
-1.3782544 -0.92881095 3.3178544
-1.2979224 -1.150056 3.3077953
-1.1779749 -1.1495653 3.304383
-1.0580275 -1.1490757 3.3009708
-0.97806191 -1.1487489 3.298696
-0.85836005 -1.1495228 3.2952466
-0.7957058 -1.1280257 3.2942095
-0.65848517 -0.90767622 3.2980175
-0.63606858 -0.88511026 3.2981682
-0.15344477 -0.78005421 3.2880557
-0.0534091 -0.86130953 3.2823448
-0.01342535 -0.86107969 3.2812097
0.02656889 -0.86077404 3.280077
0.026107311 -0.7452873 3.284142
0.023582935 -0.74030685 3.284389
0.14377165 -0.25959632 3.2978189
0.3033185 -0.21987209 3.294651
0.32321548 -0.17918864 3.2955096
0.30736589 0.12742269 3.3067205
0.30683661 0.30664939 3.3130238
0.28919983 0.36652344 3.3156288
0.34594917 0.66636664 3.3245265
0.26552105 0.9470849 3.3366752
0.26516008 1.0462397 3.3401644
0.18513107 1.1672214 3.3466973
-0.16317844 1.1291716 3.3553207
-0.22552681 1.1295307 3.3571157
-0.30524683 1.1304334 3.3594267
-0.56642699 1.4072114 3.376605
-0.66644239 1.4242814 3.3800635
-0.74640799 1.4239533 3.3823383
-0.78638983 1.4237881 3.3834755
-0.86617494 1.4065952 3.3851533
-1.0258586 1.4071693 3.389739
-1.1461859 1.4454014 3.3945205
-1.3065448 1.4603781 3.3996308
-1.5058334 1.422063 3.4039843
-1.5455687 1.4231308 3.4051578
-1.6257818 1.4215705 3.4073963
-1.7062399 1.4187782 3.4095988
-1.786206 1.4184496 3.4118736
-1.825942 1.419517 3.4130471
-1.9858227 1.4419515 3.4184053
-2.0651636 1.4041306 3.4193466
-2.0653956 1.4029753 3.4193127
-2.3839791 1.1237396 3.4186239
-2.5240493 1.1631202 3.4240105
-2.5839939 1.1630278 3.4257209
-2.6640046 1.162469 3.427989
-2.7866249 1.1608458 3.4314377
-2.9450264 0.83989859 3.424706
-3.024416 0.75830412 3.4241128
-3.263257 0.67296082 3.427947
-3.3201306 0.55245608 3.4253452
-3.3419948 0.37125361 3.4196126
-3.3567243 0.31373057 3.4180155
-3.398658 0.19361944 3.4150002
-3.3413227 0.16422923 3.4123299
-3.1163735 -0.016783237 3.3995476
-3.1041889 -0.22394404 3.3919308
-3.0865088 -0.26379713 3.390027
-2.8854685 -0.50235832 3.3759091
-3.0376489 -0.81545413 3.3692746
-3.335912 -0.86561477 3.3760424
-3.3760176 -0.87483096 3.3768656
-3.3583841 -0.90469515 3.3753135
-3.0866466 -0.93809354 3.3663726
-3.0571733 -0.89602518 3.3670061
-10.870531 0.59171271 3.6425927
-10.8816 0.52419585 3.6405404
-10.67943 0.083456025 3.6192966
-10.68396 0.034384191 3.6177042
-10.643864 0.012161285 3.6157782
-10.482191 -0.2702727 3.6012464
-10.36116 -0.46468863 3.5909648
-10.316278 -0.46401009 3.5897055
-10.228818 -0.46345708 3.5872242
-9.9216776 -0.53889859 3.5757961
-9.8497601 -0.53761029 3.5737851
-9.4198971 -0.21201929 3.5729187
-9.3723164 -0.21217778 3.5715528
-9.3313217 -0.21667537 3.5702229
-9.0365362 -0.48647717 3.5523286
-8.7411175 -0.69329548 3.5366261
-8.669343 -0.8061868 3.5306132
-8.6477175 -0.89153707 3.5270002
-8.2497559 -0.52760148 3.5283914
-8.5460157 -0.12480718 3.5509939
-8.5966244 0.033369273 3.5579906
-8.6073828 0.12930371 3.5616641
-8.6149979 0.14191763 3.5623243
-8.775197 0.20785387 3.5692179
-8.8379936 0.20890918 3.5710504
-8.9750404 0.16725163 3.5735071
-9.0174198 0.16649844 3.5746922
-9.0271931 0.12647656 3.5735674
-9.2531004 -0.14714634 3.570426
-9.3730183 -0.15296519 3.5736504
-9.4606056 -0.13109288 3.5769219
-9.682312 -0.019230574 3.5871854
-9.7747946 0.27924421 3.6003017
-9.7750664 0.31943259 3.6017196
-9.7580833 0.43871528 3.6054192
-9.7564697 0.59855324 3.610981
-9.7271442 0.71861982 3.6143553
-9.6926022 0.7987659 3.6161797
-9.7077627 0.87733078 3.6193697
-9.7082558 0.91853058 3.6208293
-9.7309151 0.99704564 3.6242318
-9.7340775 1.1168939 3.6285272
-9.6445351 1.403423 3.6360202
-9.6612043 1.3995733 3.6363618
-10.015514 1.1140369 3.6364734
-10.045517 1.1139258 3.6373274
-10.195637 1.1528565 3.6429853
-10.295315 1.1509727 3.6457691
-10.445453 1.1899799 3.6514301
-10.550129 1.1880655 3.6543558
-10.565087 1.1878134 3.6547747
-10.564714 1.1080599 3.6519656
-10.563896 0.94824004 3.6463349
-10.81069 0.6707499 3.6436548
-10.843336 0.64932179 3.6438365
-4.765583 1.1484234 3.4875815
-4.7454777 1.1235656 3.4861345
-4.7454486 1.1088123 3.485616
-4.7449293 1.0036974 3.4819131
-4.7036233 0.74829018 3.471771
-4.6218958 0.5051102 3.4609022
-4.6213341 0.38516542 3.4566779
-4.6211057 0.33522165 3.4549189
-4.5803876 0.16674085 3.4478436
-4.5546861 0.0072976947 3.4415145
-4.5391169 -0.11255789 3.4368641
-4.5789237 -0.15267006 3.436595
-4.6186924 -0.19301531 3.4363165
-4.6166525 -0.63236988 3.4208429
-4.6165042 -0.67209291 3.419445
-4.6266489 -0.632429 3.4211266
-5.0033631 -0.2350699 3.4458389
-5.2755871 -0.68359113 3.437885
-5.2659197 -0.72003114 3.4363303
-5.315486 -0.80022728 3.4349337
-5.4782062 -0.79456258 3.4397845
-5.5580444 -0.80071175 3.4418514
-5.6751204 -0.8424778 3.4437335
-5.929389 -0.96392894 3.4467418
-6.0769563 -0.9640168 3.4509578
-6.1569881 -0.96410251 3.453243
-6.197021 -0.96403766 3.4543898
-6.2769852 -0.96455038 3.4566579
-6.3170347 -0.95471597 3.458148
-6.5172672 -0.92497396 3.4649165
-6.695118 -0.9619751 3.468703
-7.0389318 -0.72304523 3.4869158
-7.2778063 -0.61529183 3.4975259
-7.5172768 -0.658167 3.5028684
-7.5372844 -0.65818751 3.5034397
-7.5573092 -0.65810263 3.5040152
-7.6891031 -0.68356824 3.5068898
-7.7293463 -0.68504524 3.5079885
-7.7691903 -0.68596816 3.5090952
-7.7738056 -0.1975489 3.5263638
-7.5623803 -0.046266496 3.5256269
-7.4437008 0.19434604 3.5306759
-7.4795537 0.61769569 3.5465543
-7.5385928 0.65757167 3.5496414
-7.5166802 0.777201 3.5532122
-7.4607964 0.85802782 3.5544503
-7.6063027 1.4096733 3.5779653
-7.6784954 1.4079409 3.5799687
-7.7159796 1.4076886 3.5810316
-7.862834 1.4154205 3.5855014
-7.8914495 1.4089993 3.5860941
-7.9036698 1.4076709 3.5863969
-7.9733639 1.405956 3.5883293
-8.0607681 1.3953779 3.5904572
-8.1007652 1.3976061 3.5916789
-7.9824018 1.4072187 3.5886321
-7.8628664 1.4545212 3.5868742
-7.8228836 1.4547893 3.5857406
-7.7553282 1.4548563 3.5838113
-7.7427998 1.4547848 3.5834508
-7.7025089 1.4414788 3.5818319
-7.5825477 1.4154389 3.5774884
-7.5632381 1.4157816 3.5769484
-7.5426178 1.4159421 3.5763645
-7.5233312 1.4164325 3.5758302
-7.5026698 1.4163675 3.5752373
-7.4833932 1.4169186 3.5747056
-7.4429293 1.4145178 3.5734644
-7.3832569 1.4165248 3.5718288
-7.3631001 1.4157363 3.5712247
-7.3530302 1.4153836 3.5709245
-7.3228006 1.4142425 3.5700202
-7.2827888 1.4143151 3.5688789
-7.275322 1.4145254 3.5686727
-7.2430773 1.416039 3.5678039
-7.1628714 1.4151953 3.5654812
-7.0426002 1.3971102 3.561408
-6.7227354 1.1825551 3.5447352
-6.6026673 1.1826103 3.5413041
-6.482749 1.1834898 3.5379066
-6.4426918 1.183315 3.5367551
-6.4026494 1.1832246 3.5356071
-6.1625891 1.1837459 3.5287619
-6.0424905 1.1836361 3.5253243
-5.9625421 1.184196 3.5230584
-5.935009 1.1841124 3.5222683
-5.6826339 1.1856987 3.5151083
-5.5751662 1.186257 3.5120554
-5.5226746 1.1864879 3.5105627
-5.3627481 1.185026 3.505939
-5.145391 1.1072079 3.4969943
-5.105382 1.1072831 3.4958532
-4.9456873 1.1484628 3.492732
-4.9056921 1.1486155 3.4915941
-4.8256097 1.1483861 3.4892964
-8.7824211 1.4092281 3.6115756
-8.7996407 1.4078661 3.6120203
-8.7819576 1.4071282 3.6114888
-8.3706856 1.4032791 3.5995951
-8.3137598 1.4061552 3.5980685
-8.2743263 1.4089129 3.5970378
-8.2614717 1.4073641 3.596616
-8.2210598 1.4056886 3.5954018
-8.2160282 1.4055673 3.5952537
-8.1808052 1.4047135 3.5942166
-8.2332458 1.4042058 3.5956981
-8.2612152 1.4061971 3.5965676
-8.2662811 1.406474 3.5967224
0 0 0 1 0 0 0 1 0 0 0 1 0 0 0 0 0 242 1 0 0
