ply
format ascii 1.0
comment PCL generated
element vertex 198
property float x
property float y
property float z
element camera 1
property float view_px
property float view_py
property float view_pz
property float x_axisx
property float x_axisy
property float x_axisz
property float y_axisx
property float y_axisy
property float y_axisz
property float z_axisx
property float z_axisy
property float z_axisz
property float focal
property float scalex
property float scaley
property float centerx
property float centery
property int viewportx
property int viewporty
property float k1
property float k2
end_header
-11.301664 0.56578535 -4.306602
-11.335778 0.55419159 -4.6952281
-11.347528 0.87574023 -4.6903152
-11.348545 0.99589038 -4.6505547
-11.362483 1.2771003 -4.6874461
-11.359138 1.2821505 -4.647665
-11.355615 1.2760863 -4.6106358
-11.34809 1.276126 -4.5259824
-11.341653 1.2812277 -4.4514093
-11.337967 1.2764515 -4.4119873
-11.32138 1.2104002 -4.2535801
-11.310534 1.2040639 -4.1342878
-11.294359 1.2246964 -3.9435725
-11.286844 1.2192295 -3.8613815
-11.283324 1.219614 -3.8216271
-11.276472 1.2191298 -3.7447734
-11.272857 1.2170174 -3.7050095
-11.265629 1.2190399 -3.6228499
-11.246852 1.253686 -3.3968868
-11.245805 1.2540394 -3.3849621
-11.245663 1.2534183 -3.3836308
-11.211525 1.254997 -2.9989948
-11.18801 1.2474953 -2.7377234
-11.198536 0.86161429 -3.020586
-11.166853 0.58043176 -2.7840943
-11.155535 0.54155123 -2.6733627
-11.139935 0.52068996 -2.5068023
-11.136603 0.51982075 -2.4697011
-11.133083 0.52020532 -2.4299474
-11.125855 0.52222788 -2.3477876
-11.115729 0.54398775 -2.2246275
-11.101418 0.55490249 -2.0590076
-11.075285 0.36624357 -1.8454939
-11.049956 0.69227457 -1.4216447
-11.065954 1.0332466 -1.4562438
-11.065114 1.0518945 -1.4388483
-11.061313 1.0917964 -1.3790812
-11.061243 1.0914942 -1.3784273
-11.054665 1.0504414 -1.3219376
-11.047852 0.92992306 -1.2966733
-11.048271 0.8906185 -1.3181551
-11.033954 0.58487678 -1.2874384
-11.0237 0.28916138 -1.2981604
-11.0222 0.25011033 -1.2979338
-11.018545 0.149546 -1.2996914
-11.017818 0.12965076 -1.3000022
-11.016657 0.10157928 -1.2989001
-10.982512 -0.31570894 -1.0927299
-10.951751 -0.37729973 -0.77300382
-10.94816 -0.37761047 -0.73275828
-10.933835 -0.3787069 -0.57209992
-10.923291 -0.37865725 -0.45348582
-10.905514 -0.37945998 -0.25388834
-10.898352 -0.38000649 -0.17356044
-10.88228 -0.059622478 0.14376152
-10.883994 -0.01868552 0.14193553
-10.888899 0.10118426 0.13785732
-10.891794 0.1993998 0.14716321
-10.892962 0.3202334 0.18552423
-10.893203 0.40067455 0.2171129
-10.894096 0.44091505 0.22421187
-10.905421 0.64227802 0.18267494
-10.909595 0.68530458 0.15407556
-10.914279 0.80516928 0.15248096
-10.917253 0.88507527 0.15307641
-10.919405 0.92504352 0.14591801
-10.922951 1.0024697 0.1390397
-10.930315 1.1217337 0.10705495
-10.926948 1.1635267 0.16273898
-10.925645 1.1885308 0.18804717
-10.923677 1.2009577 0.21547341
-10.919128 1.2159061 0.27301043
-10.90842 1.1943121 0.38425207
-10.904974 1.1904429 0.42135668
-10.889773 1.2063972 0.59912324
-10.888028 1.2099965 0.62028551
-10.882709 1.2251031 0.68655276
-10.864553 1.2122124 0.88525164
-10.854983 1.1982182 0.98692465
-10.85003 1.2018992 1.0442122
-10.839315 1.1865789 1.1581908
-10.825968 1.1552414 1.2949543
-10.821491 1.1539439 1.3447496
-10.808548 1.1971512 1.5087489
-10.786811 1.2129203 1.7599477
-10.775993 1.1971507 1.8748964
-10.770072 1.1962668 1.9411184
-10.764881 1.1947291 1.9988533
-10.747251 1.2071266 2.2024345
-10.733006 1.2043043 2.3614488
-10.725836 1.2016453 2.4409471
-10.713524 1.1913818 2.5750566
-10.711364 1.1915567 2.5994215
-10.704515 1.1986607 2.6794767
-10.693013 1.1921067 2.8060522
-10.683619 1.1531674 2.8951173
-10.662268 1.0277644 3.0818071
-10.63632 1.1942811 3.4446168
-10.632886 1.1916897 3.4821415
-10.632338 1.1912116 3.4881101
-10.627069 1.1491649 3.5294442
-10.622376 1.0293062 3.5311332
-10.619413 0.94948226 3.5304346
-10.617463 0.9094469 3.535306
-10.615145 0.82955188 3.5273199
-10.613654 0.78959966 3.5270562
-10.60717 0.67742175 3.5521679
-10.605295 0.63479304 3.5550833
-10.602455 0.57733387 3.5625339
-10.601809 0.55362481 3.5597029
-10.596268 0.27025676 3.5012422
-10.589807 0.15037614 3.5228066
-10.583401 0.020748325 3.5396028
-10.578801 -0.17150252 3.509387
-10.576591 -0.22504327 3.5114174
-10.578702 -0.26885012 3.4690175
-10.581771 -0.28130034 3.4291887
-10.624254 -0.29362082 2.9461098
-10.635548 -0.46755004 2.7449584
-10.616496 -0.82776344 2.8056993
-10.614785 -0.86772102 2.8079038
-10.629422 -1.0241433 2.5766082
-10.632821 -1.065799 2.5206227
-10.638034 -1.068194 2.4609723
-10.651811 -1.0779101 2.3018789
-10.662004 -1.0652366 2.1926379
-10.686682 -1.1024418 1.8992156
-10.690253 -1.102223 1.8591334
-10.702356 -1.1443093 1.7050682
-10.718412 -1.1022786 1.5423957
-10.722037 -1.1018348 1.5018219
-10.745138 -1.0588461 1.2603216
-10.753836 -1.0191286 1.1794244
-10.763141 -0.94231796 1.1075133
-10.795262 -0.89458954 0.76657736
-10.811018 -0.97533303 0.55494785
-10.813014 -0.9779523 0.53138566
-10.816325 -0.9788518 0.49375343
-10.817774 -0.97829121 0.47770059
-10.856615 -1.0207391 0.022752821
-10.860308 -1.1168954 -0.059769273
-10.86729 -1.1192231 -0.13930076
-10.877625 -1.1264617 -0.25862467
-10.888331 -1.1299903 -0.38054329
-10.891685 -1.1286198 -0.41766685
-10.895408 -1.1298221 -0.46005481
-10.902112 -1.1333593 -0.53697169
-10.909373 -1.1281955 -0.61644667
-10.916636 -1.1230335 -0.69592196
-10.923803 -1.1266471 -0.77808452
-10.930786 -1.1289756 -0.85761571
-10.93842 -1.1138232 -0.93701684
-10.946582 -1.0942837 -1.0204821
-10.950056 -1.0923823 -1.0587502
-10.953873 -1.0848067 -1.0984492
-10.961879 -1.059666 -1.1777756
-10.991111 -1.0402994 -1.4983072
-10.998 -1.0514053 -1.5805266
-11.007035 -1.0810395 -1.6947715
-11.027151 -1.0947323 -1.9268553
-11.037138 -1.1120079 -2.0465512
-11.047837 -1.1094644 -2.1658006
-11.05519 -1.1081802 -2.2479506
-11.069692 -1.1929998 -2.4472165
-11.101056 -1.1167134 -2.7674599
-11.111475 -1.1216609 -2.8867526
-11.126631 -1.1890025 -3.0859179
-11.129185 -1.212087 -3.1244826
-11.147841 -1.1889101 -3.3244462
-11.168884 -1.117651 -3.5307503
-11.175017 -1.1301172 -3.6050372
-11.178928 -1.1263509 -3.6474171
-11.185623 -1.1300713 -3.7243013
-11.196415 -1.1250306 -3.8435373
-11.203404 -1.129523 -3.9240651
-11.206927 -1.1274817 -3.9628153
-11.213904 -1.1299475 -4.0423393
-11.221819 -1.1199174 -4.1270857
-11.225072 -1.1211565 -4.1642008
-11.235118 -1.1360918 -4.2835512
-11.240502 -1.1084194 -4.3323183
-11.243858 -1.0897251 -4.3620954
-11.249049 -1.0050313 -4.3843803
-11.25666 -0.90149111 -4.4258547
-11.257347 -0.88386428 -4.4260592
-11.258888 -0.84368992 -4.426271
-11.224301 -0.6035642 -3.9349117
-11.267612 -0.286919 -4.2870708
-11.30471 -0.0028047655 -4.5832229
-11.254638 0.053139016 -3.9961948
-11.256089 0.15498699 -3.9691048
-10.863988 1.1846504 0.87986648
-10.860268 1.185865 0.92222643
-10.825729 0.63860303 1.0774198
-10.840099 0.55760056 0.88127434
-10.843637 0.5576809 0.84151554
-10.851632 0.574404 0.75871801
-10.881239 1.1476389 0.67006958
0 0 0 1 0 0 0 1 0 0 0 1 0 0 0 0 0 198 1 0 0
