ply
format ascii 1.0
comment PCL generated
element vertex 416
property float x
property float y
property float z
element camera 1
property float view_px
property float view_py
property float view_pz
property float x_axisx
property float x_axisy
property float x_axisz
property float y_axisx
property float y_axisy
property float y_axisz
property float z_axisx
property float z_axisy
property float z_axisz
property float focal
property float scalex
property float scaley
property float centerx
property float centery
property int viewportx
property int viewporty
property float k1
property float k2
end_header
-11.61075 -1.0621961 -3.9510591
-11.453732 -1.0818461 -3.9745753
-11.370287 -1.0727912 -3.9877119
-11.281687 -1.0363231 -4.0025411
-10.96031 -0.56357419 -4.0674968
-10.655304 -0.6854949 -4.1104293
-10.294141 -1.0376048 -4.1544533
-9.9947147 -0.64435482 -4.2134242
-9.9797745 -0.56688201 -4.2182641
-10.033538 -0.34690806 -4.217206
-9.7707577 -0.067982227 -4.2667885
-9.7300797 -0.0073177367 -4.2750373
-9.7309074 0.032553583 -4.2762175
-9.7312279 0.054684743 -4.2768941
-9.8524132 0.25896108 -4.2649474
-9.8653984 0.2975111 -4.2642136
-9.8863621 0.57577246 -4.2701144
-9.9543114 0.65816134 -4.262361
-10.055227 1.2252762 -4.2654333
-9.8466692 1.2654345 -4.2988415
-9.8074989 1.2681613 -4.3049583
-9.7385101 1.2730535 -4.3157339
-9.7291565 1.2736151 -4.3171916
-9.7139912 1.2752234 -4.3195782
-9.6406202 1.274315 -4.3308377
-9.5812044 1.2775215 -4.3400855
-9.6447735 1.2799695 -4.3303843
-9.6938953 1.285692 -4.3230133
-9.7331028 1.2854625 -4.3169727
-9.7723103 1.2852329 -4.3109326
-9.8799629 1.2791206 -4.2941675
-9.9151096 1.2752038 -4.288631
-9.9396572 1.2734656 -4.2847967
-10.089391 1.2386738 -4.2606163
-10.188397 1.2319891 -4.2451625
-10.217218 1.228902 -4.2406268
-10.29566 1.233714 -4.2287145
-10.306007 1.2342108 -4.2271385
-10.345253 1.2391157 -4.221261
-10.40308 1.2504261 -4.2127337
-10.481442 1.2477436 -4.2005882
-10.531036 1.2531452 -4.1931343
-10.57104 1.2525837 -4.1869602
-10.634733 1.2524344 -4.177155
-10.665274 1.2573045 -4.1726155
-10.732197 1.2541821 -4.1622157
-10.776553 1.2530897 -4.1553545
-10.835867 1.2509735 -4.1461587
-10.852752 1.2519213 -4.1435914
-10.872088 1.2528654 -4.1406474
-10.938595 1.2617116 -4.1307039
-10.967443 1.2611226 -4.1262455
-10.988138 1.2621162 -4.1230941
-11.128887 1.2122948 -4.0998025
-11.27243 1.2220023 -4.0780339
-11.452558 1.1895729 -4.0492539
-11.652449 1.2753218 -4.0213089
-11.55969 1.1788093 -4.0324163
-11.515925 0.63618016 -4.0213532
-11.574327 0.59614563 -4.011054
-11.670296 0.50909567 -3.993432
-11.675428 0.50559789 -3.9925275
-11.674696 0.45067546 -3.990839
-11.727829 0.11597708 -3.9716859
-11.768908 0.069338888 -3.9638355
-11.813837 0.0075745136 -3.9548965
-11.767029 -0.01030764 -3.9615121
-11.53575 -0.37159476 -3.9852498
-11.535841 -0.75738096 -3.9725828
-11.639643 -0.89244592 -3.9521809
-11.651121 -0.95989406 -3.9482026
-11.648729 -0.97176778 -3.9481812
0.056208611 0.73255122 -5.8051281
0.099511623 0.85422611 -5.8157821
0.099584579 0.93442214 -5.8184237
0.098018169 0.97396266 -5.8194795
0.060826778 0.97216094 -5.8136978
0.06626606 0.89638555 -5.8120494
-1.0571308 -1.3043311 -5.5670118
-0.97863102 -1.3015456 -5.5791821
-0.84748268 -1.2686257 -5.6004419
-0.73879385 -1.2740384 -5.6169882
-0.69949436 -1.2763908 -5.6229582
-0.53572989 -1.2677009 -5.6484418
-0.51240969 -1.2700815 -5.6519518
-0.47785187 -1.2642189 -5.6574616
-0.41165161 -1.2569062 -5.6678877
-0.39909124 -1.2568437 -5.6698227
-0.35692596 -1.2559983 -5.6763382
-0.34811115 -1.2555438 -5.6777096
-0.28167009 -1.2472692 -5.6882043
-0.41604948 -1.2295886 -5.668107
-0.45531559 -1.2297336 -5.6620603
-0.5218482 -1.2333127 -5.6517057
-0.60545635 -1.2327923 -5.6388578
-0.67696524 -1.2430508 -5.6275182
-0.72077084 -1.2473665 -5.6206365
-0.83856916 -1.2478002 -5.6024961
-0.95179701 -1.2465583 -5.5851145
-0.99109697 -1.2442063 -5.5791445
-1.2811942 -0.87701201 -5.5465503
-1.2865825 -0.83884811 -5.5469732
-1.2744761 -0.71844792 -5.5527849
-1.2711611 -0.59859991 -5.5572257
-1.2455635 -0.51695645 -5.5638418
-1.2959657 -0.3706626 -5.560885
-1.2783952 -0.23911569 -5.567903
-1.2606912 -0.11755595 -5.574614
-1.2734942 -0.077656776 -5.5739527
-1.2945509 0.041272894 -5.5746131
-1.2956901 0.14201531 -5.5777421
-1.2959771 0.16027504 -5.5782967
-1.2763877 0.3052116 -5.5860648
-1.2969847 0.42340297 -5.586772
-1.272532 0.54656971 -5.594574
-1.2914891 0.70460761 -5.5968404
-1.2970886 0.75701487 -5.5976977
-1.2841215 0.86608779 -5.6032705
-1.2930684 0.98588967 -5.605823
-1.2994375 1.0647101 -5.6074281
-1.3836851 1.0623169 -5.5943861
-1.54475 1.060277 -5.5695362
-1.5831592 1.0604545 -5.563632
-1.7348628 1.0591822 -5.5402474
-1.7823486 1.0586994 -5.5329251
-1.9391277 1.0582451 -5.5087862
-2.1377456 1.0567012 -5.4781742
-2.2569742 1.0557529 -5.4597974
-2.2965267 1.0555074 -5.4537034
-2.3759155 1.0549102 -5.4414682
-2.3822296 1.0169324 -5.4392509
-2.3808367 0.93537283 -5.4367905
-2.3718894 0.81557059 -5.4342375
-2.3712282 0.76564121 -5.4327021
-2.9066136 0.56394768 -5.3437066
-2.9608171 0.45249641 -5.3317108
-2.9639931 0.53239107 -5.3338423
-2.9571569 0.57150757 -5.3361773
-2.9545982 0.61237216 -5.3379111
-2.9137447 0.57278812 -5.3428993
-1.1995759 -1.320673 -5.544558
-1.2088199 -1.3204994 -5.5431414
-1.2290254 -1.3207811 -5.5400229
-1.3396564 -1.2829012 -5.5242424
-1.4486241 -1.2426316 -5.5087962
-1.5384669 -1.2345216 -5.4952378
-1.6567309 -1.2000031 -5.4781728
-1.707998 -1.1777607 -5.471014
-1.9622247 -0.81417346 -5.4438205
-2.159831 -0.8053298 -5.4137049
-2.3178723 -0.80715466 -5.389327
-2.3203256 -0.80716336 -5.3889494
-2.6740601 -0.80680752 -5.3345313
-2.9255683 -0.7751466 -5.2968702
-3.4691291 -0.63740778 -5.2177496
-2.9978278 -0.32491586 -5.300518
-2.9560215 -0.11593115 -5.3138051
-2.9728632 -0.13844538 -5.3104753
-3.0330279 -0.29341984 -5.2961349
-3.4936321 -0.52515304 -5.2176609
-4.0153871 -0.42416272 -5.1406903
-3.6208835 -0.7816844 -5.1896667
-3.5518055 -0.71667862 -5.2024283
-9.2002048 -0.96982169 -4.3250017
-9.7085152 -1.0715462 -4.2434511
-9.3170385 -0.7057097 -4.3156867
-9.1495399 -0.6584847 -4.3430085
-8.9786148 -0.43942812 -4.3764935
-8.97155 -0.39811841 -4.3789358
-8.8259497 -0.07816124 -4.4118333
-8.8345928 0.00075341761 -4.4130917
-8.8428421 0.038731575 -4.4130678
-8.8453712 0.062922426 -4.4134722
-8.8513155 0.11861856 -4.4143844
-8.8396635 0.18417066 -4.4183269
-8.8434467 0.26272687 -4.4203215
-8.836216 0.30258545 -4.4227414
-8.8125668 0.30309492 -4.4263968
-8.7913818 0.26414901 -4.4283791
-8.6972246 0.14236903 -4.4388733
-8.6966295 0.10241423 -4.4376545
-8.6960335 0.062458366 -4.4364357
-8.6958218 0.039638534 -4.4357195
-8.695261 -0.00032615662 -4.4344954
-8.6392117 -0.42382869 -4.4292297
-8.4440002 -0.65344965 -4.451736
-8.3481693 -0.67557979 -4.4657555
-8.2852516 -0.71433163 -4.4741659
-8.19876 -0.75279772 -4.4862127
-7.8213978 -0.38977686 -4.5561838
-7.8254452 -0.35049894 -4.5568495
-7.8231554 -0.30997068 -4.5585313
-7.8042111 -0.16596106 -4.5661693
-7.786685 -0.069809988 -4.5720196
-7.7806387 0.018703774 -4.5758529
-7.7824535 0.077471763 -4.5775013
-7.783392 0.098163687 -4.5780358
-7.7839756 0.13811585 -4.5792561
-7.7907305 0.21431419 -4.5807161
-7.811965 0.31274664 -4.580677
-7.8866019 0.55205917 -4.5770416
-7.9640694 0.67415845 -4.5691261
-7.9743023 0.73555529 -4.5695653
-7.9850326 0.79792678 -4.5699596
-7.9689007 0.83396387 -4.5736241
-8.2915001 1.2664256 -4.5381694
-8.2970314 1.2662269 -4.5373116
-8.3626671 1.2679344 -4.5272684
-8.4439192 1.2667041 -4.5147257
-8.4730415 1.2692115 -4.5103269
-8.5173664 1.2726074 -4.5036178
-8.5757217 1.2851143 -4.4950485
-8.6199713 1.2835153 -4.4881878
-8.7038527 1.2708778 -4.4748664
-8.7919683 1.2809887 -4.4616394
-8.8311024 1.2757636 -4.4554467
-8.8607101 1.2753067 -4.4508758
-8.9095163 1.2753049 -4.4433661
-8.958848 1.2748353 -4.4357595
-8.9879332 1.2748449 -4.4312849
-9.0618267 1.2732208 -4.4198613
-9.1498814 1.2775521 -4.4064541
-9.2182846 1.284824 -4.3961678
-9.2675419 1.279359 -4.3884091
-9.3459568 1.2789 -4.3763285
-9.3703537 1.2784616 -4.37256
-9.4244089 1.2809383 -4.3643236
-9.4635792 1.2782104 -4.3582067
-9.5033188 1.2739021 -4.3519506
-4.9227276 -0.86826396 -4.9865112
-4.8907599 -0.98571217 -4.9875784
-4.8892097 -0.95013487 -4.9889836
-8.1710787 -0.79162502 -4.4891987
-8.326849 -0.75746763 -4.4663506
-8.4831991 -0.65358937 -4.4456997
-8.9372206 -0.51753819 -4.380301
-9.1120081 -0.67882621 -4.3481164
-9.1953974 -0.94350505 -4.3266044
-5.4261966 1.0697777 -4.9726062
-5.497541 0.74832416 -4.9510856
-5.4987946 0.66840518 -4.9482713
-5.4932442 0.61210394 -4.947279
-5.5344076 0.4284609 -4.9349217
-5.5636015 0.30798936 -4.9264784
-5.9114647 -0.0040847957 -4.8627172
-6.0695949 -0.00055547059 -4.838501
-6.4620943 0.092352428 -4.7811542
-6.5449791 0.52861404 -4.7827091
-6.5270696 0.57711315 -4.7870555
-6.5624523 0.64064765 -4.7836952
-6.6408491 0.7272383 -4.7744722
-6.7064781 0.70278549 -4.7635717
-6.7692165 0.67663324 -4.7530603
-6.7860312 0.6540612 -4.7497325
-6.8185968 0.37417972 -4.7355423
-6.9630537 0.18965727 -4.7072625
-7.0016594 0.14947899 -4.7000046
-7.0173259 0.11284428 -4.6963921
-7.3682518 -0.23925084 -4.630847
-7.7510557 -0.53866935 -4.5621243
-5.3973494 0.7019825 -4.964982
-5.3145413 0.5600853 -4.9730697
-5.3123198 0.55789375 -4.97334
-5.3124595 0.51103866 -4.9717817
-5.3577766 0.50103533 -4.9644804
-7.1704149 1.2861676 -4.711319
-7.2197666 1.2830999 -4.7036247
-7.2639685 1.2764604 -4.6966057
-7.4259324 1.2791334 -4.6717715
-7.4600248 1.2778326 -4.6664834
-7.5776348 1.2771577 -4.6483641
-7.6611533 1.2777847 -4.6355338
-7.7076998 1.2640684 -4.6279221
-8.0709896 1.2817383 -4.5726018
-8.2429123 1.2742157 -4.5459008
-8.3113155 1.2814885 -4.5356145
-8.3794975 1.2737765 -4.5248699
-8.3997421 1.2732978 -4.5217395
-7.2791147 1.2672018 -4.6939712
-7.4308929 1.2702209 -4.6707163
-7.4649854 1.2689213 -4.6654277
-7.5093007 1.2697722 -4.6586366
-7.5484667 1.2670503 -4.6525211
-7.5978184 1.2639829 -4.6448264
-7.8015022 0.75101042 -4.5966611
-7.7692289 0.64035738 -4.5979977
-7.7316523 0.55832314 -4.601089
-7.6694198 0.27746826 -4.6014533
-7.6532907 0.19703852 -4.6012974
-7.6495605 0.17817847 -4.6012526
-7.6508431 0.098259412 -4.598434
-7.6514964 0.07717897 -4.5976424
-5.2770987 -0.16289699 -4.9551187
-5.1537232 -0.22592577 -4.9720354
-5.247396 -0.18778419 -4.9588728
-5.2877812 -0.16873407 -4.9532838
-5.3040175 -0.16126296 -4.9510303
-5.0092564 -0.26941821 -4.9928384
-4.9755507 -0.27025944 -4.9979968
-4.9724331 -0.27004406 -4.9984837
-4.7243204 -0.089859366 -5.0425706
-4.1958013 -0.33313641 -5.1159153
-4.1883926 -0.33811 -5.1168923
-4.0311613 -0.41503301 -5.1385627
-4.9873285 -0.2686345 -4.9962378
-4.7191262 -0.07570684 -5.0438342
-4.691545 -0.025319681 -5.0497308
-4.6605244 0.011855751 -5.0557232
-4.6249223 0.060227782 -5.062788
-4.6037459 0.088587455 -5.0669765
-4.4825649 0.21618626 -5.0898075
-4.4595237 0.24636692 -5.0943427
-4.4209933 0.28462648 -5.1015263
-4.3145251 0.44509965 -5.1231718
-4.3006372 0.48256856 -5.1265378
-4.2906103 0.5257808 -5.129498
-4.2857795 0.56735957 -5.1316051
-4.2218313 0.60238516 -5.1425934
-4.1296082 0.56389433 -5.1555214
-4.1221929 0.55639589 -5.1564164
-4.1217823 0.51145649 -5.1550059
-4.1888256 0.070538715 -5.1302285
-4.1773577 0.016460285 -5.1302195
-4.0581608 -0.18626064 -5.1419115
-4.051692 -0.30607894 -5.1389771
-5.5502892 1.2604967 -4.9597673
-5.3090734 1.2828835 -4.9976177
-5.2757277 1.2809989 -5.0026865
-5.2410827 1.2795225 -5.0079694
-5.1241832 1.2816751 -5.0260272
-5.0509739 1.2774516 -5.0371532
-5.0218496 1.2742401 -5.0415297
-4.9829602 1.2715945 -5.0474267
-5.0234718 1.2737294 -5.0412631
-5.0577927 1.2753084 -5.0360341
-5.1057506 1.2725991 -5.0285659
-5.1788688 1.2668364 -5.0171261
-5.947372 0.096695967 -4.8604975
-5.9827719 0.097537495 -4.8550782
-5.9914775 0.096443594 -4.8537025
-10.014491 0.2129793 -4.2385001
-10.015465 0.13578236 -4.2358184
-10.002567 0.05078578 -4.2350154
-10.002338 0.028667957 -4.2343249
-10.275625 -0.28193891 -4.1820869
-10.311259 -0.31303567 -4.1755838
-10.318508 -0.32055792 -4.174222
-10.738788 -0.39721397 -4.107039
-10.84878 -0.35973796 -4.0913434
-10.869017 -0.35999981 -4.0882211
-10.927895 -0.35525391 -4.0793171
-11.262865 0.087520368 -4.0422969
-11.248827 0.11002993 -4.0451956
-11.261181 0.14291243 -4.044373
-11.225345 0.46523219 -4.0604587
-11.300682 0.67642009 -4.0557928
-11.300262 0.73228312 -4.0576897
-11.301538 0.75883162 -4.0583639
-11.297441 0.83625555 -4.0615339
-11.139077 1.197804 -4.0977597
-10.917772 1.2482289 -4.1334658
-10.878525 1.2433257 -4.1393442
-10.800108 1.2410121 -4.1513338
-10.752812 1.2476814 -4.1588302
-10.703271 1.2472767 -4.16644
-10.653704 1.2443743 -4.1739717
-10.559833 1.2475598 -4.1885204
-10.520611 1.245155 -4.1944761
-10.507271 1.2452391 -4.1965318
-10.462863 1.2413361 -4.2032371
-10.355549 1.2346165 -4.2195292
-10.17486 0.72527122 -4.2306261
-10.16734 0.6954298 -4.2308044
-10.147771 0.64456785 -4.2321477
-10.130268 0.61614907 -4.2339087
-10.125292 0.61118352 -4.2345114
-10.030432 0.45154467 -4.2438717
-10.010359 0.27292925 -4.2411022
-2.8867536 -0.6547519 -5.3067913
-6.5326872 -0.84210956 -4.7396436
-6.7000589 -0.35305002 -4.7299299
-6.6246433 -0.14787132 -4.7482638
-8.9144115 1.2639468 -4.4422402
-9.0762854 1.2616593 -4.4172573
-9.1940193 1.2684619 -4.3993645
-9.2724342 1.2680027 -4.3872838
-9.3269215 1.2736558 -4.3790855
-9.4053726 1.2756937 -4.3670807
-7.308547 -1.0105454 -4.614737
-7.267148 -1.0113099 -4.6210818
-7.1903715 -0.9721477 -4.6341801
-6.8442545 -0.86935258 -4.6908088
-6.5881677 -0.90234125 -4.7291312
-2.8266428 -0.57414138 -5.3186846
-2.3598008 -0.44614062 -5.3947163
-2.3255165 -0.28726804 -5.4052019
-2.3692932 -0.12495273 -5.40379
-7.0898161 -0.33125803 -4.6706724
-6.8448005 -0.83189619 -4.6919532
-6.8616982 -0.8494674 -4.688777
-7.3339701 -0.25045705 -4.6357546
-7.21559 -0.3022669 -4.6522703
-9.5027494 1.275484 -4.3520904
-8.7133675 1.2689615 -4.4733396
-8.7821531 1.2631038 -4.462563
-8.8045654 1.2605737 -4.4590316
-8.8143663 1.260517 -4.4575214
-8.5325317 1.2709992 -4.5012317
-8.5957069 1.2671539 -4.4913845
-8.6399565 1.2655556 -4.4845233
-2.3757946 -0.005139783 -5.4067192
-2.3267405 0.17567106 -5.4201975
-2.3278482 0.23367332 -5.4219294
-2.3562617 0.37623283 -5.4222331
-2.3674197 0.45597771 -5.4231315
-8.5224085 1.2712398 -4.5027971
0 0 0 1 0 0 0 1 0 0 0 1 0 0 0 0 0 416 1 0 0
