ply
format ascii 1.0
comment PCL generated
element vertex 264
property float x
property float y
property float z
element camera 1
property float view_px
property float view_py
property float view_pz
property float x_axisx
property float x_axisy
property float x_axisz
property float y_axisx
property float y_axisy
property float y_axisz
property float z_axisx
property float z_axisy
property float z_axisz
property float focal
property float scalex
property float scaley
property float centerx
property float centery
property int viewportx
property int viewporty
property float k1
property float k2
end_header
-5.837388 0.34398556 3.4380233
-5.8296027 0.19649793 3.4364023
-5.8285332 0.15641716 3.4361103
-5.284411 0.30736509 3.3593545
-5.0814176 0.57881016 3.331471
-4.8684983 0.60160661 3.3013091
-4.5907269 0.3107909 3.2608407
-4.5894966 0.13213989 3.260042
-4.8214235 -0.22930171 3.2917204
-5.0670538 -0.39714247 3.3260217
-4.6782064 -0.66843641 3.2698448
-4.6505299 -0.73576039 3.2656786
-4.6103292 -0.78801209 3.2597864
-4.2043948 -0.86551481 3.2018597
-4.1662297 -0.86527711 3.1964397
-3.6521716 -0.94709808 3.1231408
-3.3988676 -0.86050719 3.087466
-3.3613124 -0.85527223 3.0821502
-3.2570508 -0.73964119 3.0677457
-3.1651232 -0.37905961 3.0559485
-2.9232643 -0.28930819 3.0219102
-2.8051982 -0.27120233 3.0052042
-2.7668955 -0.26590443 2.9997826
-2.4289138 -0.45169294 2.951129
-2.1658251 -0.65047687 2.9130673
-2.1254606 -0.89028686 2.9064965
-2.0415468 -0.92991382 2.8944397
-1.7798972 -1.1540416 2.8564939
-1.6595759 -1.173468 2.8393364
-1.444284 -1.1871082 2.8087103
-1.4027658 -1.1924039 2.8027949
-1.3240085 -1.1920383 2.79161
-1.2846293 -1.1918546 2.7860177
-1.2058725 -1.191489 2.7748327
-1.1274428 -1.2110097 2.7636251
-1.0707641 -1.2282472 2.7555146
-0.99620152 -1.2304288 2.7449167
-0.95264006 -1.2251974 2.7387478
-0.88226986 -1.2299272 2.7287364
-0.7205534 -1.2291481 2.70577
-0.68117476 -1.2289652 2.7001777
-0.64599991 -1.2288297 2.6951823
-0.60486555 -1.2086263 2.6894104
-0.55059195 -1.1882715 2.6817727
-0.44381952 -1.1677182 2.6666794
-0.4128499 -1.1676319 2.662281
-0.19214725 -1.146578 2.6310077
-0.32716513 -1.1366791 2.6502192
-0.35774183 -1.1275188 2.6545939
-0.40883017 -1.127718 2.6618495
-0.60892773 -1.1831869 2.6900761
-0.77270985 -1.1894763 2.7133167
-0.81208801 -1.1896585 2.718909
-0.8908453 -1.1900245 2.7300937
-0.93022346 -1.1902078 2.7356861
-0.96960258 -1.1903906 2.7412786
-1.0089817 -1.190573 2.746871
-1.0483594 -1.1907563 2.7524633
-1.0877376 -1.1909401 2.7580557
-1.3832479 -0.89217061 2.8010716
-1.2776384 -0.33888066 2.7880044
-1.2338381 -0.3315137 2.7818091
-1.23206 -0.31649435 2.7816091
-1.2616978 -0.29163092 2.7859054
-1.2670751 -0.29162604 2.7866693
-1.2875342 -0.32642704 2.7894535
-1.6019273 -0.64582771 2.8329916
-1.9049554 -0.4093585 2.8768578
-1.9117846 -0.36936826 2.8779674
-1.9143071 -0.3347522 2.8784466
-1.9511027 -0.20953389 2.8841102
-1.9566617 -0.12949358 2.8851793
-1.928339 -0.009381488 2.8815761
-1.9225545 0.030603528 2.8808942
-1.9132409 0.065255329 2.8796926
-1.9130116 0.08679387 2.8797352
-1.9911895 0.5264433 2.892375
-1.992409 0.56643498 2.8926878
-2.0238559 0.6062727 2.8972936
-1.705111 1.0878421 2.8537035
-1.9342773 1.4066659 2.8873663
-1.8703823 1.4069773 2.8782923
-1.772296 1.4074507 2.8643625
-1.7522478 1.4075413 2.8615153
0.62149572 1.4295202 2.5244431
0.51593351 1.469259 2.5395751
0.5133419 1.4692397 2.5399432
0.4818759 1.4685764 2.54441
0.44093561 1.4682518 2.5502238
0.31227827 1.4824835 2.568547
0.30812454 1.4826332 2.5691376
0.2770915 1.4769557 2.5735254
0.24064732 1.4664742 2.578665
0.12398863 1.4427886 2.5951517
-0.065883636 1.4640242 2.6221938
-0.13118792 1.4636781 2.6314681
-0.20779228 1.4528443 2.6423106
-0.43630219 1.4138687 2.6746302
-0.23855019 1.4146681 2.6465459
-0.19492912 1.4048997 2.640316
-0.037441254 1.4114196 2.6179705
0.0061368942 1.4066502 2.6117642
0.045498371 1.4095302 2.6061835
0.08490324 1.4074107 2.6005795
0.1720171 1.4028734 2.5881906
0.29016542 1.4040129 2.5714138
0.3336792 1.4067434 2.5652428
0.41539049 1.42739 2.5537093
0.56986952 1.4215221 2.5317478
-9.8085966 -0.056941196 4.0006638
-9.7919273 -0.096878245 3.998157
-9.6751499 -0.096025243 3.9815736
-9.594614 -0.11547206 3.970067
-9.5531034 -0.13520341 3.9641023
-9.5131941 -0.1349255 3.9584348
-9.4333744 -0.13436903 3.9470997
-9.3538046 -0.1413105 3.9357738
-9.2309361 -0.17049421 3.9182205
-9.0373421 -0.43904501 3.8897858
-9.0370064 -0.49154472 3.8895545
-9.0418663 -0.53164357 3.8901048
-9.033844 -0.57155865 3.8888261
-8.7951488 -0.68237686 3.8545363
-8.7554646 -0.73959291 3.8487
-8.6789932 -0.76901299 3.8377359
-8.4787722 -0.96636325 3.8086085
-8.4441051 -1.0073651 3.8035414
-8.3220749 -0.96648091 3.7863519
-8.3226242 -0.92648071 3.7865696
-8.3231735 -0.88647991 3.7867875
-8.3623714 -0.7667709 3.792773
-8.3654509 -0.60676336 3.7937694
-8.1342182 -0.28506607 3.7620506
-8.0161562 -0.25422335 3.7453897
-7.9230328 -0.24361877 3.7322001
-7.7336502 -0.28229457 3.7051666
-7.5665016 -0.72119844 3.6798928
-7.7272825 -0.88222402 3.7021663
-7.6918225 -1.0019759 3.6967115
-7.2737317 -0.88765174 3.6377285
-7.208087 -0.92787594 3.6282642
-7.0387058 -0.80804878 3.6046252
-6.9602499 -0.76752406 3.5936234
-6.4298992 -0.72393042 3.5184486
-6.9350843 -0.44606936 3.591172
-6.6459332 -0.20492993 3.5509455
-6.692627 -0.20524324 3.5575764
-6.7724452 -0.20565881 3.5689118
-7.0391426 -0.20757405 3.6067848
-7.0858479 -0.20538692 3.6134262
-7.3549585 0.055194318 3.652559
-7.356626 0.25519535 3.6534944
-7.35851 0.49519628 3.6546004
-7.1251745 0.81667638 3.6225822
-7.126193 0.89668161 3.6230063
-7.1294003 1.0567054 3.6240211
-7.1302018 1.096712 3.6242745
-7.1717162 1.1764842 3.6304498
-7.1962924 1.17633 3.6339397
-7.2870531 1.1757126 3.6468287
-7.4061956 1.1749876 3.663748
-7.4653416 1.1741064 3.6721458
-7.6238003 1.1729953 3.6946483
-7.6648879 1.1727114 3.7004828
-7.8829169 1.1711848 3.7314448
-8.099206 1.1746647 3.7621772
-8.1432114 1.169369 3.7684088
-8.3013744 1.1682596 3.7908692
-8.4190388 1.1674318 3.8075786
-8.4985619 1.1668749 3.8188715
-8.776454 1.1649297 3.8583345
-8.8565683 1.1643709 3.8697114
-8.8958874 1.1640937 3.8752949
-9.0164995 1.1632534 3.8924229
-9.1353416 1.1624204 3.9092994
-9.4132347 1.160475 3.9487627
-9.4930534 1.1599172 3.9600973
-9.5630417 1.1594282 3.9700365
-9.8362179 1.1574831 4.0088296
-9.8307943 1.0775199 4.0077801
-9.8164701 0.75761586 4.0046277
-9.8338528 0.67748773 4.0068169
-9.8347778 0.63748306 4.0068083
-9.8328323 0.51749218 4.0061131
-9.8286695 0.35752493 4.0049629
-9.8129635 0.23764686 4.0023131
-9.8293638 0.15750781 4.0043626
-9.816802 0.037602663 4.0021596
-9.8213377 -0.01709561 4.0026126
-2.6967616 1.1849061 2.9948895
-2.7407277 1.182127 3.0011244
-2.9539323 1.400756 3.0321701
-2.9265771 1.4009343 3.0282853
-2.9173257 1.4009888 3.0269716
0.93911934 0.35229841 2.4755671
0.98155689 0.51251119 2.4700992
0.98121834 0.55250907 2.4702868
0.9805398 0.63250482 2.4706628
0.96081495 0.71239781 2.4737434
0.97850561 0.87249029 2.4717901
0.93403053 0.95226389 2.4783857
0.93504858 0.83227086 2.4778218
-2.0863559 0.67844492 2.9064226
-2.113291 0.64581728 2.9101343
-2.1008177 0.60587651 2.9082232
-2.0813811 0.49598062 2.9050786
-2.4458625 0.20420916 2.9558277
-2.5297265 0.18782951 2.9676819
-2.5699911 0.14764282 2.9732604
-2.57164 0.12359329 2.9734106
-3.1254108 -0.0063105375 3.0516102
-3.1648922 0.020945519 3.057313
-3.3121774 0.43856543 3.0796914
-3.2659159 0.51884621 3.073401
-3.0158682 0.64154398 3.0383148
-2.998642 0.6816327 3.0360081
-3.3411081 1.0384396 3.085896
-3.3336895 1.0784744 3.0849822
-3.3429945 1.0783945 3.0863035
-3.3924346 1.0331174 3.0931673
-3.4089639 0.95800501 3.0952528
-3.4820106 0.79754281 3.1050673
-3.4814994 0.75754559 3.1048548
-3.5390365 0.55903691 3.1123335
-3.7206423 0.27614498 3.1371393
-4.1940689 0.5932647 3.2054892
-4.2384872 0.6729849 3.2120764
-4.2587485 0.75285542 3.2152333
-4.2304835 1.073006 3.212337
-4.2280045 1.0980288 3.2120724
-4.5550675 1.1910167 3.2588508
-4.5951185 1.1107696 3.2642591
-5.101954 0.99020523 3.335825
-5.1019125 0.98270541 3.335793
-5.2640219 0.62749547 3.3575768
-5.4237504 0.54645669 3.3799806
-5.8131495 0.9042272 3.4365377
-5.8382535 0.50398117 3.4387052
0.94428873 0.23215687 2.4744129
0.94522715 0.15215194 2.4740005
0.51088667 -0.097775266 2.5348177
0.50994492 -0.29797655 2.5342522
0.12763596 -0.70202011 2.587141
0.11276245 -0.7420873 2.5891137
-0.027456284 -1.1214614 2.6077039
-0.077620506 -1.1451616 2.6147461
-0.12561607 -1.1462014 2.6215594
-0.14436102 -1.1462988 2.6242213
0.094476223 -0.70205426 2.5918508
-0.095464706 -0.34568757 2.6200733
-0.094673157 -0.30519277 2.6201024
-0.06681776 -0.26438397 2.6162887
0.11584377 0.057006076 2.5914674
0.1025672 0.1418553 2.5936494
0.089864731 0.17671035 2.5955753
0.08136034 0.26522785 2.5970926
0.12104702 0.32080042 2.59165
0.15625477 0.3238301 2.5866599
0.31785536 0.33519995 2.5637469
0.3967042 0.32596064 2.5525155
0.47951746 0.33906949 2.5407991
0.5622654 0.35967979 2.5291183
0.60458899 0.34995762 2.5230732
0.93945742 0.31230152 2.4753792
0 0 0 1 0 0 0 1 0 0 0 1 0 0 0 0 0 264 1 0 0
