ply
format ascii 1.0
comment PCL generated
element vertex 514
property float x
property float y
property float z
element camera 1
property float view_px
property float view_py
property float view_pz
property float x_axisx
property float x_axisy
property float x_axisz
property float y_axisx
property float y_axisy
property float y_axisz
property float z_axisx
property float z_axisy
property float z_axisz
property float focal
property float scalex
property float scaley
property float centerx
property float centery
property int viewportx
property int viewporty
property float k1
property float k2
end_header
-11.026117 1.2597233 -3.5852284
-10.965893 1.2730036 -3.5985219
-10.874384 1.2726979 -3.6179838
-10.773601 1.2630069 -3.639082
-10.682123 1.2651988 -3.658627
-10.658298 1.2630025 -3.6636181
-10.581431 1.2629997 -3.679975
-10.56676 1.2601988 -3.6829965
-10.482557 1.2587949 -3.7008643
-10.436726 1.2523988 -3.7103872
-10.367071 1.2438053 -3.7249005
-10.350582 1.2430094 -3.7283807
-10.273715 1.2430078 -3.7447379
-10.154633 1.2691807 -3.7710202
-10.132902 1.2785991 -3.7759831
-10.05591 1.2712047 -3.7921011
-9.9478626 1.2698739 -3.8150456
-9.8326206 1.275012 -3.8397539
-9.8108158 1.2794363 -3.844553
-9.6788263 1.272707 -3.8723981
-9.6642876 1.2756574 -3.875598
-9.2559195 1.2682416 -3.9622319
-9.5975056 0.98068357 -3.8791981
-9.5988293 0.9779098 -3.8788166
-9.6404438 0.85700417 -3.8656118
-9.7080765 0.69849867 -3.8455176
-9.6988649 0.37882847 -3.835978
-9.7035952 0.37382895 -3.8347917
-9.7309055 0.42111957 -3.8306811
-9.7283697 0.43415672 -3.8316898
-9.7094402 0.69822246 -3.8452172
-9.8196802 0.89801216 -3.8289454
-10.05205 1.2249113 -3.7912571
-10.112551 1.234109 -3.7787135
-10.189358 1.2291168 -3.7621894
-10.266287 1.2341148 -3.7459989
-10.343216 1.2391119 -3.7298079
-10.39632 1.2419143 -3.7186081
-10.50435 1.245514 -3.6957493
-10.511684 1.2469131 -3.6942387
-10.550667 1.2543398 -3.6862104
-10.61487 1.2566049 -3.6726294
-10.705856 1.259901 -3.6533861
-10.734617 1.2555807 -3.6471105
-10.743748 1.2542093 -3.6451182
-10.7589 1.2577077 -3.6420197
-10.782754 1.2624022 -3.6371124
-10.857836 1.2669075 -3.6212974
-11.085194 1.1712148 -3.569473
-11.059458 1.254428 -3.5779433
-11.387589 0.57292271 -3.4836011
-11.518522 0.4952023 -3.4529424
-11.577391 0.10621925 -3.4264221
-11.573127 0.015613526 -3.4240704
-11.329876 -0.44430935 -3.4592888
-11.576698 -0.88824147 -3.3907952
-11.322714 -1.087774 -3.4376655
-11.412668 -1.0943968 -3.4182849
-11.440643 -1.0922334 -3.4124093
-11.477262 -1.0918481 -3.4046307
-11.488689 -1.0922194 -3.4021857
-11.519497 -1.0897095 -3.39572
-11.541574 -1.0767214 -3.3914895
-11.561516 -1.0532805 -3.3880892
-11.590486 -1.0077976 -3.3835607
-11.595677 -0.99980843 -3.3827431
-11.606976 -0.97459048 -3.3812461
-11.609932 -0.96728259 -3.3808799
-11.608696 -0.93389291 -3.3823442
-11.608625 -0.93239367 -3.3824131
-11.696472 -0.65667146 -3.3736379
-11.692026 -0.61569571 -3.3760581
-11.657823 -0.37621075 -3.3919518
-11.599688 0.009098798 -3.4181838
-11.624599 0.072281674 -3.4151554
-11.606827 0.41214418 -3.4311635
-11.58534 0.48841429 -3.4384794
-11.504929 0.60904604 -3.4599307
-11.363811 0.59290087 -3.4893794
-0.37807894 -1.2550926 -5.7606573
-0.53947735 -1.2361078 -5.7269945
-0.6204133 -1.2353368 -5.7097993
-0.68719816 -1.2452617 -5.6952305
-0.53887177 -1.2684017 -5.7259617
-0.52519464 -1.2726517 -5.7287192
-0.49354267 -1.2669809 -5.7356586
-0.42859888 -1.2598252 -5.7497363
-0.41613293 -1.2597855 -5.7523904
-0.37335443 -1.2589712 -5.7615228
-0.36400461 -1.2585033 -5.7635293
-4.3902974 -1.1037647 -4.9123034
-4.4043407 -1.1025558 -4.9093585
-4.4695477 -1.0968494 -4.8956881
-4.5457439 -1.0857254 -4.8798733
-4.5390005 -1.0851212 -4.8813305
-4.4358735 -1.060864 -4.9041481
-4.3731527 -1.0686756 -4.9172144
-4.2999845 -1.0661193 -4.9328761
-4.178215 -1.0478816 -4.959445
-4.0635891 -0.53939271 -5.0021291
-4.0215235 -0.38569057 -5.0166101
-4.0303917 -0.3019599 -5.017735
-4.1466136 -0.01824683 -5.0032091
-4.6518507 -0.024341583 -4.8954759
-4.6281919 0.017365009 -4.9020109
-4.5956879 0.065531269 -4.9106603
-4.5772638 0.093724295 -4.9155951
-4.2980814 0.31668627 -4.9830256
-4.2891917 0.35538071 -4.9863095
-4.2773399 0.44574976 -4.9920821
-4.2640142 0.52381593 -4.9977264
-4.2003088 0.60668987 -5.0142641
-4.1860065 0.5964309 -5.0169387
-4.1467304 0.57007122 -5.0243483
-4.1467485 0.51581138 -5.0223923
-4.1511974 0.4646998 -5.0196071
-4.0658941 0.078888908 -5.0238805
-4.0652585 0.03895323 -5.0225792
-4.047924 -0.14574826 -5.0196238
-4.037096 -0.18215308 -5.020618
-4.0226574 -0.22561361 -5.0221272
-4.0268211 -0.26555064 -5.0198045
-3.9921939 -0.4199948 -5.0216174
-3.4736648 -0.52188694 -5.1282945
-3.0183406 -0.29109314 -5.2334895
-2.9665809 -0.13662626 -5.250061
-2.9501393 -0.11415754 -5.2543678
-2.9927371 -0.32310423 -5.2377868
-2.8174202 -0.57235634 -5.2661276
-2.3524384 -0.44512963 -5.3696518
-2.320452 -0.32648784 -5.3807268
-2.3206742 -0.28644145 -5.3821201
-2.3604841 -0.12388268 -5.3794961
-2.9081545 -0.058501802 -5.2653046
-2.8651564 0.16011359 -5.2823186
-2.9034064 0.565467 -5.2887611
-2.8320496 0.51965106 -5.3022976
-2.3651083 0.76651412 -5.410543
-2.3659093 0.81643367 -5.412168
-2.3750563 0.93622983 -5.4145312
-2.3744285 1.0178833 -5.4176021
-2.3710122 1.0557081 -5.4196901
-2.2926776 1.0561396 -5.4363751
-2.2537198 1.056299 -5.4446707
-2.1360052 1.0570015 -5.4697456
-1.9399559 1.0581338 -5.5115056
-1.7862284 1.0582135 -5.5442219
-1.7392042 1.0586054 -5.5542426
-1.5893381 1.0595694 -5.5861683
-1.5520618 1.0592811 -5.5940905
-1.3920283 1.0610384 -5.6282086
-1.3065462 1.0633699 -5.6464834
-1.2986531 0.98462045 -5.64533
-1.2895057 0.86482477 -5.6429672
-1.3041441 0.75569779 -5.6359262
-1.2984877 0.70328933 -5.6352448
-1.2771561 0.5453518 -5.6341023
-1.2824478 0.30394816 -5.6242924
-1.3057063 0.1588728 -5.6141238
-1.3053818 0.14061587 -5.6135364
-1.302824 0.039948657 -5.6104593
-1.2806756 -0.078949094 -5.6108952
-1.2679889 -0.1188693 -5.6121588
-1.28724 -0.24046931 -5.6036878
-1.2519326 -0.5182153 -5.6012096
-1.2790515 -0.59988952 -5.5925007
-1.2819419 -0.71970284 -5.5875754
-1.2863719 -0.87813377 -5.5809336
-1.0407996 -1.2450094 -5.6199932
-0.84803295 -1.2497401 -5.6608438
-0.7324214 -1.2495828 -5.6854515
-0.82274771 -1.265713 -5.6656499
-0.86120558 -1.2707583 -5.6572847
-1.0152326 -1.2784556 -5.6242309
-1.0219593 -1.2802292 -5.6227355
-1.0579734 -1.2796166 -5.6150937
-1.2110949 -1.3221864 -5.5809784
-1.2198877 -1.3219774 -5.5791149
-1.2399974 -1.3222252 -5.5748262
-1.3758807 -1.2600086 -5.5481486
-1.45702 -1.2436397 -5.5314713
-1.5692897 -1.2153429 -5.5085983
-1.6214805 -1.2064614 -5.4978113
-1.639879 -1.198699 -5.4941754
-1.7037833 -1.1777862 -5.481329
-1.8011956 -1.1732256 -5.4607639
-1.8662403 -1.160134 -5.4473934
-1.9373074 -1.158734 -5.4323206
-1.9691978 -1.1520218 -5.425776
-2.0260949 -1.1468078 -5.4138556
-2.0464332 -1.1421427 -5.4096956
-2.1371999 -1.1308171 -5.3907881
-2.1757786 -1.1283736 -5.3826666
-2.2144754 -1.1184418 -5.3747892
-2.2984774 -1.1078395 -5.357295
-2.4086022 -1.0877219 -5.3345842
-2.5551472 -1.0821975 -5.3035979
-2.6139023 -1.0850718 -5.2909918
-2.6909773 -1.0851767 -5.2745862
-2.7228687 -1.0784642 -5.2680416
-2.8271742 -1.0768583 -5.245903
-2.8840637 -1.0604787 -5.234386
-2.981349 -1.0394593 -5.2144403
-3.0273197 -1.036245 -5.2047729
-3.1880398 -1.0605183 -5.1696987
-3.2843168 -1.0961798 -5.1479282
-3.3490763 -1.1134093 -5.1335278
-3.3799734 -1.1116544 -5.1270161
-3.4184079 -1.1091685 -5.1189265
-3.4643006 -1.1109457 -5.1090965
-3.6101451 -1.0756117 -5.0793324
-3.6943531 -1.0823905 -5.0611687
-3.740284 -1.0816724 -5.0514207
-3.8321056 -1.0827302 -5.0318432
-3.8629246 -1.0859655 -5.0251684
-3.978189 -1.0810066 -5.0008187
-4.016664 -1.0760249 -4.9928102
-4.0625935 -1.0753055 -4.9830623
-4.0701318 -1.074576 -4.9814844
-4.101109 -1.0678285 -4.9751353
-4.3611465 -1.1025444 -4.9185505
-5.0580502 -0.25718707 -4.8006606
-5.0275493 -0.2339828 -4.8079858
-5.267478 -0.15460722 -4.7597847
-5.3138633 0.33186376 -4.7674141
-5.2633028 0.41256112 -4.781076
-5.222806 0.47047895 -4.7917771
-5.2663059 0.66466588 -4.789506
-5.2663636 0.66965848 -4.7896733
-5.2669291 0.71708387 -4.7912593
-5.2982869 0.74141926 -4.7854619
-5.059258 1.2657198 -4.8551879
-5.0135517 1.2723023 -4.8651509
-4.9531126 1.2773503 -4.8781939
-4.854826 1.2754246 -4.8990402
-4.8238444 1.2741039 -4.9055853
-4.8639975 1.2732632 -4.8970108
-5.5246024 1.2644274 -4.7561164
-5.6306562 1.2785553 -4.7340565
-5.5537181 1.2763214 -4.7503486
-5.4839554 1.2700723 -4.7649693
-5.2267222 1.2797494 -4.8200564
-5.1142201 1.2811754 -4.844048
-5.0757637 1.2785386 -4.8521366
-5.0249534 1.2813172 -4.863049
-4.9911118 1.2800951 -4.8702064
-5.401155 1.2193927 -4.780766
-5.3755088 0.70715052 -4.767796
-5.4190726 0.58864796 -4.7542629
-5.4338121 0.46875322 -4.7468133
-5.4557905 0.34435099 -4.7376609
-5.997879 0.19316225 -4.6168661
-6.1169901 0.21179216 -4.5921898
-6.4692478 0.57161736 -4.5301738
-6.5020466 0.66138953 -4.5264235
-6.5121994 0.68833029 -4.5252323
-6.5422716 0.76362097 -4.5215411
-6.4381738 1.2832844 -4.5623875
-6.5695696 0.77335089 -4.5160823
-6.6014576 0.73450655 -4.5078993
-6.6202912 0.69393426 -4.5024319
-6.674222 0.57474333 -4.4866676
-6.6528668 0.49408001 -4.4883103
-6.6669016 0.33573103 -4.4796276
-6.6321201 0.19227634 -4.4818683
-6.568635 -0.0042680353 -4.4883075
-6.4567413 -0.085327305 -4.5092025
-6.4420257 -0.10276043 -4.5117068
-6.3771238 -0.24487846 -4.5204053
-6.6501312 -0.72958761 -4.4448729
-6.7223063 -0.72481257 -4.4296861
-6.9738078 -0.48937553 -4.3846359
-6.9954815 -0.48844725 -4.3800573
-7.4150553 -0.68695861 -4.2836313
-7.6443439 -0.46252728 -4.2429123
-7.5452204 -0.14312941 -4.2754955
-7.5220237 0.11708097 -4.2897925
-7.518405 0.16277577 -4.2922063
-7.5165606 0.17581399 -4.2930679
-7.5274429 0.28408378 -4.2946467
-7.5454483 0.36542529 -4.2937412
-7.56006 0.37788033 -4.29108
-7.5877638 0.40519947 -4.2861676
-7.6800194 0.55754894 -4.272016
-7.7257795 0.71847445 -4.2680674
-7.7390862 0.76403242 -4.2668748
-7.5028963 1.2736944 -4.3354702
-7.4976273 1.2768474 -4.3367047
-7.6308661 1.2703849 -4.3081193
-7.9893723 1.2671651 -4.2317133
-8.0180798 1.2700613 -4.225709
-8.105773 1.2743813 -4.2072029
-8.1755342 1.2780708 -4.1924906
-8.1837387 1.2792461 -4.1907868
-8.2221422 1.2767022 -4.1825233
-8.2596703 1.2788295 -4.174614
-8.2980366 1.2736999 -4.166265
-8.3749847 1.2759234 -4.1499705
-8.4904299 1.2805078 -4.1255689
-8.5288382 1.2778735 -4.117301
-8.6057453 1.277601 -4.1009254
-8.659586 1.2782176 -4.0894899
-8.7211475 1.279689 -4.0764427
-8.8663559 1.2775244 -4.0454645
-8.9266014 1.2730505 -4.0324836
-8.839716 1.2690363 -4.0508285
-8.8214054 1.2688745 -4.054719
-8.7416363 1.2693189 -4.0717096
-8.5443764 0.7841543 -4.0962334
-8.5349188 0.79415482 -4.0986056
-8.5042038 0.82268763 -4.1061683
-8.5044327 0.83766758 -4.1066585
-8.2469616 1.2739043 -4.1771412
-8.1826792 1.274109 -4.1908278
-7.9001961 1.0771536 -4.243855
-7.8699541 0.87808955 -4.2431293
-7.8375673 0.79676634 -4.2470956
-7.7614889 0.63902825 -4.2576108
-7.7562799 0.51982522 -4.2544308
-7.7001543 0.36533368 -4.2608166
-7.6234255 0.19266413 -4.2709332
-7.5930996 0.057394534 -4.2725205
-7.5897655 0.017859831 -4.2718077
-7.5570831 -0.15314674 -4.2726107
-10.556673 -1.2248271 -3.5957479
-10.494354 -1.2278434 -3.6089005
-10.448638 -1.2263578 -3.6186826
-10.342649 -1.2203959 -3.6414514
-10.287609 -1.2249086 -3.6530015
-10.280329 -1.2234124 -3.6546047
-10.085033 -1.1316917 -3.6994629
-10.058294 -1.1301057 -3.70521
-9.9956598 -1.1304766 -3.7185252
-9.9407377 -1.1247182 -3.7304196
-9.8803434 -1.1303344 -3.7430696
-9.8274403 -1.1224114 -3.7546124
-9.7904015 -1.1201367 -3.7625759
-9.7596855 -1.1216207 -3.7690589
-9.7120838 -1.1247653 -3.7790754
-9.6498203 -1.1225584 -3.7924044
-9.6021671 -1.1182423 -3.8027005
-9.4961395 -1.1173754 -3.825294
-9.604187 -1.1160766 -3.8023484
-9.6717777 -1.1168952 -3.7879357
-9.7652884 -1.1127136 -3.768187
-9.8182259 -1.1181411 -3.7567267
-9.9117393 -1.1139605 -3.7369776
-9.9719467 -1.1208289 -3.7239184
-10.02152 -1.1175352 -3.7134879
-10.023174 -1.1176289 -3.7131324
-10.067692 -1.119114 -3.7036057
-10.069965 -1.119581 -3.703105
-10.082247 -1.1221071 -3.7004008
-10.132896 -1.1274527 -3.68943
-10.197421 -1.1320581 -3.6755338
-10.245186 -1.1260481 -3.6655858
-10.343966 -1.1255215 -3.6445844
-10.420841 -1.125497 -3.628226
-10.488461 -1.1264781 -3.6138012
-10.565266 -1.1249563 -3.5975118
-10.605721 -1.1264389 -3.58885
-10.644159 -1.1264272 -3.5806708
-10.659102 -1.1279242 -3.5774369
-10.704464 -1.1284083 -3.5677667
-10.843695 -1.1228713 -3.5383375
-10.935094 -1.1283365 -3.5186913
-10.971449 -1.1383163 -3.5105958
-10.609668 -1.227807 -3.5843635
-10.640828 -1.2262993 -3.5777869
-10.749285 -1.207792 -3.5553732
-10.842834 -1.2047648 -3.5355747
-10.860817 -1.2040104 -3.531775
-10.891977 -1.2025015 -3.5251985
-11.0257 -1.2107046 -3.4964476
-11.032978 -1.2121997 -3.4948449
-4.2847462 1.2434757 -5.0192032
-4.1548471 1.2515057 -5.0471344
-4.0781102 1.2612087 -5.0638132
-4.1002407 1.266005 -5.0592766
-4.1770978 1.2662853 -5.0429316
-4.2997179 1.2649765 -5.0167909
-4.3692369 1.2669886 -5.0020695
-4.4366345 1.2797146 -4.9881854
-4.4634495 1.2745423 -4.9822927
-4.4297061 1.2644353 -4.98911
-5.5032678 -0.18929806 -4.7083607
-5.5950947 -0.24279541 -4.6868954
-5.9415412 -0.64482576 -4.5987096
-5.7838974 -0.84399611 -4.6250911
-5.4953308 -1.0736125 -4.6782379
-5.4565754 -1.0714306 -4.6865635
-5.3368077 -1.0651366 -4.7122765
-5.3063045 -1.0741869 -4.718442
-5.2137814 -1.090727 -4.7375355
-5.1749754 -1.0944194 -4.7456608
-5.1056428 -1.0986617 -4.760262
-4.8553624 -0.97964406 -4.8178029
-4.607461 -1.0872048 -4.8666868
-5.2032809 -0.24005575 -4.7703719
-5.1577263 -0.23754704 -4.7801561
-8.7052402 -0.43588465 -4.0181127
-8.6652346 -0.75749356 -4.0150566
-8.3604288 -1.1168457 -4.0669918
-8.3376389 -1.1173357 -4.0718236
-8.306468 -1.1187283 -4.0784068
-8.2369347 -1.1150806 -4.0933347
-8.2223969 -1.1121992 -4.0965319
-8.191226 -1.1135923 -4.1031151
-8.1455164 -1.1121033 -4.1128955
-8.0565042 -1.1091284 -4.1319442
-7.9917974 -1.1094172 -4.1457033
-7.9608679 -1.1057876 -4.1524158
-7.9169769 -1.1046587 -4.1617966
-7.7279348 -1.0147359 -4.2052593
-7.5691442 -0.81827015 -4.2461171
-7.6428685 -0.46974665 -4.2429667
-5.3654928 -1.0812171 -4.7055936
-5.4951811 -1.0896072 -4.6776943
-5.5432205 -1.0837454 -4.6676822
-5.603353 -1.0859351 -4.6548076
-5.6563568 -1.0816097 -4.6436839
-5.7331262 -1.0893316 -4.6270695
-5.7715311 -1.0919451 -4.618803
-5.8798332 -1.0807838 -4.596158
-5.9637303 -1.095022 -4.5777926
-6.0331163 -1.111208 -4.5624452
-6.1149168 -1.1495892 -4.5436573
-6.1534915 -1.1396894 -4.5358047
-6.3075008 -1.1200719 -4.5037374
-6.3459301 -1.1201611 -4.4955564
-6.3843222 -1.1227494 -4.4872932
-6.4518175 -1.1216162 -4.472971
-6.4751048 -1.1240342 -4.4679289
-6.5064974 -1.1251614 -4.4612079
-6.5444946 -1.1251814 -4.4531212
-6.6425819 -1.1298894 -4.4320788
-6.7420421 -1.1335801 -4.4107814
-6.7730417 -1.134349 -4.4041567
-6.9128098 -1.1362062 -4.3743477
-6.9177332 -1.1373303 -4.3732595
-6.986702 -1.1381192 -4.3585544
-7.0611143 -1.1502845 -4.3422818
-7.1562839 -1.1751409 -4.321136
-7.176302 -1.1756742 -4.3168569
-7.2020369 -1.17636 -4.3113556
-7.222054 -1.1768948 -4.3070769
-7.2862206 -1.1776714 -4.2933941
-7.3824415 -1.1950278 -4.272294
-7.3897686 -1.1961573 -4.2706943
-7.3970928 -1.197287 -4.2690954
-7.4666629 -1.19384 -4.2544146
-7.4886737 -1.1947306 -4.2496986
-7.5197411 -1.1961902 -4.2430353
-7.5508442 -1.1951507 -4.236454
-7.6616755 -1.1453061 -4.2146621
-7.7494998 -1.1348588 -4.1963491
-7.8348141 -1.1384826 -4.1780639
-7.8587127 -1.1439281 -4.1727824
-7.8970833 -1.1490705 -4.164432
-7.9884109 -1.1515639 -4.144908
-8.0653076 -1.1518607 -4.1285338
-8.1421671 -1.1546557 -4.1120772
-8.2191029 -1.1524562 -4.0957847
-8.2959604 -1.1552505 -4.079329
-8.5290842 -1.1675087 -4.0292792
-8.5863667 -1.1925483 -4.0161891
-8.6466208 -1.1606401 -4.0045147
-8.7897701 -1.1086428 -3.9759231
-8.8593426 -1.1097932 -3.9610767
-8.9601212 -1.1070535 -3.9397297
-9.0755148 -1.102203 -3.9153485
-9.2413025 -1.1398983 -3.8787131
-9.3589764 -1.1154057 -3.8545532
-9.3808966 -1.112239 -3.8500025
-9.428587 -1.1140581 -3.8397884
-9.4742575 -1.118044 -3.8299265
-9.4888325 -1.1184303 -3.8268111
-5.2827425 -1.087694 -4.72297
-5.2601347 -1.0898824 -4.7277021
-5.2427216 -1.0918274 -4.7313375
-5.235466 -1.0928004 -4.7328467
-5.2133703 -1.0944312 -4.7374897
-5.1673207 -1.1026381 -4.746994
-5.0903716 -1.1126007 -4.7630105
-5.0752602 -1.1165551 -4.7660837
-5.0134625 -1.1200669 -4.779108
-4.9983912 -1.1215255 -4.7822628
-4.975029 -1.122553 -4.7871971
-4.8599639 -1.1150324 -4.8119535
-4.8455653 -1.1150289 -4.8150177
-4.7907491 -1.1117853 -4.8267989
-4.7064629 -1.1099981 -4.8447995
-4.6681476 -1.1049951 -4.8531327
-8.6098614 0.18191029 -4.0606332
-8.6290922 0.3625254 -4.0630383
-8.6320448 0.34690017 -4.0618482
-8.6152534 0.1822692 -4.0594988
-8.6162157 0.039864346 -4.0541716
-8.7087126 -0.35643661 -4.0202317
-9.0808392 -1.1008149 -3.9142654
-9.1212597 -1.1011937 -3.9056504
-9.1742363 -1.1041244 -3.8942716
-9.1888123 -1.1045095 -3.891156
-9.1960812 -1.1059521 -3.8895571
-9.203351 -1.1073923 -3.8879585
-9.0060558 -1.0935613 -3.9304404
-8.967617 -1.0935136 -3.9386218
-8.677247 -0.75750941 -4.0124993
-8.9207363 -0.4732365 -3.9709115
-8.9594698 -0.393206 -3.965548
-8.7961111 -0.35672402 -4.0016232
-8.7484379 -0.33169699 -4.0126681
-9.4027405 -1.1140656 -3.8452885
-9.47962 -1.1141602 -3.8289251
0 0 0 1 0 0 0 1 0 0 0 1 0 0 0 0 0 514 1 0 0
