ply
format ascii 1.0
comment PCL generated
element vertex 1063
property float x
property float y
property float z
element camera 1
property float view_px
property float view_py
property float view_pz
property float x_axisx
property float x_axisy
property float x_axisz
property float y_axisx
property float y_axisy
property float y_axisz
property float z_axisx
property float z_axisy
property float z_axisz
property float focal
property float scalex
property float scaley
property float centerx
property float centery
property int viewportx
property int viewporty
property float k1
property float k2
end_header
-11.533303 -0.36807162 -4.6510367
-11.482001 -0.32750231 -4.687139
-11.676864 0.070748478 -4.6458335
-11.520067 -0.48792386 -4.661828
-11.639229 -0.31927663 -4.5682425
-11.521012 -0.34296834 -4.6512394
-11.611984 -0.2890504 -4.5687885
-9.6756916 -0.17531621 3.7712135
-9.8475094 0.023292258 3.8654947
-9.6074238 -0.16247693 3.8097777
-11.562451 0.11327796 -4.6757283
-11.406614 -0.086850584 -4.6930404
-11.644341 0.59281033 -4.6457243
-11.355107 0.91411132 -4.4074836
-11.386803 0.87425178 -4.6868234
-11.368023 1.2818136 -4.6468749
-11.354891 0.87411171 -4.407527
-11.487808 1.2486634 -4.6439462
-11.387976 1.2742057 -4.64639
-11.488708 1.2324529 -4.6839523
-11.409479 1.274045 -4.6058464
-11.594149 -0.34722102 -4.36939
-11.599608 -0.40960479 -4.4095106
-11.403502 -0.16182613 -4.6934075
-11.442997 0.16754264 -4.2957568
-11.567028 -0.32860565 -4.2493544
-11.442131 0.16782637 -4.2557688
-11.445413 0.23356687 -4.3659081
-11.442142 0.27354062 -4.3259373
-11.442663 0.27344728 -4.2459002
-11.426929 0.23362164 -4.3263531
-11.360723 0.83412737 -4.4499364
-11.393744 0.95417053 -4.6465626
-9.8549156 0.9582327 3.8024111
-9.839283 0.9182632 3.8194184
-9.854147 0.8382374 3.8019228
-11.520601 -0.40794724 -4.6565022
-9.6490993 -0.17002708 3.7306414
-11.196357 0.52527755 -3.4234099
-11.190649 0.17559403 -3.3810391
-11.118078 0.53606647 -3.3851705
-11.439176 0.27342296 -4.2059741
-11.264563 0.57149076 -3.9023848
-11.334942 0.60857767 -4.253715
-11.637616 -0.44935769 -4.5462818
-11.636849 -0.40953517 -4.5011315
-9.7752323 -0.94691056 3.2111721
-9.7753239 -0.9743759 3.1985974
-9.7240391 -1.0138459 3.1298633
-11.52722 1.2334263 -4.6229806
-11.643785 0.51280558 -4.6408153
-11.388494 0.99406558 -4.5266147
-11.112999 0.53943473 -3.2652731
-11.113764 0.52415216 -3.3051577
-11.112766 0.53700674 -3.2552586
-11.143617 0.77784652 -3.1062617
-11.10936 0.49803787 -3.1100187
-11.026517 1.2536154 -2.7520819
-10.986494 1.248878 -2.7529144
-11.112118 1.2587643 -3.007833
-11.269868 0.53368241 -3.5819197
-11.146867 0.14282775 -3.1016822
-11.27775 0.030204818 -2.8063064
-11.14454 0.29812098 -3.0628247
-11.321744 -0.008132726 -3.4455991
-11.280517 0.11250237 -3.7387395
-11.568247 -0.35213578 -4.2813144
-11.616554 0.031247601 -4.6474557
-9.8493099 0.27802813 3.8571277
-9.6879177 -0.014266104 3.3718147
-11.332362 0.6740526 -4.2482328
-11.354548 0.71402168 -4.3276701
-9.9106655 0.12404503 2.8094702
-9.7435341 -0.081346661 3.0927753
-9.8306103 -0.026402771 2.762475
-9.8680782 0.061164573 2.6836748
-9.7164612 -0.89390618 3.1700292
-9.8959332 -0.65536124 3.2695842
-9.9417887 -0.49694294 2.1178827
-10.148733 -0.53711033 1.802351
-10.266552 -0.29874831 1.9785852
-10.10697 -0.73685372 1.8130636
-9.6950836 -0.49428034 3.3556814
-9.7418318 -0.076561302 3.1727705
-9.7787132 -0.022256151 3.3337545
-11.636703 -0.44950432 -4.5087938
-11.637417 -0.42192769 -4.5286756
-11.404879 1.2739737 -4.5209332
-11.378281 0.67407131 -4.4871712
-11.365442 0.79409856 -4.4473572
-11.598576 0.63278753 -4.4042411
-11.372293 0.67405891 -4.4473071
-11.579839 1.1941435 -4.3000855
-11.558774 1.2728651 -4.2720561
-11.577924 1.1672121 -4.2199144
-11.499525 1.1446689 -4.3014717
-11.607523 0.63269109 -4.3615088
-11.210964 0.8560155 -3.3054118
-11.222363 0.93566149 -3.3457403
-11.151217 0.79279768 -3.1062045
-11.141344 0.54133964 -2.7845497
-11.182816 0.57982677 -2.7826753
-10.942162 1.2480593 -2.5538175
-10.899525 1.2416737 -2.4346638
-10.941278 1.2458429 -2.5138097
-10.982133 1.2452972 -2.5529325
-10.984713 1.2419467 -2.6728835
-10.785294 0.72663569 -1.6991434
-10.755291 0.85166734 -1.6592472
-10.783607 0.73129004 -1.6241407
-10.783159 0.85102236 -1.5660853
-11.052494 0.02039355 -2.8227835
-11.06131 0.022044033 -2.9711914
-11.061449 0.044543087 -2.9711237
-10.634932 0.030056223 -1.1456487
-10.763758 -0.048415124 -1.6631936
-10.766209 0.071377233 -1.622575
-10.756631 -0.088744462 -1.5835198
-10.689399 -0.28945571 -1.3334198
-10.63772 0.070036575 -1.1454012
-10.769673 0.73213208 -1.7794988
-10.644041 -0.31020755 -1.1069953
-10.620308 -0.010218173 -1.0661492
-10.557152 -0.2510913 -0.78863174
-11.211026 0.73573714 -3.3445663
-11.277155 0.12863752 -3.5788851
-11.243507 0.57357746 -3.6227841
-11.152536 0.25862628 -2.9823508
-11.140541 0.21926172 -2.9023104
-11.623075 -0.40963602 -4.4489517
-11.261522 0.13234822 -3.7793012
-11.317551 -0.2471182 -3.7739644
-11.280767 0.14999938 -3.7389994
-11.604181 0.031371251 -4.6527591
-9.9275112 -0.020238936 2.9022632
-10.111988 -0.019811302 2.4888635
-9.9330769 -0.099105954 2.6319885
-9.8475533 0.037995711 3.8661475
-10.089689 0.17210317 2.7024913
-10.092054 0.19477181 2.6626372
-9.9280243 -0.0051662475 2.8848343
-9.9500866 0.059977263 2.8155761
-9.8917751 -0.099044055 2.6885614
-10.597219 -0.11407495 -0.74706942
-10.597456 -0.081576765 -0.74691546
-10.549397 -0.25160691 -0.66877908
-9.892828 -0.018963411 2.6689157
-9.8977385 -0.29267621 2.3627977
-9.7264614 -0.61453164 3.3710427
-9.7355938 -0.65434676 3.2836127
-9.9637089 -0.13604763 3.1303353
-9.7340984 -0.49466556 3.4015369
-9.9012947 -0.095167816 3.1936841
-11.449334 0.36749977 -4.2970405
-11.375658 0.56298113 -4.3000231
-10.068478 -0.69633371 1.7598414
-10.069443 -0.53638196 1.7705362
-11.39396 0.99416929 -4.6465168
-11.396981 0.99406379 -4.5664182
-11.393062 0.91403967 -4.5265808
-11.359333 0.9540444 -4.3673277
-11.429341 -0.0075280219 -4.5721421
-11.363806 0.67406088 -4.4075046
-11.362818 0.67402178 -4.3675156
-11.477287 0.35345167 -4.4150181
-11.33118 1.1885526 -3.9053254
-11.564831 1.2506113 -4.5220037
-11.526752 1.2384067 -4.6029816
-11.218826 0.24014111 -2.7007127
-11.255083 0.029982284 -2.6867828
-11.22011 0.30235398 -2.741137
-11.146925 0.37831414 -3.0333357
-11.18014 0.54061872 -2.671175
-11.248713 0.73382014 -3.5837984
-11.259905 0.65319169 -3.6630034
-11.437605 0.36813402 -4.217278
-11.436029 0.43348604 -4.2459059
-11.332542 0.72881877 -4.2221122
-11.285566 0.85163122 -3.8639088
-11.348436 0.87396818 -4.2476377
-11.21056 1.2221205 -3.8681636
-11.128357 0.54073143 -2.7048054
-11.136327 0.51207006 -2.5043788
-11.097136 0.50204843 -2.5451655
-11.094571 0.50790083 -2.4252324
-10.637864 0.090042129 -1.1453059
-10.629156 0.049914628 -1.10568
-10.770208 0.15154065 -1.6621246
-10.769918 0.11154224 -1.6623161
-10.780376 0.15150096 -1.6693928
-11.08437 0.46213228 -2.5451581
-11.065741 0.42253333 -2.50527
-10.89781 1.244741 -2.354702
-11.098 0.50176543 -2.585155
-11.107229 0.5011484 -2.6649723
-10.985628 1.249162 -2.7129259
-11.246782 -1.022723 -2.609992
-11.206793 -1.0224731 -2.610882
-11.273634 -1.0101492 -2.6893771
-11.04648 -1.0789697 -2.614615
-11.308118 -1.0876462 -3.5865588
-11.353061 -1.0872538 -3.8081112
-11.349109 -1.0877662 -3.6306567
-11.187228 -1.0470476 -3.5366206
-11.51305 -1.0832551 -3.8045368
-11.352715 -1.0879784 -3.5680609
-10.743927 -0.20903504 -1.5043442
-10.761499 0.89181447 -1.6989313
-10.659303 1.1606634 -1.2999332
-10.962002 0.062500283 -2.0930653
-10.979366 0.14615935 -2.065064
-10.946804 0.030095324 -2.0934968
-10.982537 0.14987344 -2.092356
-10.825191 0.57155335 -1.7439532
-10.935083 0.5886237 -1.2962289
-10.590271 -0.29114622 -0.8280654
-11.242313 0.65414053 -3.5433602
-11.207331 0.8163169 -3.2651973
-11.239956 0.93471134 -3.4653826
-11.22579 0.81508285 -3.4248295
-11.279461 0.13289091 -3.6838927
-11.185505 -0.24793369 -3.2342725
-11.316494 -0.2472553 -3.7264771
-11.186894 -1.0470908 -3.5216241
-11.116535 0.10927621 -2.1695092
-11.117964 0.18497515 -2.1023498
-11.110003 0.14907569 -2.0895181
-10.782881 -0.16855842 -1.663307
-11.008867 -1.0233083 -1.5420153
-11.016455 -1.0108645 -1.5417824
-11.00712 -1.0111768 -1.4619775
-11.28883 -0.2474457 -3.6070633
-11.30036 -0.28727591 -3.6869426
-9.8143578 -0.05487971 3.2944312
-9.8209763 -0.072199166 3.2145081
-10.048565 0.14722782 2.7414155
-9.9064617 -0.095702201 3.1292863
-10.008671 0.16003114 2.7405267
-9.9111786 0.12412053 2.7869754
-10.009899 0.19770904 2.7007127
-10.04867 0.11528595 2.6212397
-9.953722 0.084238589 2.6627803
-9.8659248 -0.04254286 2.9632668
-11.360337 0.88807964 -4.3026628
-10.681139 -0.77506471 -0.14802003
-10.532183 -1.0374246 0.04740715
-10.606647 -1.0391178 0.28917408
-10.531246 -1.0401077 0.087384582
-9.9333735 -0.059106842 2.6321621
-9.8894367 0.076202631 2.6798048
-9.8933105 0.061012849 2.6742625
-9.8777714 -0.37787032 2.4419918
-9.8440762 -0.018831059 2.7228022
-9.7357349 -0.81419569 3.2281756
-9.7341061 -0.53463101 3.3889265
-9.9023266 -0.09504208 3.1461949
-11.356831 0.67400962 -4.3276529
-10.078062 -0.73642832 1.7648933
-10.111268 -0.49640292 1.7041404
-10.070229 -0.57618088 1.7228744
-11.464977 0.43350852 -4.4052396
-11.407036 1.273834 -4.4058461
-11.481905 1.2534268 -4.4040146
-11.187879 1.2556081 -3.3887682
-11.303534 1.0517912 -3.8249311
-11.523828 1.2457881 -4.4830093
-11.220043 0.29235476 -2.7410684
-11.36813 1.1717507 -3.7693715
-10.983847 1.2422307 -2.6328945
-11.190937 0.85776442 -3.0732965
-10.453012 1.1277974 -0.38457119
-10.435407 1.1473551 -0.26485276
-10.436235 1.1350399 -0.3049016
-10.942974 0.2512303 -1.8577526
-10.991098 -0.1707918 -1.8930414
-10.958504 -0.32947284 -1.7400336
-10.853476 1.2439229 -2.1556039
-10.855206 1.243355 -2.2355833
-10.896063 1.2428093 -2.2747059
-10.832394 0.86850965 -1.8733239
-10.810905 1.2475362 -2.0365207
-10.822657 0.89212626 -1.857569
-10.806805 0.076106846 -1.1014793
-11.354207 0.83398002 -4.2875471
-11.287796 0.81161571 -3.8635769
-11.260235 0.57291013 -3.7024374
-11.143576 0.29924148 -2.9028125
-11.135212 0.29957366 -2.8629866
-11.21646 0.26015598 -2.700906
-11.172903 0.52044487 -2.3436046
-11.136101 -0.20757926 -3.2502594
-11.275215 -0.6874873 -3.5686288
-11.298008 -1.0764692 -3.1291361
-11.363577 -0.84765738 -4.4169626
-11.303695 -1.0381465 -4.1790895
-11.350611 -0.90505165 -4.4175014
-11.593739 -0.3972187 -4.3695936
-11.488979 -0.60852808 -4.452992
-11.124412 0.17964491 -2.8623686
-11.11262 0.30055594 -2.7434506
-11.112648 0.1511184 -2.7696247
-11.15687 0.1097503 -2.4086695
-11.04685 -0.48940963 -2.4653647
-10.957897 0.024908617 -2.2647197
-10.983101 -0.44989675 -2.1740966
-11.024255 0.031307355 -2.6519089
-11.079433 0.34188706 -2.5844216
-11.071133 0.22194152 -2.5837498
-10.822798 0.091791168 -1.7937281
-10.955204 0.026597187 -2.0247285
-10.959809 0.22712295 -1.946032
-10.968012 0.1097215 -2.0127754
-10.818524 0.54915828 -1.7913349
-10.598893 -0.13620597 -0.82715523
-11.239918 0.69420785 -3.5361958
-11.240778 0.77409881 -3.5517483
-11.263207 0.7731685 -3.663784
-11.21656 0.81569993 -3.3450136
-11.309607 0.85740489 -3.0107107
-11.238383 0.81416529 -3.5445814
-11.320375 -0.68740672 -3.6876535
-11.35157 -0.44797671 -3.5612345
-11.127193 0.18435733 -2.1821671
-11.139725 0.30371863 -2.262764
-11.12808 0.31685215 -2.1830885
-11.121429 -0.24979046 -2.4905188
-10.969629 -0.20898089 -1.8592575
-10.77725 -0.16864774 -1.6359288
-11.012939 -1.0496068 -2.3352075
-11.017866 -0.89012116 -2.1745968
-10.995153 -1.0502152 -2.0980461
-11.005724 -1.0588348 -2.5754542
-11.202027 -1.0106013 -2.3933988
-10.948585 0.030325681 -2.1734779
-10.964642 0.057847634 -2.2130504
-11.002827 -0.090015411 -2.1726179
-9.739542 -0.029383913 3.2928762
-10.092142 0.12014271 2.5822825
-9.933836 -0.11586633 3.129786
-9.7834911 -0.086612105 3.0936275
-11.354857 0.95397967 -4.2874126
-10.748003 -0.61260021 -0.50333375
-10.833187 -0.69327456 -0.75431693
-10.806614 -0.37388551 -0.58341116
-10.708882 -0.41367763 -0.47830987
-10.708559 -0.41873527 -0.46583736
-10.566637 -0.25230533 -0.54835343
-10.664881 -1.0532322 -0.50977021
-10.567556 -0.2521224 -0.58834314
-9.9720879 0.020721436 2.6058731
-10.62399 -0.052535057 -0.58612776
-10.664143 -1.0284169 -0.46966243
-10.685766 -0.734716 -0.22774971
-10.660759 -0.9891544 -0.30951631
-10.460633 -0.25506341 -0.070670485
-10.659301 -0.4951849 -0.087217808
-10.187618 -0.45724982 1.7685635
-10.19006 -0.45727921 1.7711191
-9.8799782 -0.018927038 2.6836109
-9.886302 -0.29880634 2.642571
-9.8626347 -0.082249016 3.135366
-11.343468 0.60819155 -4.3010402
-10.424046 -0.33583331 0.40824783
-10.4021 -0.29509807 0.28789949
-10.391556 -0.3355931 0.40750301
-10.065172 -0.57615429 1.72526
-11.403053 1.2789006 -4.44595
-11.443935 1.2612228 -4.4849701
-11.291288 1.2038131 -3.9062958
-11.204435 1.2141075 -3.5881667
-11.200644 1.2554371 -3.4009948
-11.203552 1.2118926 -3.5481601
-11.291271 0.97242862 -3.7446122
-11.27481 1.013092 -3.6652365
-11.272642 0.93282771 -3.7047248
-11.209696 1.2224042 -3.8281736
-11.286138 0.95246142 -3.7445817
-11.368994 1.171466 -3.8093605
-11.247938 1.220211 -3.7473102
-11.526686 1.2259073 -4.6029954
-11.52483 1.248328 -4.5229945
-11.053478 0.34316975 -2.4249516
-11.176365 0.51930934 -2.5035634
-10.940395 1.2436275 -2.4738035
-11.318911 1.1700302 -3.345315
-11.318977 1.180029 -3.3453836
-11.207873 1.255477 -3.3883343
-11.283184 1.1747067 -3.4261413
-11.151411 1.2111299 -2.9891396
-11.29265 0.89742827 -3.0238643
-11.269783 0.81752658 -3.0312943
-11.138048 0.57844126 -3.0249457
-11.149397 0.65058839 -3.0652232
-11.150311 0.69789076 -3.0930462
-11.144217 0.52451378 -2.8643885
-10.693266 1.205456 -0.25866365
-10.090759 -0.49634504 1.7261779
-10.950974 0.027181387 -1.9448037
-10.964869 0.1496205 -1.9727199
-10.965343 0.30708551 -1.9464803
-11.053415 0.46344829 -2.3857961
-11.051119 0.50929713 -2.2661409
-11.025227 0.50474596 -2.2266595
-11.05005 0.4637484 -2.3458619
-11.093706 0.50818431 -2.3852425
-10.809242 0.89203358 -1.8178651
-10.805659 0.028440341 -1.0667143
-10.762045 0.050475493 -0.90256977
-10.762398 0.02807948 -0.92517096
-10.883971 -0.31197447 -1.1014912
-10.897985 -0.412651 -0.98160022
-11.34029 0.75401026 -4.2479577
-11.361183 0.83403188 -4.3673987
-11.382509 0.57378125 -3.4597354
-11.287746 0.77154744 -3.8732963
-11.275267 0.69225585 -3.7829795
-11.281871 0.93221146 -3.7845402
-11.120617 0.45827734 -3.0644808
-11.138514 0.41955149 -2.8637667
-11.124823 0.50019771 -2.7846143
-11.11006 0.42085069 -2.70435
-11.134052 0.4995811 -2.8644319
-11.135567 0.17678916 -3.2622099
-11.142677 -0.24805316 -3.1076946
-11.174423 -0.36677492 -2.7697465
-11.269552 -0.24756753 -3.5274725
-11.266162 -0.24766684 -3.4875383
-10.877964 -0.41302913 -0.87203228
-11.056492 -1.0493958 -2.4942765
-11.025063 -1.0487134 -2.655015
-11.083022 0.078259781 -2.0223284
-11.012379 -0.25068355 -1.9728193
-10.995353 -0.29081964 -1.8932941
-11.015743 -0.3708266 -1.9330816
-11.019331 -0.25012016 -2.172713
-11.262409 -1.0856402 -3.3300052
-11.51643 -0.56839675 -4.5396929
-11.474178 -0.70324332 -4.4937315
-11.345875 -1.0081687 -4.2579703
-11.084702 0.38185263 -2.5845916
-11.097857 0.22121005 -2.6631873
-11.095091 0.18122898 -2.6629622
-11.088023 -0.28967261 -2.4613705
-11.046435 0.022382542 -2.5428569
-10.994316 0.15004194 -2.1721134
-11.044422 0.031543896 -2.7714896
-11.046429 0.1506855 -2.4910307
-10.85855 0.66833949 -1.8713357
-10.802547 0.64648408 -1.8323827
-10.82686 0.78854591 -1.8728752
-11.234751 0.77446884 -3.5043693
-11.260975 0.81318295 -3.6641164
-11.46434 -0.64946932 -4.173665
-11.293602 -0.68748128 -3.6082306
-11.218016 -1.0784686 -3.1309233
-11.259739 -1.0859878 -3.2100353
-11.260631 -1.085871 -3.2500253
-11.093904 -1.0282969 -2.9334922
-11.091387 -1.003643 -2.8134475
-11.216364 -1.048707 -3.0483541
-11.170561 -0.5596171 -2.6503592
-11.173293 -0.5492717 -2.7702994
-11.054128 0.020661458 -2.7827406
-11.052397 0.021229804 -2.7027617
-11.148729 0.14968081 -2.3687253
-11.172182 -0.36956394 -2.6697798
-11.003971 -0.12983286 -2.2352228
-10.974419 -0.32939976 -1.7796793
-10.963951 -0.4909901 -1.7745426
-11.098709 -1.0107496 -2.1331344
-11.041103 -0.77026385 -2.1737318
-10.99427 -1.0403385 -2.0555258
-10.912857 -0.72971529 -1.6228909
-10.927862 -1.0379024 -1.5039308
-10.79288 -0.97055084 -1.2666562
-10.834181 -0.3985163 -0.70292479
-10.923069 -0.43476474 -1.1011577
-10.835577 -0.850483 -1.3451457
-10.774488 -0.24908152 -1.5413356
-10.023129 -0.33752161 2.1129045
-10.659615 -0.51509321 -0.10730672
-10.418472 -0.25395471 0.023392558
-10.097067 -0.0096990913 2.4885659
-10.622072 0.027480409 -0.58580488
-10.620235 0.02711302 -0.50582558
-10.596626 0.14843233 -0.74587554
-10.616961 0.046953961 -0.46580029
-10.597256 0.10861845 -0.78605509
-10.596767 0.16843966 -0.74578089
-10.661623 -0.9964698 -0.34954011
-10.679268 -0.81486076 -0.18825674
-10.23033 -0.42757267 1.7696633
-9.9148312 -0.29834574 2.4881825
-9.74827 -0.73434049 3.2511659
-10.396729 -0.2546767 0.20793962
-10.375517 0.17511126 0.28945172
-10.400423 -0.055272818 0.32897389
-10.51721 -1.0563405 0.36706316
-10.520372 -1.0567451 0.44715619
-11.248854 1.0143756 -3.5057659
-11.287735 0.93189412 -3.8244214
-11.205351 1.2213242 -3.6282091
-11.267113 1.2120287 -3.8268566
-11.284796 1.1733742 -3.6161461
-11.129397 0.38406467 -2.2235482
-11.130609 0.30599952 -2.3029876
-11.110474 0.54418695 -2.2250948
-11.131182 0.52127451 -2.2644937
-11.197443 0.9774937 -3.1065145
-11.122551 0.61798501 -3.1055832
-10.359758 0.88504815 0.33236539
-10.382925 0.94294971 0.21313119
-10.372641 0.68533075 0.2517215
-10.670731 1.2092457 -1.0193703
-10.809242 1.1699609 -0.85632527
-10.808363 1.1672889 -0.81884784
-10.713451 1.139924 -0.17847955
-10.45493 -0.28241506 0.16913772
-10.812485 0.85857761 -1.0977499
-10.634011 0.81027269 -1.1820924
-10.632511 0.73009175 -1.1424849
-10.626642 0.61013383 -1.1431723
-10.634174 0.64950591 -1.0227857
-10.602962 0.7687847 -0.8228991
-10.639944 0.25021958 -1.1845334
-10.943846 0.37122482 -1.8571801
-10.785831 0.89201635 -1.7783921
-11.254467 0.57239169 -3.782578
-11.120884 0.49827564 -3.0647593
-11.12292 0.45993173 -2.8243799
-11.146877 0.41921842 -2.903594
-11.14616 -0.19764137 -3.2500067
-11.189724 -0.4888882 -2.9297981
-11.169952 -0.24791303 -3.2096124
-11.131425 -0.44900799 -2.7709422
-11.29447 -0.28735965 -3.6470637
-11.26996 -0.29781237 -3.4475894
-11.302858 -0.60838628 -3.3277245
-11.274302 -0.60869288 -3.1683211
-11.054222 -1.0424979 -1.781126
-10.8804 -1.0565782 -1.18502
-10.860706 -0.69295347 -0.86371368
-10.928585 -1.0523148 -1.1038725
-10.841091 -0.8364765 -1.1449003
-11.041385 -1.0396647 -2.3745544
-11.094069 0.10540955 -2.0622931
-10.815878 -0.051469192 -1.1018577
-10.805541 -0.011523306 -1.0744035
-11.271059 -0.72867471 -3.1687412
-11.524821 -0.48800409 -4.65171
-11.518521 -0.52811617 -4.6120071
-11.464856 -0.68849432 -4.4138775
-11.455505 -0.72825307 -4.4542718
-11.494623 -0.64841288 -4.4930205
-11.101097 0.46146643 -2.6248131
-10.993917 0.03076914 -2.4125261
-11.113564 0.14472505 -2.1421697
-11.08753 0.30155498 -2.6239705
-11.055292 0.056233332 -2.6911564
-10.786806 0.68200499 -1.7793365
-10.829092 0.74853188 -1.8725426
-10.843876 0.66833061 -1.8866577
-10.803073 0.70894617 -1.8378162
-10.814577 0.81218439 -1.8581212
-10.713768 -0.33281845 -0.66537642
-11.240933 0.82164901 -3.5445795
-11.27074 0.89256322 -3.7444901
-11.336578 -1.0060589 -4.1683335
-11.480413 -0.56911045 -4.2929978
-11.467661 -0.5667516 -4.204155
-11.138144 -1.0604672 -3.1326504
-11.267372 -0.68816501 -3.3287454
-11.252203 -0.68843478 -3.2090545
-11.090131 -1.0088022 -2.7584758
-11.130655 -0.97650987 -2.7724845
-11.152306 -0.9692679 -2.7319715
-11.092171 -1.0481651 -2.973599
-11.076317 -0.52963316 -2.4523227
-10.999286 -0.49048358 -2.0138144
-11.038906 -0.73024213 -2.1761665
-11.142591 0.10959728 -2.3289671
-11.130825 0.22405647 -2.2223802
-11.137555 0.22345529 -2.3022504
-11.132824 0.26348621 -2.3026381
-11.023911 -0.29051328 -2.0526969
-11.025913 -0.37052792 -2.0528846
-11.025023 -0.37064272 -2.0128951
-10.992506 -0.49068409 -1.9339461
-11.174019 -0.369326 -2.7522581
-11.055059 0.018734291 -2.6912694
-11.003056 -0.16991866 -2.2053514
-10.980093 -0.48906165 -1.8603053
-10.979046 -0.28905216 -1.8594093
-10.801014 -0.4692468 -1.0240984
-10.761553 -0.39645618 -1.0246704
-10.89036 -0.45048648 -1.4245698
-10.946717 -0.44957793 -1.7008473
-10.845901 -0.80555743 -1.3447013
-10.104229 -0.45679587 1.8066726
-10.658141 -0.46546161 -0.027091384
-10.567085 -0.25688648 0.41189671
-10.682077 -0.1752528 -0.1052283
-10.660162 -0.49501318 -0.12470722
-10.682996 -0.17506814 -0.14521718
-10.616236 -0.053048909 -0.46627641
-10.610029 -0.09319517 -0.42659235
-10.610111 -0.17357862 -0.34693778
-10.621296 0.04730387 -0.54572082
-10.609401 -0.053380698 -0.38641226
-10.598642 -0.13126469 -0.81463385
-10.629677 0.029522866 -1.0257397
-10.760271 -0.012285963 -0.84538376
-10.59635 0.32863522 -0.78506494
-10.600975 0.36898398 -0.86479402
-10.594721 0.44864988 -0.78455043
-10.59999 0.14109898 -0.78584296
-10.106716 -0.81678826 1.7977192
-10.022503 -0.33763647 2.1403966
-9.8997231 -0.29873735 2.6028829
-10.41448 -0.25423664 0.088317513
-10.523917 -1.0390806 0.40730703
-11.268679 0.97340995 -3.6250772
-11.483408 0.55117297 -3.737462
-11.329431 1.1866202 -3.8253279
-11.286028 1.195518 -3.6662898
-11.268286 1.1739697 -3.5464902
-11.259717 1.0140256 -3.5455389
-11.053312 0.38330978 -2.4052343
-11.041481 0.30380499 -2.3449106
-11.132032 0.51849037 -2.3044662
-11.00712 0.55847621 -2.0673916
-10.992039 0.54607594 -2.0676293
-10.843342 0.58833534 -1.8861001
-10.851015 1.1281072 -1.0556138
-10.307216 1.1628466 0.5939846
-10.365629 1.0050069 0.33305192
-10.716497 1.1804749 -0.29825532
-10.835281 -0.37333262 -0.74279445
-10.751633 0.0059535801 -0.46289492
-10.754389 0.0065061748 -0.58286184
-10.727123 -0.053676277 -0.50374228
-10.726205 -0.053860217 -0.46375358
-10.755918 -0.035624117 -0.66304225
-10.759291 0.049923286 -0.7826032
-10.759592 -0.034888595 -0.82299829
-10.758673 -0.035073251 -0.78300834
-10.718685 1.1659349 -0.39829993
-10.781883 0.6910044 -1.5618484
-10.633898 0.45026761 -1.1837509
-10.591627 0.92886961 -0.82242239
-10.582582 0.96855658 -0.74242634
-10.634735 0.12987559 -1.1051848
-10.646968 0.21959655 -1.0644798
-10.60272 0.24899276 -0.87030745
-10.60223 0.3237831 -0.82496315
-10.648249 0.2697776 -1.1042299
-10.642105 0.33001417 -1.1441045
-11.098686 -0.48880386 -2.7717862
-11.319635 -0.60824996 -3.407371
-11.285192 -0.28754336 -3.5672507
-11.291969 -0.60843921 -3.2879581
-11.069841 -1.0339174 -1.8537738
-11.055141 -1.0423148 -1.8211153
-10.934629 -0.72950548 -1.6999116
-10.969597 -1.050329 -1.5830519
-10.791962 -0.97073501 -1.2266674
-10.918989 -1.052161 -1.1215963
-10.783762 -0.49257356 -0.82454789
-10.820845 -0.49189359 -1.0237474
-11.32505 -1.0881693 -3.4486485
-11.275169 -0.72882158 -3.1286402
-11.355753 -0.88759369 -4.4173098
-11.00993 0.050791129 -2.4521227
-11.031279 0.14359355 -2.3840044
-11.048273 0.18292673 -2.4639373
-11.074661 -0.24974015 -2.4115391
-10.991301 0.30580288 -2.1059492
-10.982937 0.30613518 -2.0661235
-10.987667 0.266105 -2.0657361
-11.007149 0.46576774 -2.0967393
-11.09764 0.26538628 -2.0633509
-10.997164 0.3054859 -2.1458313
-11.011392 0.30483651 -2.2255385
-11.025352 0.264189 -2.3049688
-11.005795 0.34515083 -2.1859353
-10.994272 0.50606018 -2.067297
-11.013498 0.50537932 -2.1468961
-11.016596 0.46507961 -2.1865544
-10.802805 0.66894835 -1.8375382
-10.793236 0.74904525 -1.8333123
-11.357649 0.59394276 -3.4604158
-11.263412 0.93344593 -3.6249075
-11.470735 -0.64886862 -4.3335557
-11.345858 -1.0058742 -4.2481465
-11.453782 -0.7688942 -4.2944236
-11.4296 -0.78853047 -4.3351021
-11.430635 -0.78087491 -4.3750591
-11.26923 -0.64829844 -3.2885795
-11.128897 -0.54209882 -2.5712168
-11.04393 -0.52975607 -2.3455172
-10.968815 0.024541691 -2.3069911
-11.006095 0.15021047 -2.2518692
-11.011984 0.15029526 -2.291748
-11.143152 0.18313979 -2.3418543
-11.126425 0.183806 -2.2621996
-11.023661 -0.33051324 -2.0528183
-10.996381 -0.25071865 -1.9281638
-11.201082 -0.52908105 -2.8896527
-10.879715 -0.39270735 -0.94191772
-10.789562 -0.45147258 -1.0642903
-10.849339 -0.45039886 -1.380499
-10.915648 -0.68973553 -1.6226437
-10.623316 -0.29386738 -0.30717754
-10.707695 -0.4114188 -0.4258132
-10.582722 -0.055090681 0.013075471
-10.58614 -0.054925352 -0.026855946
-10.221064 -0.29802415 1.8900268
-10.614446 -0.17322913 -0.4268595
-10.683914 -0.17488503 -0.18520498
-10.622215 0.047487497 -0.58570915
-10.620815 0.10710925 -0.50544465
-10.62183 0.2471122 -0.50477779
-10.613157 0.24641259 -0.34493732
-10.612624 0.046603739 -0.38587856
-10.600776 -0.17389125 -0.26713276
-10.601357 -0.09389323 -0.26675153
-10.106769 -0.78682113 1.8053474
-10.375391 0.20504148 0.30458951
-10.375908 0.20514543 0.28209639
-10.412552 0.14676657 0.41020393
-10.376321 0.32504803 0.30266213
-10.379446 0.6451968 0.26919782
-10.379558 0.60527921 0.25151122
-10.415363 0.53425115 0.41205096
-10.394101 0.32497603 0.29056692
-10.583324 0.60301459 0.41622496
-10.38025 0.6453585 0.23420703
-10.403457 0.14451641 0.36997473
-10.455904 -0.27473235 0.12918472
-11.246173 1.2157788 -3.6672955
-10.833265 1.1276647 -0.93599075
-10.938581 1.2316959 -2.3937373
-10.849146 1.0883106 -1.0958495
-10.811926 1.160513 -0.97634023
-10.331915 1.1243031 0.53288054
-10.425228 1.1465904 0.67423415
-10.227886 -0.29772621 1.8101625
-10.375011 1.1161039 0.61385512
-10.231149 -0.31757659 1.7701421
-10.23197 -0.33739781 1.7275665
-10.381475 0.88524473 0.25784492
-10.416018 0.62424701 0.41248083
-10.459382 0.84430081 0.33696723
-10.551788 0.92763847 -0.50325561
-10.516785 1.0871361 -0.34328341
-10.753376 0.62538534 -0.33997238
-10.684738 0.4443627 -0.022294283
-10.685366 0.40454882 -0.06247437
-10.637657 0.84471548 -0.021534085
-10.736092 1.1253306 -0.29805911
-10.737431 0.9653179 -0.29876399
-10.640768 0.49002635 -1.1434002
-10.651081 0.84947956 -1.0414815
-10.652103 0.92706901 -1.0611076
-10.652115 0.80225712 -1.1016912
-10.651247 0.769633 -1.0743544
-10.683239 -0.015259057 -0.10446525
-10.684252 0.12474346 -0.10379863
-10.686913 0.36491793 -0.14264262
-10.753985 0.5830707 -0.38016343
-10.600048 0.27591729 -0.74521047
-10.634617 0.28701848 -0.50430053
-10.601186 0.44838721 -0.73938996
-10.71644 0.4066202 -0.54438323
-10.755854 0.026769266 -0.64024979
-10.757753 -0.035256669 -0.74301922
-10.704226 0.32688689 -0.58253998
-10.717693 0.33447927 -0.62220633
-10.810751 0.88818425 -1.01263
-10.794081 0.76813889 -0.97855586
-10.811712 0.87839174 -1.0576646
-10.749357 1.1269491 -0.65784526
-10.598543 0.84881783 -0.8226316
-10.618456 0.92905378 -0.90182739
-10.579164 0.96839136 -0.7024951
-10.633317 0.37027168 -1.1841331
-10.777876 0.72806716 -0.93910021
-10.786001 0.6881969 -0.97910792
-10.809015 0.63321841 -1.0188441
-10.60145 0.16885772 -0.84069711
-11.273434 -0.68771827 -3.4886498
-11.277693 -0.60859197 -3.2082562
-10.949844 -0.48941237 -1.7409694
-10.824116 -0.89116198 -1.1855524
-10.843697 -0.37320471 -0.78261095
-10.839063 -0.77145988 -1.1446471
-11.166756 -0.96875173 -2.9316974
-11.134892 -1.010931 -2.9725394
-11.201254 -0.52871853 -3.0096769
-11.002757 -0.28985852 -2.2257097
-10.965673 0.22680597 -1.9859133
-11.085728 0.35296369 -2.0642307
-11.008298 0.30504793 -2.198101
-11.033118 0.30413753 -2.305084
-11.03642 0.42411619 -2.3058648
-11.00879 0.22471409 -2.2450321
-11.016863 0.50507772 -2.1868315
-11.007534 0.49069536 -2.1069121
-10.825521 0.58855605 -1.8714836
-11.441706 0.55450261 -3.6583686
-11.460316 -0.64927363 -4.2137747
-11.344497 -0.96574408 -4.2880716
-11.146034 -0.217641 -3.2500677
-11.102621 -0.4893133 -2.6116595
-10.805017 -0.091508418 -1.0772836
-10.887814 -0.69063759 -1.3907242
-10.934006 -0.69717968 -1.662266
-10.602695 -0.25390697 -0.26745701
-10.629375 -0.29317397 -0.46207762
-10.414103 0.04472962 0.30974245
-10.227554 -0.31074673 1.9301324
-10.159809 -0.37721366 1.8082747
-10.110979 -0.46649808 1.7267642
-10.715126 0.10679697 -0.58330178
-10.716317 0.14447828 -0.62311155
-10.616189 0.066761509 -0.42571568
-10.611996 0.086418584 -0.34569967
-10.609062 0.026432917 -0.3460418
-10.684496 -0.094888359 -0.18482435
-10.63336 0.36664772 -0.42394078
-10.634569 0.40682894 -0.46373951
-10.63265 0.48684543 -0.46341562
-10.375845 0.22010998 0.28966534
-10.409416 -0.096007138 0.46903241
-10.420162 -0.055991605 0.44945729
-10.410854 -0.055778638 0.41923654
-10.619268 0.52618122 -0.3034991
-11.247055 1.2179952 -3.7073035
-11.242594 1.199415 -3.5072165
-10.697937 1.1001875 -1.2593126
-10.836682 1.12783 -0.97592276
-10.726341 1.1690254 -1.0582893
-10.386858 1.109753 0.5931356
-10.379294 0.88480824 0.35281932
-10.191183 -0.33724219 1.7616456
-10.419455 0.8845486 0.3462373
-10.400877 0.60435855 0.41204154
-10.456174 1.1273928 -0.30447936
-10.756863 0.80581594 -0.43408775
-10.799479 0.64628518 -0.5988887
-10.799793 0.62637818 -0.61897844
-10.757601 0.8284297 -0.458974
-10.645121 0.80523294 -0.14157712
-10.472751 1.1270798 -0.26408875
-10.41029 0.92524791 0.21367919
-10.606005 0.52456224 0.056287885
-10.815514 1.127224 -0.81636786
-10.824558 1.0875384 -0.89636487
-10.762114 1.1263897 -0.56002861
-10.717651 1.1657281 -0.35331225
-10.80867 0.58571929 -1.0190699
-10.784246 0.60744637 -0.81947702
-10.785515 0.3685776 -1.0606124
-10.851396 0.58347613 -1.1381311
-10.682949 -0.055258051 -0.10465598
-10.684786 0.32455188 -0.062856078
-10.585464 0.10470028 0.053884268
-10.685123 0.24473874 -0.10322607
-10.593697 0.045408383 -0.10624242
-10.600424 0.24853311 -0.77033597
-10.625295 0.12746495 -0.58527035
-10.754904 0.58325523 -0.42015278
-10.634224 0.35933095 -0.46396637
-10.756516 0.046872288 -0.66264921
-10.72509 0.4467358 -0.58150929
-10.716672 0.44660628 -0.54169232
-10.761127 0.050292403 -0.86258113
-10.736551 0.10797413 -0.86288017
-10.709816 0.24760742 -0.74281937
-10.720009 0.14771399 -0.78305537
-10.730776 0.12783347 -0.82291156
-10.750938 1.1267457 -0.61779785
-10.680362 1.1665636 -0.47169626
-10.616668 0.80887443 -0.8624106
-10.60475 0.88896364 -0.86231494
-10.599833 0.80861723 -0.78277659
-10.650713 0.86188745 -1.0214283
-10.56141 0.92800879 -0.59555846
-10.584291 0.76815838 -0.66328692
-10.58829 0.84832162 -0.70283657
-10.851759 0.63347465 -1.1378934
-10.627129 0.14935258 -0.98523605
-10.72278 0.15077327 -0.90301108
-11.127144 -0.44922334 -2.6910176
-11.126254 -0.44933885 -2.6510272
-11.296003 -0.64822316 -3.3680024
-11.280042 -0.68788165 -3.4484935
-10.844267 -0.69105589 -1.2366835
-11.133251 -0.98866361 -2.8924923
-11.002312 -0.28991553 -2.2057157
-10.84175 0.52872866 -1.830698
-11.469193 -0.60651976 -4.2842555
-11.342178 -0.96797448 -4.2979159
-11.127367 -0.52946788 -2.6112251
-11.104477 -0.44944412 -2.5714936
-10.863987 -0.85050088 -1.3845046
-10.623907 -0.30425358 -0.22719002
-10.588686 0.20468487 0.054417849
-10.413613 -0.015286624 0.31195652
-10.685366 0.025107354 -0.18425179
-10.631945 0.17165525 -0.42487073
-10.642776 0.28657687 -0.4240936
-10.591766 0.28466469 0.054857373
-10.611307 0.40528411 -0.1041826
-10.615948 0.28639215 -0.34468889
-10.630514 0.35359555 -0.30403483
-10.631393 0.5664739 -0.38305628
-10.617352 0.60619694 -0.30317485
-10.629476 0.6464901 -0.3827318
-10.64325 0.76543593 -0.18181431
-10.616549 0.56505769 -0.063316584
-10.622128 0.64501733 -0.062821627
-10.611177 0.60547906 -0.14327621
-10.626991 0.50017071 -0.10338557
-10.614515 0.68602842 -0.26286089
-10.401148 0.044730186 0.32945132
-10.401295 0.064721361 0.32954597
-10.401438 0.084728748 0.32964134
-10.831103 1.0478702 -0.9764185
-10.695545 1.149633 -1.1391077
-10.190612 -0.33734781 1.7866395
-10.191645 -0.374605 1.7289913
-10.219418 -0.33731377 1.7297812
-10.327917 1.1228881 0.55178523
-10.712362 0.98993009 -0.17919493
-10.632893 0.64665508 -0.42266369
-10.644728 0.64694875 -0.50241262
-10.600643 0.61053628 -0.66363573
-10.647863 0.96502417 -0.1007688
-10.649747 0.84557974 -0.22130728
-10.626932 0.744793 -0.02224052
-10.807005 1.1145958 -0.77661043
-10.656474 0.36971921 -1.1035821
-10.60475 0.48904163 -0.88165998
-10.582383 0.024721771 0.053445935
-10.685414 0.28473753 -0.10303485
-10.59278 0.045224741 -0.066254258
-10.600641 0.2311018 -0.78541428
-10.742177 0.44756359 -0.78116709
-10.756131 0.62593812 -0.45993912
-10.754295 0.62556958 -0.37996137
-10.758062 0.0072418898 -0.74281651
-10.722251 0.14712638 -0.66297477
-10.723022 0.12731838 -0.70305902
-10.728218 0.40690309 -0.62163246
-10.756721 0.58112299 -0.50014281
-10.721847 0.1480832 -0.86303329
-10.593918 0.80846947 -0.74290174
-10.803095 0.64701039 -0.75634551
-10.561123 0.92795056 -0.58306181
-10.592464 0.60847843 -0.74385524
-10.601219 0.52879345 -0.82404262
-10.595335 0.56807411 -0.66395324
-10.58713 0.68832713 -0.70359999
-10.630884 0.069705397 -1.0655386
-10.630548 0.14951751 -1.0251675
-10.826694 -0.57060272 -1.3040509
-10.845037 -0.79824173 -1.3046777
-11.098135 -1.0084431 -2.8933311
-10.583255 0.14471759 0.054017544
-10.600229 0.1649809 -0.025521874
-10.684401 0.14473522 -0.10370302
-10.685076 -0.014891088 -0.18444312
-10.615271 0.066578239 -0.3857255
-10.591475 0.24466531 0.0546664
-10.604471 0.40495425 -0.024319768
-10.644649 0.3263728 -0.38385653
-10.640378 0.80583948 -0.26171672
-10.615513 0.60582846 -0.2231971
-10.632428 0.52570373 -0.223176
-10.630459 0.68558812 -0.19497871
-10.41307 0.091951728 0.36995304
-10.84231 1.0879786 -1.0159874
-10.810274 0.93302244 -0.97742486
-10.810467 0.92806852 -0.98744595
-10.757954 0.80603355 -0.48157477
-10.636021 0.60682166 -0.46278632
-10.641357 0.52697217 -0.50304163
-10.618082 0.68466735 0.017289877
-10.631124 0.72514355 -0.10225713
-10.807381 1.0872111 -0.80173415
-10.81677 1.0475942 -0.89672685
-10.610644 0.026230246 -0.30599582
-10.603518 -0.01409936 -0.22632432
-10.603951 0.0459048 -0.2260381
-10.608436 0.066246845 -0.30586314
-10.600534 0.045740247 -0.18610668
-10.585173 0.064702168 0.053694367
-10.600086 0.14497538 -0.025615573
-10.766698 0.32850051 -1.0162153
-10.720481 0.32754809 -0.74595833
-10.767056 0.48833334 -0.98046261
-10.60308 0.44876701 -0.82186747
-10.736518 0.4479863 -0.86131787
-10.728797 0.10745895 -0.74302858
-10.623134 0.04767096 -0.62569761
-10.71909 0.14753105 -0.74306667
-10.757625 0.57880759 -0.54014379
-10.707574 0.24819668 -0.86290067
-10.720963 0.15290536 -0.82302189
-10.599544 0.76861942 -0.78296632
-10.604191 0.6886313 -0.79323143
-10.819898 1.0077626 -0.9368493
-10.762981 1.0641557 -0.61781049
-10.6026 0.50109166 -0.78412777
-10.612087 0.64871496 -0.82324141
-10.600189 0.54803818 -0.66393429
-10.764126 -0.4209035 -1.144757
-10.683578 -0.095071107 -0.14483547
-10.666622 0.24518444 -0.16866589
-10.634975 0.40587252 -0.26367962
-10.597635 0.40462303 0.055542827
-10.831732 1.0080556 -1.016597
-10.627506 0.69747955 -0.062455773
-10.764566 0.92717952 -0.73093367
-10.597601 -0.014246315 -0.18644869
-10.603506 0.14514044 -0.065547705
-10.611258 0.14565553 -0.18540049
-10.777437 0.28863621 -1.0611656
-10.719476 0.32734632 -0.70222062
-10.708527 0.28780794 -0.78267497
-10.767282 0.44843882 -1.0031481
-10.774843 0.52827674 -0.98010021
-10.785036 0.80782521 -0.89855826
-10.765937 0.84757334 -0.81629205
-10.76565 0.80008596 -0.81901842
-10.766629 0.88765144 -0.83359724
-10.598672 0.64862275 -0.78353852
-10.600963 0.52822292 -0.70401782
-10.666798 0.28516006 -0.16347778
-10.627741 0.44540185 -0.15363491
-10.594557 0.32464361 0.055104136
-10.765312 0.87989998 -0.77864724
-10.608228 0.32530659 -0.10462141
-10.623093 0.1459498 -0.26514876
-10.600485 0.16555141 -0.14554501
-10.718557 0.32716268 -0.66223115
-10.718443 0.36811775 -0.86210012
-10.603827 0.54377413 -0.82391322
-10.617561 0.32561827 -0.18442786
-10.624722 0.40537679 -0.14388537
-10.765194 0.88736451 -0.77111322
-10.629171 0.16860344 -0.30491519
-10.623526 0.20595469 -0.26486254
-10.605694 0.28589553 -0.22489357
-10.7181 0.32707065 -0.64223713
-10.728729 0.40804327 -0.86167997
-10.60413 0.64867926 -0.80341941
-10.627849 0.36554402 -0.18400788
-10.808353 1.0474669 -0.85691041
-10.61161 0.28604299 -0.26476884
-10.613853 0.28545541 -0.14468598
-10.723568 0.38558 -0.86190194
0 0 0 1 0 0 0 1 0 0 0 1 0 0 0 0 0 1063 1 0 0
