ply
format ascii 1.0
comment PCL generated
element vertex 269
property float x
property float y
property float z
element camera 1
property float view_px
property float view_py
property float view_pz
property float x_axisx
property float x_axisy
property float x_axisz
property float y_axisx
property float y_axisy
property float y_axisz
property float z_axisx
property float z_axisy
property float z_axisz
property float focal
property float scalex
property float scaley
property float centerx
property float centery
property int viewportx
property int viewporty
property float k1
property float k2
end_header
-10.596077 1.033254 3.3559422
-10.168991 1.4031112 3.3092802
-10.620811 1.1943531 3.3568487
-10.615499 0.99524546 3.3582726
-10.610247 0.95527768 3.3581367
-10.760178 0.67480206 3.3759999
-11.005515 0.57216203 3.4017241
-11.023378 0.55154669 3.4037263
-10.961929 0.098279707 3.4019966
-10.919469 0.068923265 3.3980081
-10.530282 -0.20301419 3.361479
-10.525198 -0.22048445 3.3611388
-10.493235 -0.27832001 3.3584881
-10.362317 -0.49844003 3.347466
-10.356684 -0.51001495 3.3470125
-10.315746 -0.65724897 3.3443372
-10.28532 -0.77710682 3.3424518
-10.275311 -0.81708133 3.3418367
-10.23468 -0.92182165 3.3387744
-10.209488 -0.97668165 3.3367765
-10.194321 -1.016598 3.3356414
-10.160284 -0.9772827 3.3318257
-10.079362 -0.89401144 3.3228548
-10.160931 -0.77797979 3.3299298
-10.191951 -0.69866329 3.3322742
-10.214582 -0.57930756 3.3333797
-10.330134 -0.25842372 3.3418622
-10.529124 -0.020528074 3.3595667
-10.535325 0.27418986 3.3572912
-10.52746 0.39526361 3.3553078
-10.514703 0.43584883 3.3536234
-10.604836 0.71429002 3.3599629
-10.612208 0.79476351 3.3599138
-10.599509 0.91377282 3.3574636
-10.596671 0.95430529 3.3567789
-0.20505261 -1.1440604 2.3306224
-0.16713309 -1.1241148 2.3266063
-0.24475431 -1.1444719 2.3346257
-3.780515 -0.95633948 2.688951
-3.9009905 -0.95190042 2.7010434
-4.1805592 -0.90061277 2.7287011
-4.4363413 -0.8741563 2.7542071
-4.7445602 -0.87583065 2.7852721
-4.9145584 -0.78843039 2.801537
-5.0339789 -0.78909063 2.8135734
-5.2482638 -0.86698341 2.8359261
-5.2754855 -0.76328325 2.8376479
-5.2792673 -0.56331009 2.836061
-5.3050256 -0.40354484 2.8370838
-5.285471 -0.30731568 2.834167
-5.28582 -0.26732293 2.8338087
-5.2839699 -0.12329194 2.8322051
-5.2624092 -0.10573106 2.8298602
-5.1799531 -0.10272278 2.8215244
-5.1113863 -0.085137464 2.8144443
-4.9550881 -0.10213969 2.7988667
-4.8701982 -0.13901339 2.7906783
-4.8452873 -0.15641032 2.7883401
-4.5880265 -0.43521073 2.7651682
-4.5455089 -0.46739769 2.7612019
-4.0875745 -0.23303947 2.7127655
-4.1070609 -0.064241864 2.7130675
-4.0991812 0.086899914 2.7107866
-4.099545 0.12675779 2.7104311
-4.0879779 0.27441704 2.7078128
-4.0895634 0.39425546 2.7067933
-4.1013703 0.47394633 2.7071986
-4.1018801 0.63447636 2.7056704
-4.0996723 0.67448151 2.7050543
-4.0974669 0.71448654 2.7044384
-4.1212568 0.91844106 2.704828
-4.5912399 1.0280807 2.7510931
-4.5838366 1.0356072 2.7502735
-4.414928 1.4356306 2.729322
-4.2730894 1.4773227 2.7146237
-4.2338681 1.4773647 2.7106724
-4.1915374 1.4768221 2.7064133
-3.9472356 1.039793 2.6861038
-3.7058489 0.92122102 2.6629543
-3.6259348 0.92162126 2.6549003
-3.585896 0.92183822 2.6508648
-3.4682422 0.92446548 2.6389871
-3.4508536 0.92202955 2.6372595
-3.3484383 0.92254698 2.6269374
-3.1899743 0.96309489 2.6105754
-3.0262289 0.96473593 2.5940645
-2.7627039 1.1623484 2.5655737
-2.8625236 0.8836664 2.5783713
-2.8769474 0.77557653 2.5808878
-2.8967342 0.7630052 2.5830047
-3.0637436 0.53961682 2.6020267
-3.1024392 0.44459054 2.6068597
-3.1433849 0.28401124 2.6125643
-3.2286129 0.1223049 2.622741
-3.2403107 0.082370013 2.6243124
-2.9208336 -0.30341929 2.5959258
-2.8361545 -0.30029505 2.5873649
-2.7964306 -0.30263311 2.5833864
-2.7566931 -0.30747196 2.5794311
-2.4143479 -0.76195896 2.5494168
-2.349952 -0.73673105 2.5426817
-2.3176856 -0.73661506 2.5394301
-2.0890753 -0.71159571 2.5161548
-1.8952959 -0.3740851 2.4933133
-1.9636276 -0.1316689 2.4978113
-1.9808865 -0.094359748 2.4991827
-2.0032744 -0.012749144 2.5006351
-2.0111957 0.089132667 2.5004303
-2.0319278 0.18598577 2.5015659
-2.0306416 0.36682096 2.4996569
-2.0303831 0.36792293 2.49962
-2.0205486 0.40850478 2.49823
-2.0149813 0.48768952 2.4968901
-2.0138974 0.52796316 2.4963846
-2.0139122 0.53046292 2.4963615
-2.0294571 0.64789021 2.4967718
-2.0327699 0.72621602 2.496335
-2.0193691 0.80708039 2.4941893
-2.0185089 0.88734937 2.4933128
-2.0185509 0.8948471 2.4932432
-1.9848492 1.0063219 2.4887514
-1.667418 1.085024 2.4560003
-1.5853684 1.0833795 2.4477513
-1.5337107 1.0510538 2.4428656
-1.529696 1.0343965 2.442625
-1.5566514 0.97180456 2.4459562
-1.5909557 0.89168829 2.4502003
-1.6277416 0.81156206 2.4546945
-1.6692686 0.69142371 2.4600599
-1.6889207 0.63080847 2.462636
-1.7083144 0.57129431 2.4651752
-1.7498789 0.41006023 2.4709487
-1.7495265 0.37061799 2.4713013
-1.7515659 0.29061997 2.4722939
-1.7930486 0.14855021 2.4778707
-1.8003531 0.089365102 2.4791889
-1.8369398 0.028975207 2.4834685
-1.8896995 -0.052513026 2.4895852
-1.8900051 -0.37399483 2.4927795
-1.373569 -0.35600752 2.4405789
-1.3561132 -0.37094259 2.4389675
-1.4383557 -0.81231147 2.4515953
-1.0923812 -1.2101996 2.4206586
-0.9590466 -1.1465755 2.406601
-0.72077298 -1.1457194 2.3825901
-0.60163617 -1.1452917 2.3705845
-0.5619247 -1.1451491 2.3665826
-0.52221203 -1.1450056 2.3625808
-0.44539857 -1.1452982 2.354846
-0.51791501 -1.1683898 2.3623781
-0.61448693 -1.1856672 2.3722763
-0.73600411 -1.229165 2.3849454
-0.81020594 -1.2282974 2.3924117
-0.85775256 -1.23017 2.3972197
-0.92673087 -1.2281486 2.4041483
-1.0061557 -1.2284347 2.4121521
-1.0166154 -1.2282399 2.4132037
-1.0960252 -1.2310257 2.4212306
-1.5743704 -1.1730701 2.4688466
-1.6299868 -1.1729498 2.474448
-1.7689607 -1.1528853 2.48825
-1.893347 -1.1494669 2.5007465
-1.959687 -1.1518693 2.507453
-2.0788243 -1.1522974 2.5194585
-2.5813134 -0.94603223 2.5680475
-2.6633711 -0.9465071 2.5763183
-2.8220477 -0.94714457 2.5923088
-2.8321414 -0.94719428 2.5933261
-3.0990629 -0.74856931 2.6182601
-3.3847971 -0.90978885 2.6486301
-3.5025396 -0.95520616 2.6609378
-3.7011333 -0.94851601 2.6808774
0.94720125 1.170462 2.1917748
0.58582115 1.4294977 2.2256298
0.92608738 1.0320722 2.1952636
0.93504715 0.91358316 2.1955268
0.93376923 0.79357749 2.1968365
0.94819355 0.6724332 2.1965754
0.94727421 0.65226936 2.1968665
0.95575571 0.57341808 2.1967881
0.97501135 0.63358063 2.1942563
0.94905663 0.73013884 2.1959207
0.9473896 0.75242269 2.1958694
0.94699049 0.79241771 2.1955161
0.94446373 0.93223345 2.1943948
0.9453845 0.95239747 2.1941037
0.94878244 1.0129814 2.1931653
0.95226002 1.0335249 2.1926126
0.94946003 1.0731648 2.1925049
0.947577 1.1329668 2.192106
-10.129353 1.4083226 3.3052359
-10.092811 1.4079949 3.301558
-10.135596 1.4047433 3.3059001
0.54496574 1.4191475 2.2298472
0.46809816 1.4188466 2.2375934
0.34393644 1.4070693 2.250217
0.26965141 1.4046481 2.2577238
0.22228336 1.4006689 2.2625346
0.18000984 1.3999493 2.2668002
0.030907631 1.4240297 2.2815831
0.10864973 1.4254985 2.2737372
0.22675133 1.4664204 2.2614374
0.38337088 1.4270487 2.2460477
0.42604256 1.4281733 2.2417381
0.43813467 1.428233 2.2405195
0.49281931 1.4290582 2.2350028
0.50851107 1.4293042 2.2334197
0.54228115 1.4312669 2.2299984
0.9081521 0.031990401 2.2069111
0.91027021 -0.027580425 2.2072837
0.91120863 -0.0072287014 2.206989
0.93850613 0.10986333 2.2030869
0.93709373 0.12699944 2.2030606
0.95220757 0.2724843 2.2001066
0.92281771 0.40885785 2.2017252
0.19142103 -0.56811529 2.2850161
0.15434647 -0.56020927 2.2886732
0.11605644 -0.57775789 2.2927029
0.054322243 -0.65714496 2.2997029
0.066026211 -0.70097876 2.2989552
0.38563251 -0.57738572 2.2655435
0.51819706 -0.49181587 2.2513475
0.50912285 -0.49166101 2.25226
-8.8129568 -0.38707072 3.1902947
-8.8094883 -0.60675871 3.192107
-8.7561913 -0.68862087 3.1875434
-8.7515144 -0.56812662 3.1858866
-8.5538273 -0.32793868 3.1636093
-8.7711964 -0.12621957 3.183521
-8.8377228 -0.089161031 3.189858
-8.8518925 -0.079351358 3.1911888
-8.9072285 -0.079572998 3.1967654
-8.9531813 -0.078303598 3.2013819
-9.0200138 -0.076782517 3.2080994
-9.0628166 -0.077515036 3.2124183
-9.1320953 -0.088896781 3.2195091
-9.2120304 -0.089458928 3.227567
-9.2517223 -0.087193705 3.2315431
-9.3326168 -0.09041106 3.2397237
-9.3806458 -0.090454951 3.2445624
-9.4501715 -0.078368396 3.2514472
-9.5724792 -0.059572563 3.2635829
-9.6485815 -0.074541837 3.2713964
-9.5436993 -0.093604997 3.2610185
-9.3458042 -0.20763336 3.2422056
-9.308568 -0.21241269 3.2385015
-9.2118626 -0.21184111 3.2287543
-9.1870861 -0.2091942 3.2262325
0.9087882 0.08988186 2.2062774
0.92353439 0.19367296 2.2037706
0.91712999 0.35294059 2.2028484
0.91513777 0.4077197 2.2025101
-8.3863401 1.4113582 3.1296229
-8.4403524 1.4082007 3.1350949
-8.3997345 1.4090136 3.1309953
-8.3719082 1.4096881 3.1281855
-8.3556614 1.4100125 3.1265457
-8.3464718 1.4116213 3.1256042
-7.4684019 -0.65551835 3.0574918
-7.5297837 -0.65079772 3.0636287
-7.5663843 -0.64344078 3.0672431
-7.7091541 -0.67945176 3.0819795
-7.7190537 -0.68201005 3.0830021
-7.7059288 -0.69145244 3.0817728
-7.6599402 -0.69772202 3.0772018
-7.4614325 -0.7140463 3.0573657
-7.4171009 -0.69530016 3.0527153
-7.4194508 -0.65530735 3.0525587
-7.4553604 -0.6553908 3.0561769
0 0 0 1 0 0 0 1 0 0 0 1 0 0 0 0 0 269 1 0 0
