ply
format ascii 1.0
comment PCL generated
element vertex 987
property float x
property float y
property float z
element camera 1
property float view_px
property float view_py
property float view_pz
property float x_axisx
property float x_axisy
property float x_axisz
property float y_axisx
property float y_axisy
property float y_axisz
property float z_axisx
property float z_axisy
property float z_axisz
property float focal
property float scalex
property float scaley
property float centerx
property float centery
property int viewportx
property int viewporty
property float k1
property float k2
end_header
-11.777159 0.10991785 -4.6432385
-11.875615 0.11127315 -4.3954058
-11.879036 0.028241018 -4.4385138
-11.763868 0.59214133 -4.6252646
-11.724192 0.59237069 -4.6387491
-11.764967 0.11006953 -4.6560388
-11.684834 0.15065351 -4.6378264
-11.684452 0.59259725 -4.6497335
-11.462564 -1.0893635 -3.3355608
-11.591997 -0.8191101 -3.6819854
-11.552132 -1.0861207 -3.7636652
-11.528366 -0.36821973 -3.8421383
-11.516335 -0.32845426 -3.7397656
-11.743319 0.15221658 -4.5986967
-11.683039 0.028031953 -4.6058373
-11.8741 0.028293567 -4.4411359
-10.412845 -0.37864864 3.1063075
-10.371225 -0.53851479 3.1374035
-10.370211 -0.57864189 3.1747522
-10.440243 -0.41836178 2.9792113
-11.594149 -0.84880561 -3.7870488
-11.514387 -0.32870764 -3.652288
-10.391815 -0.82368445 2.8919868
-10.413019 -0.78366971 2.8526282
-10.382826 -1.0236198 2.890944
-11.536165 0.49221981 -3.5358505
-11.554752 0.11004628 -3.3200369
-11.603302 0.11022696 -3.4789963
-11.524437 0.49285263 -3.456089
-11.637051 0.59251964 -4.3508143
-11.684788 0.50429988 -3.8127918
-11.62525 0.11069562 -3.678555
-11.760695 0.070287302 -3.8206916
-11.683023 0.49986756 -3.7327781
-10.370487 -0.52365172 3.1774483
-11.793772 0.13162801 -4.3173842
-11.607737 -0.12763776 -4.1947637
-11.629758 0.010217482 -3.7304535
-11.870298 -0.011840563 -4.4013715
-11.878696 0.068132341 -4.4108586
-10.625303 -0.62457103 2.6980968
-10.430836 -0.45816362 2.93887
-10.545605 -0.46414143 2.7369618
-10.413101 -0.49805567 2.9383669
-10.456247 -0.38831568 2.9396372
-10.524851 -0.28985363 2.9372716
-10.412484 -0.33500305 3.136456
-11.707831 0.5121907 -4.3991585
-11.590851 -0.42958158 -3.520844
-11.589209 -0.4073137 -3.4407954
-11.359697 0.61894006 -2.7403636
-11.385887 0.37706411 -2.9831433
-11.375462 0.61939329 -2.6600051
-11.389861 0.65957689 -2.6199689
-11.394093 0.65899193 -2.6998935
-11.25537 0.40816754 -1.6898115
-11.230412 0.44778043 -1.5701692
-11.348877 0.76767486 -1.7260213
-11.371707 0.68769616 -1.7658749
-11.684798 1.2067916 -4.1778722
-11.668167 1.206623 -4.2182412
-11.667009 1.2721989 -4.1993604
-11.675987 0.55227017 -4.3161311
-11.692799 0.52672452 -4.1753712
-11.665617 0.55219567 -4.2001028
-11.791943 0.027768033 -4.1480498
-11.792389 0.037825406 -4.1630044
-11.875893 0.071292952 -4.4154449
-10.637476 0.98934025 2.9592257
-10.632131 0.98882061 3.0791321
-10.634929 1.0288005 3.0793767
-11.516207 0.51318544 -3.4164009
-11.530203 0.49337161 -3.3759465
-11.683323 0.61254781 -4.5997276
-11.57275 0.01365249 -3.2915993
-11.571981 0.01310003 -3.3716316
-11.595383 0.011851171 -3.528657
-11.754721 0.11166093 -4.1583209
-11.131574 -1.0119245 -1.8123262
-11.133371 -1.0307715 -1.7392435
-11.148039 -1.0346501 -1.7720145
-11.325839 -1.0283397 -2.5682373
-11.287678 -1.0203577 -2.6490841
-11.244143 -1.01807 -2.4900067
-11.790359 0.071506262 -4.1924911
-11.793568 0.062980406 -4.2028894
-11.627037 -0.37037581 -3.3323202
-10.650868 0.1905784 2.6658764
-10.579603 0.23536898 3.1181111
-10.566612 0.054683901 2.9746785
-10.630129 0.71032435 2.757741
-10.6577 0.62873387 2.5179605
-10.743185 1.1908513 2.4674954
-10.741295 -0.40067565 2.1815443
-10.591285 -0.74204874 2.1766896
-10.457605 -0.16082089 2.9404459
-10.633176 0.91011834 2.7987213
-10.535839 1.1360477 2.7574143
-10.412508 -0.93813682 2.9593492
-10.401228 -0.86381024 2.9045377
-10.523645 -0.86426699 2.7998009
-10.524 -0.82425809 2.7974758
-11.762106 0.57457465 -4.5578041
-11.696846 0.51220554 -4.3594189
-11.378898 0.64492744 -2.5800915
-11.391763 0.69984293 -2.5802035
-11.199379 -0.61161703 -2.0497174
-11.090685 -0.64409566 -1.4983799
-11.377987 -1.0769701 -3.1273575
-11.472338 -1.089455 -3.3253412
-11.418852 -1.079604 -3.1664643
-11.595947 -0.46888682 -3.7609048
-11.633303 -0.89412671 -3.7613029
-11.634087 -0.92899513 -3.806397
-11.426551 0.36405504 -3.01718
-11.429403 0.41653591 -3.0174909
-11.420047 0.65770888 -2.8593645
-11.045404 -0.8121112 -1.3226441
-11.040665 -0.6358251 -1.0593706
-11.071703 0.12760864 -1.2952113
-11.18652 0.12828965 -1.6126584
-11.094587 0.36768329 -1.3435962
-11.196178 0.20802854 -1.5720592
-11.242292 0.32826287 -1.6904798
-11.184542 -0.29304492 -1.3345664
-11.133667 -0.23190704 -1.4954972
-11.186365 -0.13343687 -1.2537682
-10.998058 -0.93311107 -1.0417119
-11.376427 0.61827266 -2.8200188
-11.413092 1.0969192 -2.9826646
-11.185459 0.48753959 -1.4509861
-11.176859 0.36755329 -1.4417342
-11.219313 0.32781208 -1.5609744
-11.219254 0.28785944 -1.5711622
-11.243839 0.28863221 -1.7706484
-11.221771 0.20848344 -1.7065053
-11.24542 0.28842986 -1.7306018
-11.229845 0.20854367 -1.7313266
-10.620934 0.90927744 2.9984856
-10.612236 0.82971519 2.9178996
-10.621235 0.86890143 3.0783353
-10.450178 0.4715451 2.7824092
-10.557713 0.34993476 2.954464
-10.561708 0.26184332 3.0741992
-10.570615 0.27511597 3.1980848
-10.557065 0.30937845 3.0743022
-10.527451 0.43553448 3.1577392
-11.42965 0.95681137 -2.9813108
-11.430912 1.0966976 -2.9972806
-11.474724 0.61415213 -3.3179903
-11.458946 1.0963402 -3.021678
-11.512448 0.59960067 -3.2170439
-11.682362 0.61750805 -4.5597343
-11.025377 1.0411109 0.14581725
-10.92185 1.1220545 0.10630238
-11.025499 1.1210159 0.16619399
-10.985743 1.1612985 0.16796651
-10.905508 1.189294 0.1862568
-11.61553 0.010867471 -3.6507463
-11.594656 0.024617443 -3.4912548
-11.792088 0.067736208 -4.1403885
-11.673471 -0.13078256 -4.2665858
-11.59466 0.4142009 -3.3739901
-11.79999 0.047464438 -3.7948771
-10.450833 0.46418124 2.7523823
-10.612204 0.47072494 2.6987243
-10.608427 0.65474135 2.9170241
-10.613195 0.67578602 2.9604411
-10.631327 0.87031823 2.7584882
-10.519403 1.1513581 2.717082
-10.632577 0.83012128 2.7983484
-10.372379 -0.25860721 3.1633935
-10.637468 -0.18343486 2.4201488
-10.376112 -0.41868562 3.1779251
-10.561113 0.38953614 3.0347462
-10.605694 0.66920274 3.0370579
-10.535189 1.1758668 2.7975893
-10.380004 -1.0178614 2.9358974
-10.41293 -0.94556093 2.9368277
-10.401644 -0.84625852 2.892118
-10.485495 -0.69386625 2.7746382
-10.589634 -1.0229136 2.3755279
-11.761119 0.57453549 -4.517817
-11.676445 0.44629234 -4.2526731
-11.423153 0.76352346 -2.7400172
-11.451174 0.69722682 -2.8989806
-11.217182 -0.1319367 -1.6156518
-11.178679 0.080839336 -1.6130571
-11.431776 0.65707666 -2.939127
-11.510081 0.50517303 -3.136405
-11.455529 0.45608753 -3.0572152
-11.082685 -0.9327696 -1.2423214
-10.995735 -1.063382 -0.9823482
-11.141911 1.0303681 -1.4494905
-11.181567 1.0474812 -1.4284945
-11.172981 1.0872595 -1.3684926
-11.222186 1.047313 -1.4550695
-11.26274 1.0221686 -1.4867626
-11.138939 1.0472475 -1.3144447
-10.863882 1.2167202 0.26544908
-11.177662 1.0467002 -1.2585423
-11.177271 1.0241549 -1.2486526
-11.277968 -0.97166014 -2.1990473
-11.235899 -0.65194434 -2.0165136
-11.233587 0.28813601 -1.6508523
-11.104046 -0.65150362 -1.5381176
-11.132648 -0.75133425 -1.6179421
-10.90781 -0.51520485 -0.46170512
-11.146885 -1.0139017 -0.57854003
-10.893929 -1.0156829 -0.34429318
-11.504128 -1.0869116 -3.4046464
-10.445813 0.046338432 2.8304124
-10.602321 0.03686808 1.3936661
-10.645448 -0.46524221 1.098797
-10.675602 -0.01761283 1.0213397
-10.587927 0.036604077 1.4733473
-10.644648 0.55674177 1.3569924
-10.985099 1.0014075 0.14470986
-11.450075 0.77695543 -2.9395819
-11.452842 0.8169387 -2.939806
-11.392288 0.61789215 -2.8596826
-11.456707 0.7771911 -2.8994298
-11.459742 0.857171 -2.8999319
-11.511616 0.60488468 -3.1770902
-11.065007 1.1256175 0.18962851
-11.219206 0.40767115 -1.5306003
-11.178091 0.28739953 -1.4120653
-11.174212 0.28714198 -1.3521402
-11.135138 0.35002607 -1.3727542
-11.178493 0.68740326 -1.4102165
-11.218655 0.68714333 -1.4167969
-11.244164 0.36805815 -1.6502426
-11.248209 0.32841039 -1.7303531
-11.190084 0.14844647 -1.6524944
-11.183445 0.80717844 -1.3695405
-11.503845 0.53326553 -3.4168105
-10.760515 -0.17926392 0.61675096
-10.871834 0.2810753 0.38136044
-10.879235 0.14120224 0.34087637
-11.018978 0.016364507 0.66922188
-11.021914 0.5972389 0.64591622
-11.113052 0.64006573 0.22850838
-10.852797 0.36077482 0.47381559
-10.904968 1.2016667 0.21381
-11.582888 0.069990769 -3.3595362
-11.769245 0.0062442888 -4.1675205
-11.540716 -0.34322035 -3.0415907
-11.458384 -0.43544865 -2.9636707
-11.426214 0.2163492 -3.0461464
-11.519169 0.069541529 -3.0808868
-11.467121 0.25587296 -3.0755491
-11.50427 -0.29073343 -2.9622312
-11.473537 -0.21138945 -2.6826153
-11.552299 0.44906276 -3.2551227
-11.655462 -0.48998693 -3.5195804
-11.601374 -0.091217801 -2.9995008
-11.578094 -0.091518983 -2.8524828
-11.638044 0.070008755 -3.4783382
-11.576382 0.053349607 -3.3318129
-11.724794 0.50653774 -3.8119411
-11.593 -0.88960081 -3.5221257
-11.45709 -1.0750862 -3.0855789
-11.417118 -1.0723357 -3.0864625
-11.376265 -1.0497156 -3.042295
-11.663536 -0.6108796 -3.2421794
-11.583882 -0.89010471 -3.3372841
-10.484749 -1.0385175 2.6931558
-10.612288 0.70990038 2.8773508
-10.64677 0.6311298 2.5577235
-10.646122 0.67094845 2.5978985
-10.661165 0.63139409 2.4780431
-10.496357 1.1124655 2.5163021
-10.664858 0.87174201 2.3991861
-10.505096 1.1056453 2.3564324
-10.632574 0.91049522 2.7186866
-10.622831 0.9096368 2.9185085
-10.615686 0.74950093 2.9576325
-10.642921 0.83060217 2.6785612
-10.454447 -0.27373052 3.060019
-10.414949 -0.46820885 2.9785161
-10.538313 0.43562222 3.1179638
-10.617838 0.74892467 3.0777154
-10.484608 -0.74395853 2.7969141
-11.680466 0.63242924 -4.4797421
-11.236788 -0.21219318 -1.9327019
-11.199234 -0.23161092 -2.0486221
-11.476389 0.45567167 -3.0967722
-11.209017 -0.29333168 -1.3114995
-11.24904 -0.23371029 -1.2928001
-11.22353 -0.21314061 -1.3733135
-11.545038 -1.0820463 -3.4437304
-11.545898 -1.0869305 -3.4837356
-11.088387 -0.8342725 -1.4592962
-11.147154 -1.0163437 -0.59104872
-11.073727 -1.0154818 -0.66024959
-11.106697 -1.0411067 -0.57958812
-11.44139 -0.85265172 -2.2050653
-11.318808 -1.0142641 -2.2482731
-11.445853 -1.0215902 -2.5655441
-10.993845 -1.0712496 -0.90240586
-10.826693 1.1923866 2.0043492
-10.785007 0.87381679 1.7618613
-10.756753 0.89884418 1.8013136
-10.756985 0.9138667 1.7963848
-10.728724 0.95387167 1.8409081
-11.278833 -1.0115149 -2.2491555
-11.190958 0.2469226 -1.3319349
-10.874149 -0.53724545 0.017552137
-10.89526 -0.61756957 0.05267638
-10.887647 -0.61753643 0.057503879
-10.769234 -0.67781013 0.29457083
-10.853951 -0.97696006 0.55876505
-10.730249 -0.6746648 0.81977963
-10.641928 -0.93772429 1.0967363
-10.824944 -0.97917843 0.49451962
-10.632263 -1.019387 1.4937791
-10.598429 -0.85817981 1.2761251
-10.538383 -0.86060435 1.9349208
-10.505283 -0.66027433 1.917501
-11.57622 -1.0888941 -3.7231264
-11.56605 -1.0891926 -3.6033239
-10.50753 -0.060705248 2.0175905
-10.547245 0.035793297 1.7124479
-10.507077 0.35711092 2.0330281
-10.505927 0.2745136 2.0551372
-10.628958 0.55574203 1.5966843
-10.640949 0.23650821 1.4104832
-10.637838 0.5329873 1.6368043
-10.602973 1.2182636 1.639051
-10.509899 1.1539854 2.1692095
-10.553377 1.0345165 1.9846518
-10.737824 0.83380014 1.8405845
-10.599127 -0.82559758 1.2562722
-10.597132 -0.45897985 1.465319
-10.844944 0.5599426 0.66210198
-10.859056 0.40196866 0.21407691
-10.869171 0.44185966 0.22199574
-11.44204 0.69700867 -2.9391885
-11.473375 0.60707867 -3.2579532
-11.458911 0.97689754 -2.9408102
-11.460278 0.93716753 -2.9004874
-11.451948 1.0569433 -2.9415283
-10.749583 1.2070382 2.202642
-10.703716 -0.74194884 1.9616971
-10.703438 -0.54228139 2.0400496
-10.76132 -0.58210915 1.9011655
-10.742767 -0.44783854 2.1013579
-10.703169 -0.51736706 2.0601521
-10.516317 -0.10094681 2.0576324
-11.094267 0.35513759 -1.3336586
-11.132729 0.24719669 -1.3007617
-11.09251 0.24744572 -1.2916825
-11.250082 0.3682059 -1.6901162
-11.318083 -0.61151224 -2.3271437
-11.243015 -0.13145208 -2.1898937
-11.284953 -0.13144901 -2.2764807
-11.581717 -0.97032046 -3.2625461
-11.580572 -0.93050069 -3.1999407
-11.626047 -0.9700067 -3.4566073
-11.412292 0.77970827 -2.5803261
-11.577707 -0.10905446 -2.840039
-11.660027 -0.59384984 -3.0796685
-11.576424 -0.091736197 -2.7775025
-11.325741 0.96689433 -1.5255809
-11.348863 0.92691469 -1.5652453
-11.343576 0.92689377 -1.5528628
-11.302731 0.96695679 -1.5036039
-11.302382 0.92694676 -1.5012943
-11.277626 1.0070599 -1.4864916
-11.218751 0.97672933 -1.3279384
-10.989162 -0.019283317 0.8684454
-10.966133 -0.059632864 0.98778272
-10.944427 -0.37982321 1.0659673
-10.945024 -0.2998265 1.066316
-10.882135 0.16175935 0.22100428
-10.881992 0.14175333 0.22090951
-10.841282 0.39996606 0.6612823
-10.840992 0.35996854 0.6610918
-10.802294 0.31740773 0.95954263
-10.844362 0.479945 0.66172087
-10.864865 0.39880043 0.56127632
-10.867067 0.27840865 0.64081192
-10.799149 0.27687097 1.079322
-10.801947 0.31685042 1.0795665
-10.81151 0.33965099 0.99987304
-10.868618 0.27820992 0.68086052
-10.856628 0.16080305 0.46047953
-10.824894 -0.057447676 0.13865933
-10.839228 0.32226986 0.1807467
-10.840702 0.31997013 0.66090047
-11.216179 0.96674877 -1.3280439
-11.144991 0.92708153 -1.2898502
-11.182979 1.0871855 -1.368264
-10.605204 0.021349408 1.3799931
-11.539878 -0.37080681 -3.011682
-11.619253 -0.57621628 -3.0405145
-11.614342 -0.73172539 -2.8635297
-11.577127 -0.63369483 -2.9615989
-11.607952 -0.41077888 -3.1603184
-11.503448 0.069542304 -3.0487294
-11.553576 0.4937402 -3.3004246
-11.552226 0.45409691 -3.2501588
-11.53734 -0.600945 -2.9623904
-11.495291 -0.64592499 -2.8834376
-11.610722 -0.44970578 -3.5204592
-11.631757 -0.37044293 -3.3197122
-11.648289 0.050652586 -3.6503201
-11.723047 0.50460535 -3.731945
-11.42022 0.81960309 -2.5879402
-11.433689 0.85928923 -2.6204391
-11.427323 0.89905322 -2.6608682
-11.631609 -0.88935077 -3.6838064
-11.604849 -1.0489514 -3.7623835
-11.456324 -1.0552018 -3.0455284
-11.458029 -1.067471 -3.1255469
-11.58536 -0.88491684 -3.4022527
-11.597578 -0.92999446 -3.4021111
-10.484097 -1.0036864 2.7332969
-10.647896 -1.0241612 2.5619025
-10.62756 -1.0240728 2.5764427
-10.623533 0.75000215 2.8377862
-10.654867 0.71106911 2.5582738
-10.596493 0.43076074 2.7156777
-10.509754 1.1519912 2.5968208
-10.628731 0.94921893 2.9988494
-10.625786 0.83555728 3.0013189
-10.647617 0.87094003 2.5988312
-10.641371 0.83080006 2.6385136
-10.650467 0.79110366 2.5585294
-10.620937 0.82890254 3.0781488
-11.180593 -0.16091529 -1.7741684
-11.226913 0.12703741 -1.4116814
-11.074959 -0.89281875 -1.2198097
-11.249958 -0.2335256 -1.3327887
-11.209433 -0.13348727 -1.2782451
-11.171608 0.046979159 -1.3157948
-11.501503 -1.0797591 -3.2846541
-11.108535 -1.0407386 -0.65956622
-11.080934 -1.0555353 -0.66026855
-11.067518 -1.0556276 -0.62056631
-11.544178 -1.0771617 -3.4037256
-11.149652 -0.97199261 -1.8268118
-11.189925 -0.8722893 -1.8106221
-11.071184 -1.0561407 -0.78052735
-11.117498 0.92728359 -1.290481
-11.318069 -0.97189629 -2.203155
-11.398151 -0.83000088 -2.1659532
-11.357379 -0.81236696 -2.1267996
-10.856777 -0.4572112 0.037525475
-10.901337 -1.0282379 -0.34418011
-10.8964 -0.018235311 0.19549862
-10.895472 -0.57259327 0.057889938
-10.64678 -0.94447869 2.6372313
-10.744682 -0.92431509 1.85934
-10.858517 -0.50109619 1.5036155
-10.877985 -0.60322142 1.3836006
-11.366688 -1.0334746 -2.6073513
-11.448557 -1.0162433 -2.6854985
-10.534567 0.059790008 1.8586707
-10.519607 0.23470072 1.9927647
-10.535952 0.035132505 1.8722231
-10.506832 -0.10077743 2.0349116
-10.506677 0.47461006 2.0347962
-10.643461 0.5565173 1.4069773
-10.546833 0.99432021 2.0368314
-10.709682 0.87382853 1.8801074
-10.550888 -0.46481913 1.7368116
-10.55254 0.035810642 1.7000701
-10.595869 -0.40678638 1.5380274
-10.871462 0.32145911 0.30151668
-11.449806 0.73695737 -2.9393039
-10.706524 1.1547908 1.6812351
-10.74577 1.2038206 2.3625836
-10.513599 1.1132673 2.3166571
-10.932281 0.57355249 1.0438001
-10.972246 0.95019644 1.1664723
-10.924953 0.60711515 1.3638688
-10.973369 -0.0193168 0.90309405
-10.783806 0.27642792 1.19899
-10.787203 0.39640349 1.1996082
-11.526314 -0.97173011 -2.683639
-11.613702 -0.75428998 -2.8411028
-11.483961 -0.89469075 -2.4442992
-11.477121 -0.93202806 -2.4845691
-11.283255 -0.15415053 -2.2065668
-11.241561 -0.14163265 -2.1274395
-11.406832 -0.14694008 -2.3638351
-11.491949 -0.69132119 -2.7461083
-11.432556 -0.69223034 -2.3248284
-11.462301 -0.73241651 -2.3242822
-11.532893 -0.17271149 -2.6420052
-11.420774 0.79687375 -2.6202753
-11.402817 -0.13179311 -2.4038897
-11.546043 -0.091599181 -2.760674
-11.419803 0.68591207 -1.4646964
-11.369485 0.88695294 -1.6049654
-11.13158 1.0001253 0.19057968
-11.11926 0.68021107 0.18882504
-11.370112 0.84713852 -1.6451454
-11.369532 0.76714081 -1.6455264
-11.104615 1.1202549 0.20551756
-11.12571 0.88016725 0.18989375
-11.068155 1.1797706 0.56960499
-11.102923 0.8003937 0.17649975
-11.058077 1.1816449 0.5098139
-10.878599 -0.52072495 1.3839608
-10.926169 -0.3598597 1.1056455
-10.975168 -0.098874003 0.7977742
-10.975512 -0.098810181 0.78277838
-10.730778 -0.65709293 0.80236053
-10.769025 -0.25779971 0.90243328
-10.895903 -0.40021282 0.66466761
-10.94379 -0.61912531 0.90490639
-10.943569 -0.73947501 0.98441923
-10.935696 -0.69906664 0.90438747
-10.877655 0.14140478 0.30082992
-10.854225 0.27794534 0.76054037
-10.842626 0.398036 0.76080382
-10.842154 0.51996201 0.66185319
-10.921528 0.64166754 0.1841071
-10.85239 0.32075381 0.4786233
-10.814237 1.1501781 0.66411245
-10.973873 1.1676877 1.1674873
-10.885801 1.1942235 1.5156175
-11.01959 1.1734599 0.92852795
-10.979973 1.1876006 0.4280248
-10.815141 0.2374949 0.91947818
-10.81173 0.24233522 0.95942926
-10.892774 0.036097907 0.94649899
-10.865963 0.16111617 0.38067332
-10.858661 0.10233024 0.13516888
-10.834534 0.23772059 0.83991611
-10.862371 0.23807012 0.72054374
-11.219027 1.0067394 -1.3302947
-10.605713 -0.45883852 1.4180025
-10.637738 -0.52158022 1.4184707
-10.596577 -0.43411797 1.4979192
-10.834624 -0.5660916 1.5428089
-11.539957 -0.17845646 -2.9611115
-11.620546 -0.51110184 -3.0803084
-11.553304 0.49383014 -3.2879276
-11.662674 -0.65095782 -3.2148089
-11.595797 -0.93022513 -3.3221312
-11.578629 -0.57105154 -3.0113978
-11.661278 -0.57120532 -3.1295877
-11.625032 -0.37063479 -3.2423425
-11.638207 0.038218789 -3.6504493
-11.637751 0.050895624 -3.6255422
-11.430956 0.93875009 -2.7010818
-11.409025 0.77917236 -2.6604142
-11.627419 -1.0094551 -3.641737
-11.634447 -0.96925604 -3.7214847
-11.631775 -0.96960294 -3.6015139
-11.629802 -0.92955172 -3.613946
-11.625664 -0.88944292 -3.641428
-11.648725 -0.96910262 -3.8011847
-11.632575 -1.0116234 -3.7616587
-11.584661 -0.97027719 -3.2824855
-11.586054 -0.88982302 -3.4347596
-10.756566 -1.0419651 1.2989696
-10.857435 -0.9794184 0.49526384
-10.856517 -0.97960091 0.53525364
-10.639824 0.75062406 2.6781292
-10.660324 0.21982579 2.2761188
-10.514854 0.39455193 2.0333815
-10.549115 0.23487262 1.9084418
-10.527754 0.19482376 1.9527674
-10.806728 -0.22192195 1.7836797
-10.671458 0.75169039 2.3988032
-10.658915 0.79122621 2.5187173
-10.675205 0.79184949 2.3590612
-10.680853 0.7519927 2.3190045
-10.60944 0.70936167 2.9973154
-11.178774 -0.15878326 -1.6941791
-11.196856 -0.18445884 -1.9285088
-11.214994 0.16718528 -1.424274
-11.173004 0.24696092 -1.3123419
-11.26668 -0.21383889 -1.2923042
-11.258042 -0.69122082 -1.8323448
-11.283924 -0.731686 -1.7744207
-11.278635 -0.77164727 -1.7747257
-11.602971 -1.0099083 -3.4422321
-11.592084 -1.0099608 -3.4024653
-11.053326 -1.0143782 -0.86076754
-11.137661 0.88723081 -1.3102074
-11.025784 -1.0432014 -0.54144466
-10.842783 -0.97923899 0.47992423
-10.862595 0.041139781 0.38004485
-10.896826 -0.33763224 0.6449455
-10.760996 -0.6185115 0.45469871
-10.796474 -0.41731113 0.74234819
-10.876911 -0.29704434 0.54463434
-10.893702 -0.31083906 0.21909657
-10.89327 -0.37832499 0.21627548
-10.856463 -0.43730438 0.057616532
-10.939487 -0.040360864 0.62715971
-10.860497 -0.15191817 0.54486763
-10.899374 -0.21837945 0.21965256
-11.329677 -1.0103554 -2.7356408
-11.628662 -0.96966696 -3.5740767
-11.615641 -1.0096234 -3.5619788
-10.550289 0.075327918 1.8077254
-10.628307 0.59556007 1.6368599
-10.508377 0.55456924 2.0414476
-10.839383 0.95415205 1.6034652
-10.637224 0.577806 1.6770024
-10.64138 0.24657534 1.3955344
-10.728655 0.5568971 1.1889361
-10.881857 0.57188296 1.4827231
-10.745873 0.35503817 1.5585462
-10.893574 0.59410757 1.5231127
-10.743074 0.31505865 1.5583011
-10.75497 0.31534129 1.4785613
-10.925546 -0.26011527 1.1660649
-10.946215 -0.13983315 1.0670133
-10.945917 -0.17983162 1.0668391
-10.591423 0.81416577 1.9970694
-10.636427 0.59762567 1.7170837
-10.796989 -0.89988685 1.3279942
-10.796406 -0.93993723 1.3403171
-10.802614 -0.89980966 1.3006161
-10.799501 -0.85995948 1.3407222
-10.879541 -0.023751959 1.5073473
-10.837596 -0.22103164 1.5268189
-10.874881 0.32162559 0.26158431
-10.750307 1.1552043 1.5222296
-10.755651 1.1557237 1.4023243
-10.743854 1.2009624 2.4425492
-10.771963 1.1918681 2.2031054
-10.843069 0.95435661 1.5535392
-10.723061 1.1549679 1.6166104
-10.840014 1.2109041 1.7646778
-10.889168 1.0425812 1.3249613
-11.607177 -1.0493294 -3.642302
-11.587933 -1.0444505 -3.5626969
-11.590386 -1.0791026 -3.6827722
-11.501591 -1.0104853 -3.0443916
-11.535694 -0.81166589 -2.7229764
-11.488834 -0.69172662 -2.606144
-11.491648 -0.89187616 -2.5641503
-11.378261 -1.0115308 -2.4469905
-11.364985 -1.0212051 -2.5273352
-11.36414 -1.0138217 -2.4873221
-11.361483 -1.011668 -2.3673449
-11.504243 -0.73207283 -2.5233965
-11.487219 -0.69193614 -2.5336623
-11.445944 -0.69219291 -2.3645403
-11.447255 -0.6517145 -2.5244336
-11.524267 -0.091704339 -2.681139
-11.450977 -0.1316635 -2.5453529
-11.341667 0.6244632 -1.5668023
-11.37603 0.84728479 -1.6850207
-11.466295 0.97518438 -2.8206077
-11.37645 0.68708915 -1.6457369
-11.366081 0.72754747 -1.7258095
-11.104609 1.0403721 0.18014315
-11.104186 1.1401387 0.23060563
-10.965519 -0.045962702 0.66208446
-10.945936 -0.29965973 1.0263273
-10.892301 -0.21863165 0.88290429
-10.898592 -0.33730727 0.56746626
-10.900745 -0.73992383 0.53737128
-10.728537 -0.41534531 0.98086941
-10.889627 -0.89816576 0.77496743
-10.810131 -1.0196934 1.2602733
-10.923325 -0.77979159 1.0913171
-10.874008 0.2016295 0.26101235
-10.878427 0.12159546 0.26074591
-10.85167 0.47815454 0.72136617
-10.812458 0.33983105 0.95988405
-10.890003 0.5696097 0.66318142
-11.023233 0.80104011 0.16216817
-10.863419 0.28094673 0.42117742
-10.851471 0.27889943 0.56042123
-10.860279 0.2386568 0.59796083
-11.060833 1.1821957 0.38984755
-10.976862 0.021268263 0.76330698
-10.790949 0.43656242 1.1598667
-10.76746 0.59631228 1.2525529
-10.808692 0.59624434 1.2010146
-10.93605 0.8349089 1.2851313
-10.889314 0.63619334 1.083073
-10.864904 0.14092581 0.42056707
-10.83763 0.31769902 0.84034824
-10.596231 -0.41920149 1.5179788
-10.856649 -0.66073668 1.4228829
-11.527654 -0.29075921 -3.00172
-11.580656 -0.93049067 -3.2036893
-11.564741 -0.9305163 -3.1627836
-11.513369 -1.0103172 -3.1241488
-11.624922 -0.37064898 -3.2373443
-11.589322 0.06946522 -3.1993542
-11.432152 0.85818601 -2.7805052
-11.421822 0.82408863 -2.6604557
-10.76923 -1.019559 1.2993528
-10.681953 -1.0202963 1.617442
-10.704983 -0.97994554 1.4981049
-10.708376 -0.85996944 1.4986855
-11.066654 -1.0483121 -0.58054113
-10.656466 0.67143035 2.4781108
-10.659857 0.71152151 2.4533639
-10.655815 0.7112484 2.5182862
-10.637975 0.71082389 2.6378956
-10.689353 0.55192441 2.3183088
-10.65982 0.15232776 2.275804
-10.513009 0.27437699 2.0728092
-10.544048 0.11507279 1.8727741
-10.807025 -0.18192258 1.7838538
-10.790523 0.11301595 1.9186246
-10.546467 0.55390644 2.1223722
-10.676154 0.79202944 2.3190732
-10.617105 0.7554841 3.0333409
-11.179675 -0.16109936 -1.7341791
-11.221773 0.10706796 -1.4118921
-11.39185 0.68602127 -1.4453336
-11.172075 0.12695286 -1.3104141
-11.172281 0.14695692 -1.3128185
-11.267598 -0.2136561 -1.3322922
-11.249821 -0.17364267 -1.3075103
-11.187007 0.046949372 -1.3329457
-11.171875 0.10693589 -1.3080106
-11.296822 -0.73169845 -1.7916286
-11.173046 -0.8214429 -1.6573482
-11.119459 -0.8118099 -1.4984909
-11.132616 -1.0084572 -1.6991477
-11.604828 -0.97003949 -3.4020662
-11.541956 -1.0499738 -3.2961702
-11.543533 -1.0101413 -3.2435064
-11.032986 -1.0617285 -0.86145234
-11.035114 -1.0213621 -0.941239
-11.067404 -1.0146713 -0.82043415
-10.843019 -0.89931011 0.49530128
-10.84441 -0.73926973 0.48606673
-10.866186 0.12225793 0.14043555
-10.866045 0.10225177 0.14034036
-10.857676 -0.017688118 0.1395956
-10.893676 -0.33830458 0.21146777
-10.895184 -0.13830081 0.20992163
-10.893885 -0.28584015 0.21921554
-10.625895 -0.78089291 1.8522294
-10.710022 -0.82067966 1.6589305
-10.66748 -1.0405359 1.6970491
-11.354504 -1.0105335 -2.7275875
-11.577013 -1.0495034 -3.5229454
-10.641499 0.59658051 1.3971072
-10.840874 0.91399997 1.6333284
-10.860023 0.99455494 1.4841007
-10.680246 0.60304028 1.5581013
-10.77471 0.3161248 1.2789754
-10.767462 0.39561999 1.3991941
-10.719942 -0.29958791 1.3962694
-10.599511 0.020781584 1.5198973
-10.594056 0.020736113 1.5397788
-10.59223 0.91417283 1.9950354
-10.635458 0.59494722 1.7570605
-10.873299 0.32182801 0.22153738
-11.061316 0.64060199 0.19481423
-10.871382 0.40184313 0.22186139
-10.756621 1.1914252 2.3227744
-10.829687 0.99422544 1.6034154
-10.943937 -0.019464608 0.98744559
-10.84828 0.043061592 1.1455669
-10.783506 0.23642986 1.1988033
-10.805844 0.14123172 1.0649883
-11.624525 -0.92955691 -3.6015601
-11.589527 -1.074219 -3.6427684
-11.498125 -1.0502213 -3.1246033
-11.508524 -0.73185724 -2.6033216
-11.484867 -0.8920756 -2.4842806
-11.486253 -0.8119626 -2.5240283
-11.40674 -1.023724 -2.606432
-11.398602 -1.0109309 -2.6865959
-11.327636 -1.0256087 -2.6482086
-11.275616 -1.0112518 -2.3292456
-11.462944 -0.77230006 -2.3643937
-11.485079 -0.73217994 -2.4488053
-11.477221 -0.77214742 -2.4440942
-11.391207 -0.65184993 -2.3656418
-11.511351 -0.13198844 -2.5615139
-11.450896 -0.17164002 -2.5529723
-11.490837 -0.69146651 -2.6961217
-11.423869 -0.65169078 -2.4849439
-11.451073 -0.17911039 -2.5629926
-11.449333 -0.69209194 -2.4044743
-11.535625 -0.13189779 -2.6409929
-11.37574 0.80728638 -1.6852099
-11.45628 0.85830724 -2.7399735
-11.451851 1.0577785 -2.821507
-10.789873 -0.29725957 0.74270034
-10.793659 -0.33746386 0.78262842
-10.906263 -0.37918645 0.98507738
-10.946236 -0.25966048 1.0265013
-10.884233 -0.6597175 0.51985729
-10.746975 -1.0188686 1.1788145
-10.799129 -0.97938085 1.2076777
-10.882626 -0.66003907 0.58983731
-10.808525 -0.8996793 1.2607402
-10.923878 -0.78967565 1.06378
-10.872623 0.10201322 0.18050042
-10.841328 0.47767389 0.84115398
-10.898918 0.57261193 0.76292217
-11.063107 0.80072278 0.16808477
-11.062469 0.72071379 0.170203
-11.024277 0.92106915 0.15524223
-10.851768 0.31889886 0.56060803
-10.860276 0.19871558 0.58527815
-11.023405 1.1766777 0.76858723
-11.021433 1.1663196 0.84851694
-11.017956 1.1970918 0.68852556
-11.090918 1.1600459 0.27040306
-10.99811 0.02134832 0.7087779
-10.77034 0.56190795 1.1199285
-10.929867 0.99498218 1.2807018
-10.901304 1.0753636 1.2453741
-10.872881 0.081063896 0.38046411
-10.847975 0.31818104 0.72056091
-10.745074 -0.87181735 1.8595691
-10.708894 -0.78094184 1.7215877
-11.587408 -0.93029428 -3.2823086
-11.582912 -0.13086036 -3.0800476
-11.440453 0.97813171 -2.7811768
-10.667112 0.63153446 2.4381728
-10.78806 0.11803439 1.9185891
-10.718337 0.31431335 1.7577682
-10.659763 0.19226013 2.2909856
-10.650204 -0.18300632 2.3004084
-10.5424 0.19415246 2.0731478
-10.739628 0.31489748 1.5982295
-10.727734 0.31461537 1.6779695
-10.715539 0.27433407 1.7575226
-10.794376 0.018339448 1.7468941
-10.688997 0.79249048 2.1993456
-11.222063 0.14706734 -1.4117011
-11.132005 0.14719453 -1.3012384
-11.195666 0.20688803 -1.3320101
-11.222273 -0.13351062 -1.2929552
-11.3132 -0.77019531 -1.927611
-11.130338 -0.81669974 -1.5382745
-11.132711 -1.010933 -1.7041584
-11.132315 -0.97107375 -1.6739756
-11.582882 -0.99764538 -3.3226137
-11.033386 -1.0541599 -0.87641203
-10.882435 -0.89971942 0.52121174
-10.773331 -0.62696648 0.7009306
-10.895318 -0.088347778 0.2201573
-10.702309 -0.86203933 1.9836681
-10.721762 -0.98164248 1.8585773
-10.595985 -0.782085 2.1766295
-10.723549 -0.74165177 1.8596246
-10.592909 -0.98189151 2.1357102
-10.606914 -0.90182042 2.096355
-11.463583 -1.0113381 -2.6851506
-10.844141 0.99450153 1.5212346
-10.886675 0.95473784 1.4020318
-10.767215 0.23580696 1.3584598
-10.710567 -0.13962415 1.421733
-10.838333 -0.19093895 1.5044554
-10.837905 -0.24843588 1.5042053
-10.837327 -0.32593304 1.5038666
-10.586029 0.036245726 1.5533234
-10.591684 0.84916371 1.9972327
-10.709383 0.83383 1.8799207
-10.643259 0.5545131 1.8370876
-10.712223 -0.86069632 1.6588132
-10.83647 -0.68558455 1.4223181
-10.722536 -0.94060117 1.6187029
-10.796717 -0.85999292 1.3531622
-10.713902 -0.81996638 1.4889764
-10.708812 -0.98317242 1.6582222
-10.822492 0.95390624 1.6830859
-10.930378 -0.039537329 1.0270625
-11.496546 -1.017953 -3.0445261
-11.501516 -1.0501219 -3.1645379
-11.529865 -0.8017503 -2.6830678
-11.518694 -0.73155826 -2.723124
-11.279709 -1.0138979 -2.2891526
-11.279005 -1.0111514 -2.3691802
-11.493356 -0.73212636 -2.4836302
-11.397096 -0.65176457 -2.4055202
-11.32305 -0.6165424 -2.3270483
-11.48595 -0.71707946 -2.4837513
-11.44899 -0.65898365 -2.6044369
-11.533157 -0.12688205 -2.6410327
-10.75964 -0.9964633 1.1791974
-10.807595 -0.78001875 1.3412422
-10.835678 0.51753062 0.88120973
-10.829483 0.35757536 0.88034511
-10.848521 0.51799244 0.76148212
-10.843475 0.55747259 0.88157451
-10.832529 0.5573681 0.92132533
-11.022306 0.68103302 0.16409686
-11.101692 0.67034036 0.18837658
-11.063978 0.92071784 0.16865602
-10.94062 1.1817462 0.88667989
-10.925694 1.0755516 1.1659297
-10.933998 1.1829907 1.1666092
-10.810745 1.1558183 1.2936009
-11.06175 1.1823797 0.34985796
-11.07434 1.1603593 0.23001376
-10.753757 0.55722052 1.0795015
-10.684972 0.60143632 1.3581494
-10.685881 0.55667484 1.3054541
-11.583493 -0.090818644 -3.0949216
-11.439589 0.97841507 -2.7411878
-10.660862 0.67176998 2.3981943
-10.546496 0.23486851 1.9133813
-10.552299 0.043255039 1.7126009
-10.726835 0.19461899 1.6774104
-10.670506 0.83188629 2.359129
-11.192444 0.10690317 -1.3325437
-11.293438 -0.73257083 -1.9279428
-10.881963 -0.91728842 0.53612459
-10.895113 -0.69744092 0.60088694
-10.89538 -0.71486586 0.58331525
-10.96685 0.019208193 0.62490451
-10.708384 -0.79601574 1.7390177
-10.605684 -0.82215899 2.176682
-10.576544 -0.98202896 2.1953521
-10.714796 -0.69997185 1.4894999
-10.709705 -0.74084908 1.6992693
-10.714329 -0.700535 1.6195209
-10.717442 -0.74038464 1.5794154
-10.76963 1.1559093 1.3401386
-10.856998 1.2016351 1.0448318
-10.90696 0.87475759 1.364643
-10.725927 0.60381353 1.3191208
-10.761215 0.31553775 1.4261948
-10.84461 0.039890602 1.305513
-10.589478 0.036405787 1.513395
-10.739277 0.39471567 1.6385906
-10.717836 -0.90056473 1.6187634
-10.707302 -0.94100893 1.7383852
-11.514166 -0.77177233 -2.643321
-11.490336 -0.69153112 -2.6736267
-11.062237 0.68072617 0.16751316
-11.023815 0.88103682 0.16255084
-11.10397 0.9603644 0.18226042
-10.976775 1.1757257 1.0475577
-10.854935 1.1787766 1.1247023
-10.941858 1.1932644 0.34715369
-10.734318 0.59643567 1.2792739
-10.660252 0.71658856 2.4383926
-10.734031 0.23493807 1.5977391
-10.881027 -0.91997141 0.57610118
-10.595385 -0.47178379 1.5377444
-10.859571 1.1971278 0.93484044
-10.859809 1.1971728 0.92484283
-10.761868 0.31566209 1.3987027
-10.776609 0.2361079 1.2786609
-10.881245 -0.043410931 1.4260319
-10.847366 0.042893469 1.1855556
-10.708813 -0.86084551 1.6987457
-10.745193 -0.90175223 1.8444428
-10.844423 0.5576511 0.8415854
-10.85287 0.55777377 0.8017751
-11.04899 0.64072883 0.18703023
-11.064674 1.0007384 0.16403857
-10.86087 1.212352 0.88492417
-10.8626 1.1902118 0.80484402
-10.942575 1.189605 0.80673766
-10.899702 1.1843705 0.92573261
-11.023877 1.199015 0.58912969
-10.987399 1.2026973 0.60780311
-10.940941 1.1930796 0.38714364
-10.918757 1.2013147 0.26663926
-10.984548 1.1860218 0.22806874
-10.593443 0.070630357 1.6736882
-10.734983 0.15474321 1.6374125
-10.757221 0.15550794 1.4378864
-10.893863 -0.85744506 0.60268867
-10.845831 0.020142965 1.245442
-10.846321 0.5580107 0.76160991
-11.02503 1.001101 0.14812592
-10.865707 1.2257475 0.68504119
-10.956076 1.1971884 0.7670809
-10.89695 1.1963305 1.045755
-11.037346 1.1973189 0.60896337
-11.015919 1.1989779 0.60895205
-10.59762 0.072861478 1.6200988
-10.796259 0.0186854 1.6644168
-10.882668 -0.85973239 0.52390146
-10.895027 -0.76236498 0.58310759
-11.025013 0.99860173 0.14811411
-10.898254 1.1965784 0.99077189
-10.934673 1.2142915 0.66717327
-10.975526 1.2066805 0.62806499
-10.98554 1.2073389 0.68780291
0 0 0 1 0 0 0 1 0 0 0 1 0 0 0 0 0 987 1 0 0
