ply
format ascii 1.0
comment PCL generated
element vertex 642
property float x
property float y
property float z
element camera 1
property float view_px
property float view_py
property float view_pz
property float x_axisx
property float x_axisy
property float x_axisz
property float y_axisx
property float y_axisy
property float y_axisz
property float z_axisx
property float z_axisy
property float z_axisz
property float focal
property float scalex
property float scaley
property float centerx
property float centery
property int viewportx
property int viewporty
property float k1
property float k2
end_header
-1.0504341 -1.2003485 -5.2043433
-0.87766552 -1.3168975 -5.4294515
-1.1518269 -1.2006963 -5.2406683
-0.91727114 -1.3172894 -5.4179997
-1.0303965 -1.2077 -5.2051477
-1.0706024 -1.200447 -5.208611
-0.059813499 0.84985524 3.1583109
-0.13997313 0.80960697 3.1509194
-0.059663296 0.44994962 3.1222515
-0.18464181 0.18207642 3.1167631
-0.051498413 0.24997681 3.1214561
-0.23069856 1.0425023 3.1842134
-0.18002507 1.0094223 3.1703067
-0.26012465 1.1291268 3.1808383
-0.1509628 1.0528699 3.1764841
-0.84281588 0.75828362 -2.2457979
-0.86995459 0.71804029 -2.2452545
-0.88931131 0.76633906 -2.7643876
-0.32305762 0.66398835 0.47665769
-0.31085488 0.98159665 0.54160959
-0.2752423 0.62189251 0.88315088
-0.30736491 1.1018395 0.98327881
-0.22918078 -1.1225981 2.9579363
-0.22222659 -1.1199553 2.9597244
-0.21745059 -0.85828429 3.1483202
-0.29916474 -0.8585282 3.0985312
-0.69926834 0.80852968 -3.0310535
-0.70216799 0.84930754 -3.1005421
-0.70072746 0.89374381 -3.0500617
-0.68081284 0.48847312 -3.0152874
-0.28201625 -1.1298766 1.066807
-0.33403203 -0.91496283 1.1180613
-0.2420387 -1.1294383 1.0655346
-0.099337548 0.40979826 3.1284952
-0.064334393 0.10279923 3.1098766
-0.099470586 0.44979918 3.1286044
-0.17912003 0.40951073 3.1362047
-0.13919351 0.44964135 3.137455
-0.8891077 0.76378316 -2.7594199
-0.88869023 0.72337222 -2.7236097
-0.87746048 0.59751719 -2.2062972
-0.88894749 0.72384369 -2.7648745
-1.1117148 -1.2204002 -5.2423258
-0.86171913 -1.2113525 -4.97118
-0.85733366 -1.21252 -4.8512654
-0.81426144 -1.245556 -4.50313
-0.93287659 -1.2167759 -4.7284594
-0.81156778 -1.2062805 -4.6927638
-0.61475897 1.0417011 -2.3710554
-0.57122564 0.63409895 -2.0639081
-0.58804941 1.0390399 -2.1193774
-0.71036482 0.67967463 -2.2690301
-0.6887126 0.55967194 -2.2536483
-0.70466709 0.67305321 -3.2124991
-0.70511484 0.6507501 -3.2302451
-0.5846262 0.79864669 -2.0846598
-0.14006993 0.88959354 3.1561341
-0.060045719 0.96984047 3.1636319
-0.14003465 0.92957997 3.1612382
-0.10010621 0.99470359 3.1650543
-0.11221883 1.4433346 2.8383102
-0.090697289 1.1697371 3.1651888
-0.13996264 1.0095531 3.1714492
-0.83161545 0.73884362 -2.2864537
-0.74337292 0.87664551 -2.0279496
-0.32042548 0.30385727 0.50755733
-0.29533669 -0.11731152 0.60010248
-0.31308076 -0.083252057 0.45120138
-0.3097305 0.15473025 0.63875979
-0.43080565 0.30217177 0.78655332
-0.18357655 -1.122043 2.918396
-0.066344261 -1.1184825 2.8344307
-0.1520929 -1.1219747 2.8727102
-0.12415978 -1.1474316 2.800065
-0.70567989 0.88870001 -3.0499372
-0.77836847 0.84744638 -2.995204
-0.16451213 -0.69747823 3.0396867
-0.20448777 -0.69771367 3.0410285
-0.26671359 -1.1370881 2.8235641
-0.26545569 -1.1372535 2.861043
-0.28727242 -1.1374736 2.8817859
-0.1537914 1.4604564 2.7997789
-0.2770786 1.4530009 3.0283012
-0.217329 1.4623741 2.842093
-0.14276358 1.4630594 2.7593546
-0.24308392 1.453799 2.8786993
-0.21253487 1.4129329 3.105104
-0.33651492 1.452571 3.0695543
-0.31503436 1.4274892 3.1087265
-0.15525576 1.4629451 2.7598047
-0.46430203 0.20063666 0.88761979
-0.30812451 -0.71802223 0.73534065
-0.73451614 0.76683688 -2.9101424
-0.84257364 -0.38816786 -2.8600602
-0.84231472 -0.41566682 -2.8601003
-0.78706932 -0.20082586 -2.386559
-0.86488152 -0.25412714 -2.3387542
-0.77739334 -0.5594064 -3.3129239
-0.74112034 -0.4364574 -3.3841553
-0.89036822 -0.48077673 -3.0973296
-0.76378632 -0.63929611 -3.3035011
-1.1104631 -1.1907912 -5.202055
-1.1224594 -1.2016782 -5.1216655
-1.107399 -1.2115678 -5.1223116
-1.1030326 -1.2102343 -5.0023737
-0.90934372 -1.1996322 -5.1769733
-0.86902761 -1.209409 -5.1710367
-0.86321497 -1.2059652 -5.0111008
-0.97405338 -1.2570652 -4.4973216
-0.9743104 -1.2166818 -4.7669721
-0.58058405 0.27416772 -2.0901268
-0.58015585 0.31858373 -2.0801766
-0.57949495 0.19870743 -2.0915468
-0.70717049 0.35956794 -2.2602124
-0.58175278 0.55841994 -2.0649309
-0.099790543 0.84971714 3.1596661
-0.17982861 0.8494491 3.1598806
-0.24692914 1.439276 2.7662024
-0.36478087 1.4410024 2.8303409
-0.20378014 1.4624991 2.8015795
-0.29904172 0.60904664 3.1608014
-0.7915163 0.72471768 -2.7684264
-0.78867626 0.68474406 -2.7689776
-0.82274151 0.72366667 -2.0467725
-0.67839146 0.98677438 -0.49523425
-0.4853358 1.0634338 -0.68922931
-0.6739583 1.0262128 -0.36263952
-0.62747383 1.0385145 -2.1029313
-0.57274675 0.98840624 -0.76656002
-0.25244853 -1.1226186 2.9362297
-0.60031223 -0.18711235 -1.8514357
-0.6552062 -0.52244949 -2.1465578
-0.76929665 0.01300168 -2.0825305
-0.55817366 -0.2271346 -1.7954991
-0.80062866 0.24948615 -1.8024168
-0.5972805 -0.22739191 -1.7691263
-0.55341244 -0.30756557 -1.6683605
-0.63740683 -0.21255623 -1.770185
-0.21853682 0.089415334 3.1217055
-0.2237806 -0.61764389 3.0020041
-0.22598168 -0.49744999 2.9575801
-0.29921481 0.8889854 3.1840446
-0.25900766 0.28801408 3.1285951
-0.25848529 0.13176468 3.1281734
-0.28297374 1.4536159 2.8825865
-0.19396684 1.4625894 2.7962217
-0.29450843 0.62171668 0.90385801
-0.54385757 0.48321629 1.0113828
-0.44866225 1.021129 1.0103588
-0.31439397 -0.19747533 0.61790317
-0.36149642 0.50371253 0.50232822
-0.36065528 0.34369349 0.50662225
-0.47131297 0.46261179 0.64855582
-0.54693079 0.42175627 0.77108234
-0.45304725 0.54286581 0.60823685
-0.51355982 0.47457749 0.73012263
-0.6732769 0.94617122 -0.35299662
-0.63477182 0.98650354 -0.39168492
-0.81802988 0.80631596 -2.9266634
-0.81571484 0.80639452 -2.9317513
-0.80441999 0.84597772 -2.8866897
-0.85118484 0.81213963 -2.8052988
-0.84620571 0.76560444 -2.8860593
-0.87826014 0.76439768 -2.8048415
-0.83080435 0.64436734 -2.7678876
-0.80683804 0.36487651 -2.7969041
-0.7160368 0.68769306 -2.971746
-0.81864214 -0.92122024 -2.3411789
-0.61704445 -0.79442704 -2.2683284
-0.65588856 -0.75985074 -2.2268486
-0.85844994 -0.93909687 -2.3397479
-0.77989244 -0.94579655 -2.3826437
-0.78713703 -0.64137495 -2.0218029
-0.80054235 -0.78768498 -1.9290695
-0.70255756 -0.51850855 -3.4456902
-0.69832897 -0.4261685 -3.3056488
-0.70037031 0.17060372 -3.2182684
-0.65503645 -0.55994254 -2.1516089
-0.94897175 -1.2099987 -5.1681185
-0.86361599 -1.2008671 -5.0210447
-0.90024662 -1.2095368 -4.9297247
-0.97874832 -1.2080158 -4.8868108
-0.93410587 -1.254189 -4.4987745
-0.93143129 -1.2146648 -4.6884632
-1.0556979 -1.2193836 -4.8040495
-0.84802103 0.68558985 -2.8868861
-1.0140018 -1.2599434 -4.4958696
-1.0883636 -1.2216231 -4.6027346
-0.35307071 -0.69415736 0.019160032
-0.37565133 -0.63256669 -0.047147751
-0.35245988 -0.67424279 0.039236069
-0.37477013 -0.61515927 -0.019603372
-0.42548367 -0.83880329 0.79889256
-0.59134293 -0.34042382 -1.6121204
-0.57904816 0.038212784 -1.2110194
-0.55324841 0.30796355 -0.65005112
-0.59517765 -0.021765873 -0.53024912
-0.58331776 0.12956053 -0.89036596
-0.44724652 -0.26980066 -0.91145676
-0.49667212 0.12281644 -1.1330959
-0.57914162 0.060712375 -1.2109393
-0.82854319 0.47703969 -2.1293726
-0.78279877 0.55698943 -2.090122
-0.82293177 0.43700624 -2.122519
-0.77893877 0.80772913 -3.0206437
-0.75427675 0.72826791 -3.0499525
-0.71501207 0.56770515 -2.9731236
-0.62635612 0.91849858 -2.1018107
-0.67415667 0.96042293 -2.3047459
-0.77274609 0.81830329 -2.8481269
-0.59317589 1.027089 -0.4855144
-0.59739923 0.98699409 -0.46802682
-0.60416746 0.98782116 -0.66290766
-0.56082916 0.99257988 -0.56683457
-0.86828041 0.69259667 -2.2055712
-0.86536694 0.59696454 -2.1492038
-0.8274951 0.75753033 -2.1688099
-0.41884848 1.0612574 1.0094934
-0.47449633 0.94211489 0.760768
-0.58095884 0.82696545 -0.44676414
-0.48509499 1.0059344 -0.68948132
-0.45133349 0.74950314 -0.90187037
-0.50523329 0.90904963 -0.84929043
-0.48485515 0.94843537 -0.68973422
-0.52914286 0.98377162 -0.80811858
-0.74428511 0.87692416 -2.052932
-0.67714453 0.95976514 -2.2496026
-0.20497748 -1.1224141 2.9345822
-0.76443481 -0.5472362 -2.0120578
-0.67741251 -0.20522813 -1.76877
-0.7647047 0.22266796 -1.9238505
-0.18439004 -0.29758066 3.039608
-0.22629592 -0.45744056 2.9552636
-0.22527978 -0.35765117 3.0031943
-0.1434488 -0.21753286 3.0811086
-0.41894719 -1.1650118 2.10045
-0.42024943 -1.1648374 2.0629735
-0.42111108 -1.1447337 2.0405836
-0.41694447 -1.145291 2.1605086
-0.24353358 -0.45757753 2.963346
-0.23980662 0.92922312 3.1696262
-0.2810435 1.1322852 3.1863434
-0.21322009 -0.018128216 3.1243482
-0.23071 -0.018230572 3.1249347
-0.10324237 -0.097420037 3.1078029
-0.29840514 0.089134537 3.1269159
-0.25900266 0.48921007 3.149128
-0.29888102 0.40908593 3.1452699
-0.3076143 1.4494779 2.9931664
-0.36266419 1.4532367 2.8928571
-0.21451089 1.4544158 2.765141
-0.3896136 0.84191066 0.88747376
-0.45998093 0.34160602 0.88779432
-0.30772206 1.0419143 0.96552688
-0.44721887 0.94131017 0.96994585
-0.46679112 0.19812486 0.88769454
-0.54539204 0.18606091 0.93012625
-0.55337238 0.50155354 0.81166822
-0.46761319 0.70639843 0.9296326
-0.39333054 -0.25541574 0.64288992
-0.35957667 -0.089506939 0.48238987
-0.35988805 -0.076973021 0.47495407
-0.31497809 -0.1174425 0.61078995
-0.47181413 0.58260828 0.64908236
-0.51360083 0.42211002 0.72239727
-0.51334763 0.38209957 0.72471935
-0.47575614 0.6624161 0.68958193
-0.55403996 0.66155124 0.81237012
-0.47592446 0.7024157 0.68975669
-0.87603378 -0.24179013 -2.2983069
-0.86611414 0.037063241 -2.2971082
-0.84520388 -0.26312923 -2.8998523
-0.52272272 -0.510481 -0.80959278
-0.55432224 -0.43074083 -0.77320218
-0.52357817 -0.43043172 -0.82429928
-0.85238981 0.78258836 -2.8456147
-0.78833342 0.64474779 -2.7694366
-0.82688284 -0.19870891 -2.3801036
-0.77864742 -0.92334253 -2.3426378
-0.85169435 -1.2040393 -4.6950283
-0.85655165 0.68505383 -2.8465509
-0.81406355 0.46431977 -2.9706573
-0.74034452 -0.51895362 -3.3842745
-0.68924046 -0.61888206 -3.1060615
-0.78306723 -0.55953199 -3.2626829
-0.77020073 -0.59941345 -3.2631969
-1.0275965 -1.1909784 -5.125031
-1.0659471 -1.2141608 -5.0838251
-0.90609455 -1.207981 -5.0896101
-0.98609066 -1.201072 -5.0866179
-0.85423279 -1.2459341 -4.5016742
-1.0125699 -1.2574875 -4.4558926
-0.84995747 -1.2360671 -4.3817401
-0.91134787 -1.2390884 -4.4195337
-1.0513487 -1.2155507 -4.6840863
-0.80424166 -1.2107259 -4.4929323
-0.75749493 -1.1732148 -4.0248003
-0.80137157 -1.204004 -4.4129148
-0.80332899 -1.1984046 -4.1907692
-0.84137821 -1.1992983 -4.4114065
-0.88354683 -1.199151 -4.1953526
-0.54675913 0.18123063 0.89012963
-0.49824283 0.081451766 0.68812305
-0.44714114 -0.1983325 0.68504852
-0.33453271 -0.91989213 1.1030457
-0.34869573 -0.67813349 0.72442752
-0.56978941 0.14726125 -0.93080032
-0.52742481 0.46883243 -0.82287145
-0.50855923 0.50903499 -0.85087287
-0.50072908 0.4290697 -0.85148448
-0.53715277 0.50873613 -0.80985582
-0.57967758 0.38767409 -0.60877025
-0.58001184 0.46767211 -0.6084187
-0.4479017 0.50921059 -0.83296722
-0.68425465 -0.030449241 -1.007477
-0.62110806 0.51798099 -2.0564394
-0.6689167 0.5575518 -2.0542502
-0.65041447 0.51372313 -2.0541639
-0.61077976 0.55391687 -2.0603733
-0.7902894 0.72748542 -3.008616
-0.84940243 0.77419716 -2.765758
-0.67373705 0.97525448 -2.2895844
-0.82517576 0.71614563 -2.0467665
-0.69114542 0.67355651 -2.0545735
-0.66358948 0.75773787 -2.0647178
-0.58339453 0.71848714 -2.0705895
-0.58286953 0.67843562 -2.0660529
-0.5928278 0.83868694 -2.0939212
-0.4543843 0.86285943 0.60964161
-0.46515414 0.78263831 0.64969927
-0.44027993 0.74309689 0.56861907
-0.42667767 0.74333119 0.5281226
-0.42468116 0.86333948 0.52856165
-0.40237376 0.82347995 0.5176118
-0.5053463 1.0207855 1.0348394
-0.55581808 0.82136703 0.85313576
-0.54994106 0.90123951 0.88829118
-0.63461924 0.84655887 -0.40479234
-0.67342567 0.89871532 -0.3631987
-0.5586834 0.70746905 -0.54060149
-0.56596756 0.62808448 -0.68827486
-0.48751733 0.58895069 -0.81124061
-0.56792355 0.98845023 -0.77173018
-0.22397086 -1.1372142 2.9046755
-0.76537848 -0.61211687 -2.0472655
-0.80116367 0.23206031 -1.8199823
-0.82401466 0.11609987 -2.2197528
-0.53275728 0.1877037 -1.0119978
-0.48917291 0.54917514 -0.86388397
-0.5670886 0.78845304 -0.7726084
-0.59534168 0.74813282 -0.72677004
-0.56700802 0.74846393 -0.77528238
-0.81278372 0.11948776 -2.3340869
-0.83984041 0.11832618 -2.2530522
-0.87034464 0.51870251 -2.3050089
-0.84555483 -0.22563107 -2.8997979
-0.87009382 0.3191703 -2.3472757
-0.86808729 0.15899135 -2.3316245
-0.28745744 -1.1371081 2.8017473
-0.29944655 1.0089711 3.1893656
-0.29939792 0.96897906 3.1867588
-0.29894683 0.80898643 3.1838281
-0.28397796 0.68907118 3.1705027
-0.29893538 0.72900724 3.1761165
-0.2987251 0.48905391 3.157979
-0.25895354 0.44921768 3.1465206
-0.26415488 0.061639875 3.1113997
-0.54527617 0.20009112 0.93295652
-0.29788601 0.20829666 3.1297081
-0.21918198 0.40938139 3.1350627
-0.30264422 -0.13863508 3.1218185
-0.43211982 -0.20576932 0.6844911
-0.43221423 -0.11830701 0.692406
-0.55130148 0.60406178 0.81203181
-0.43483159 -0.19808407 0.64334649
-0.43977925 0.62309825 0.56809253
-0.43017098 0.38331544 0.52671582
-0.52151966 -0.59056413 -0.78488988
-0.44686696 -0.89957088 -0.97864801
-0.67198706 -0.75210834 -0.52755928
-0.8265624 0.8057794 -2.8863277
-0.88998079 -0.40081429 -3.0659852
-0.85122824 -0.28043932 -3.0697646
-0.77586031 0.44776523 -3.024776
-0.74079037 -0.47145516 -3.3842058
-0.69834042 -0.55902255 -3.0656366
-0.73149347 -0.5991959 -3.1620378
-0.70691681 -0.59904778 -3.1053944
-0.98758793 -1.1956831 -5.1265397
-1.0643005 -1.2021246 -5.0362334
-0.97317457 -1.2017766 -5.0070391
-0.92992401 -1.2343229 -4.3788247
-0.96712446 -1.2197899 -4.2974005
-0.96989584 -1.2346991 -4.3773689
-0.85282278 -1.2409791 -4.4616933
-0.92847347 -1.2204436 -4.6085691
-0.9213047 -1.202389 -4.4085131
-1.0456824 -1.2130895 -4.2545037
-0.96846294 -1.2182376 -4.6070862
-0.9670186 -1.2161272 -4.5670891
-1.0469456 -1.2192171 -4.564198
-0.96407795 -1.2194049 -4.4871721
-0.88275909 -1.2067051 -4.4499927
-0.96127796 -1.2026836 -4.4070539
-0.84302902 -1.1987909 -4.1818185
-0.560956 -0.47084039 -0.75309598
-0.43283364 0.10252435 0.70322627
-0.39426181 -0.025418654 0.64398915
-0.54709864 -0.29976755 -0.3327406
-0.59312868 -0.31260818 -0.29116154
-0.63949013 -0.31266654 -0.32957596
-0.34884927 -0.68310934 0.71940643
-0.55141592 0.29923755 0.77071768
-0.42540547 -0.83631563 0.80140382
-0.74492836 -0.66909212 -1.4653158
-0.78446913 -0.66930747 -1.4514353
-0.78360796 -0.70937341 -1.431589
-0.44905707 -0.30986226 -0.89652061
-0.46171758 -0.26991588 -0.89594662
-0.44935128 0.66930252 -0.85475051
-0.45099971 0.66950458 -0.90222204
-0.63968325 0.39741439 -0.60664463
-0.67729759 0.5068953 -0.52357376
-0.63910055 0.50728524 -0.57618034
-0.64841366 0.42720139 -0.56619072
-0.63632298 -0.074300691 -0.56902158
-0.62076616 0.47798616 -2.0568981
-0.78960562 0.64749432 -3.0095348
-0.82449865 0.68626064 -2.9277682
-0.65292788 1.0009003 -2.3300881
-0.67418194 0.94691378 -0.52306646
-0.60512829 0.9479596 -0.69556326
-0.77049589 0.6331588 -2.0394795
-0.62265968 0.67802054 -2.0595989
-0.35505816 0.94364196 0.52648455
-0.40236899 0.86345786 0.52278429
-0.40485999 0.90342522 0.52804416
-0.54550123 0.98065501 1.026058
-0.50587559 0.96088058 1.0120902
-0.42631146 1.0537258 1.0097203
-0.48597285 0.98096746 1.0114834
-0.5175662 0.90170842 0.812123
-0.47624394 0.86237055 0.70045298
-0.42836854 0.88156819 0.92901188
-0.57751703 0.86715651 -0.48673669
-0.58317947 0.62765849 -0.60763091
-0.76583719 -0.62706554 -2.06231
-0.7600975 -0.34850925 -1.6463119
-0.69674635 -0.030503228 -1.0070431
-0.58620644 0.090115957 -1.0504969
-0.81861448 -0.62777138 -1.9253974
-0.46713921 0.42939031 -0.89267367
-0.53525972 0.12247411 -1.0917315
-0.52810001 0.58885193 -0.82734156
-0.57357454 0.5884034 -0.76822799
-0.61960506 0.90785193 -0.68522555
-0.57491159 0.90839684 -0.76682466
-0.68023348 0.86706293 -0.56321812
-0.8668766 0.11830945 -2.2969909
-0.75629139 0.52549756 -2.8119678
-0.708529 0.53949463 -2.253149
-0.75274563 0.64644581 -2.8908057
-0.81065559 0.0048253238 -2.9808664
-0.70034838 0.16810407 -3.2182961
-0.83071804 0.3666718 -2.9711385
-0.29908082 0.84898567 3.1839364
-0.21945331 0.76930618 3.1635184
-0.18914601 0.33285844 3.1397338
-0.29892156 0.64902598 3.1684055
-0.29888532 0.68901372 3.1735101
-0.3149657 -0.07746549 0.61597818
-0.51348829 0.58201122 0.74558455
-0.36104438 0.12307019 0.46591657
-0.32168338 0.082093254 0.441845
-0.41040275 0.10357679 0.48481852
-0.41339013 -0.23799925 0.64366609
-0.4249787 -0.11823972 0.68465108
-0.45745942 -0.11837707 0.6857782
-0.44011399 0.70309794 0.56844217
-0.42084596 0.54335606 0.52707106
-0.45737502 0.38284671 0.60770792
-0.43886945 0.34313494 0.55936795
-0.40070388 0.42348814 0.51585752
-0.40120456 0.54348576 0.51638359
-0.37759539 0.62371898 0.48588592
-0.40036961 0.34348869 0.51550621
-0.4002032 0.30348909 0.5153299
-0.43836257 0.26311511 0.56401294
-0.41201398 0.22339422 0.52540725
-0.39994809 0.26348013 0.51765305
-0.78172255 -0.86949056 -1.397177
-0.67994022 0.79706436 -0.56352609
-0.60413504 0.79291987 -0.68625098
-0.67857838 0.90684056 -0.51057583
-0.63752556 0.58705068 -0.5208621
-0.63533068 0.74669749 -0.43771097
-0.67408466 0.78635424 -0.39617193
-0.56030989 0.30787897 -0.63729763
-0.8507843 -0.240467 -3.0472212
-0.74060345 -0.4914543 -3.384234
-0.93216562 -1.2010744 -5.0485616
-0.94175148 -1.1994447 -4.9681368
-0.98168898 -1.2047392 -4.9667287
-0.96435356 -1.2048782 -4.217432
-1.0037341 -1.2002764 -4.1984801
-1.0443435 -1.2006336 -4.2145123
-0.96158123 -1.1899681 -4.1374631
-0.89151287 -1.2068706 -4.689847
-1.0412045 -1.205773 -4.4041615
-0.84278774 -1.2064096 -4.4514527
-0.80866098 -1.2045584 -4.6127958
-0.80570412 -1.2103369 -4.5329041
-0.49928805 0.18143564 0.88848072
-0.55403852 -0.43229759 -0.3329491
-0.62372255 -0.43160665 -0.61069691
-0.34891793 -0.67685449 0.71818751
-0.50839853 0.12140774 0.6886614
-0.4486694 0.58926165 -0.8451072
-0.52393961 0.66861767 -0.76961219
-0.54648161 0.74816924 -0.68844247
-0.63791752 -0.35652494 -0.64997345
-0.59735632 -0.4963522 -0.65185738
-0.64387751 -0.39169341 -0.60986102
-0.61044645 0.47391742 -2.0607238
-0.77595997 0.51261902 -3.011539
-0.77782202 0.68771261 -3.0195236
-0.52893591 0.78884941 -0.8264637
-0.54348612 0.82870966 -0.80827904
-0.54132175 0.90871781 -0.80801409
-0.5672555 0.82845241 -0.7724331
-0.54365301 0.8687079 -0.80810243
-0.43959185 0.91042447 0.60932857
-0.54615498 0.70088243 0.97236162
-0.55100107 0.78143191 0.84279221
-0.53938389 0.74161392 0.81220084
-0.54349327 0.86142063 0.85287625
-0.62626219 0.5072971 -0.56661946
-0.59963894 0.54750049 -0.58738571
-0.62298822 0.58748627 -0.60641801
-0.60395288 0.70794243 -0.69162023
-0.5987978 0.38748175 -0.58309221
-0.6748085 -0.26795596 -1.7015325
-0.71434975 -0.26817036 -1.6876521
-0.75281239 -0.29847884 -1.6463943
-0.57807016 0.46838349 -0.76858139
-0.67574406 -0.35190988 -0.58610594
-0.53872395 -0.31053114 -0.81336039
-0.80190039 -0.58763683 -1.9433525
-0.785779 -0.64668906 -1.486335
-0.62288046 0.82766259 -0.64542687
-0.84026432 0.11924105 -2.3330853
-0.82415676 0.64626455 -2.9282265
-0.84947014 0.31915408 -2.3305163
-0.8667264 0.34058017 -2.2495875
-0.86931705 0.3987155 -2.3063865
-0.76940203 0.59787881 -2.8106806
-0.82787704 0.32669848 -2.9716892
-0.81384563 0.40690911 -2.9788117
-0.87575006 0.39753741 -2.2085934
-0.86626101 0.15843302 -2.281661
-0.82394552 0.1830081 -2.2128825
-0.82325506 0.27255309 -2.1718779
-0.76974344 0.23264655 -1.9236333
-0.82263565 0.31724095 -2.1438818
-0.25939509 0.80915678 3.1699791
-0.17912385 0.68943739 3.1644454
-0.4780874 0.62240601 0.68949264
-0.392755 0.08285252 0.4843424
-0.43350837 -0.20558415 0.64451593
-0.3631191 0.66382605 0.47554606
-0.40179297 0.66349435 0.51441103
-0.40807196 0.14358687 0.48490769
-0.47471234 0.14256327 0.65482002
-0.45170972 0.22287089 0.60683244
-0.44127509 0.38309157 0.5671261
-0.78275251 -0.78942412 -1.416882
-0.67982531 0.76956469 -0.56364715
-0.5583024 0.71991611 -0.528054
-0.70338345 0.82643658 -0.44251341
-0.68678093 0.7066834 -0.4836235
-0.6918335 0.78631055 -0.40306053
-0.83874846 -0.24033521 -3.0601678
-0.94520569 -1.2010205 -5.0630941
-0.90395403 -1.201066 -5.0295773
-0.9257431 -1.2144563 -4.2588754
-0.62672472 -0.37761045 -0.33023977
-0.52999544 0.2220062 0.72962207
-0.56129742 -0.43082398 -0.75795054
-0.6210413 0.38766998 -0.64735782
-0.63958931 0.37491482 -0.60674393
-0.60245323 0.39042681 -0.68801576
-0.5979948 0.31991893 -0.56839716
-0.64000082 0.30749989 -0.6270265
-0.56642008 0.62845623 -0.77331072
-0.5663414 0.65093422 -0.76821488
-0.52817488 0.66881883 -0.81949496
-0.46098134 0.7494173 -0.89153033
-0.54581785 0.78869927 -0.80836803
-0.50578594 0.90816909 -0.64915365
-0.50640774 0.90097737 0.98934108
-0.49219081 0.74216944 0.73051554
-0.62576056 0.3872996 -0.56714594
-0.6151886 0.050415114 -1.1696976
-0.5702405 0.38841712 -0.76919341
-0.81028605 0.60684907 -2.9692025
-0.86664677 0.16104364 -2.2916257
-0.75308657 0.68644154 -2.8903465
-0.86443281 0.47700614 -2.1530788
-0.87540865 0.35754186 -2.2090521
-0.86374855 0.39701301 -2.1539981
-0.29898259 0.76899976 3.1787243
-0.21749994 0.60929942 3.1680417
-0.44589278 0.042054966 0.60607153
-0.47470996 0.16170597 0.65515834
-0.40162608 0.62349415 0.51423544
-0.40067241 0.12285464 0.47729892
-0.67712498 0.22702196 -0.55353457
-0.64291525 0.30722487 -0.56689048
-0.67207384 -0.75209928 -0.53005737
-0.59639597 0.74699825 -0.46908104
-0.58684206 0.70711559 -0.48709184
-0.67806435 0.74654573 -0.44373128
-0.88161421 -1.1917136 -4.1403785
-0.54619646 -0.43229938 -0.32321608
-0.60202169 0.30791795 -0.68587923
-0.5690794 0.70842302 -0.76787466
-0.5431509 0.74870956 -0.80862993
-0.60539532 0.90801287 -0.7082324
-0.56767607 0.90846169 -0.77457929
-0.49202439 0.70216966 0.73033994
-0.2989082 0.56904614 3.1606946
-0.63793945 0.3122465 -0.56704265
-0.68505621 0.22704229 -0.56576681
-0.67808962 0.7068854 -0.52144754
-0.67051363 0.66692913 -0.52438182
-0.64908218 0.58719873 -0.56548822
-0.67731524 0.66681272 -0.5041334
-0.63690519 0.66693211 -0.49302828
-0.52860117 0.70885015 -0.82681471
-0.64089108 0.70739883 -0.60278571
-0.63629198 0.70683688 -0.47036704
-0.52868128 0.74883848 -0.82414085
0 0 0 1 0 0 0 1 0 0 0 1 0 0 0 0 0 642 1 0 0
