ply
format ascii 1.0
comment PCL generated
element vertex 301
property float x
property float y
property float z
element camera 1
property float view_px
property float view_py
property float view_pz
property float x_axisx
property float x_axisy
property float x_axisz
property float y_axisx
property float y_axisy
property float y_axisz
property float z_axisx
property float z_axisy
property float z_axisz
property float focal
property float scalex
property float scaley
property float centerx
property float centery
property int viewportx
property int viewporty
property float k1
property float k2
end_header
-11.073543 1.2487857 -3.9331293
-11.094707 1.2130383 -3.9293513
-11.090104 1.2109127 -3.9298303
-10.864664 1.2530277 -3.9583433
-10.841003 1.2516766 -3.9611359
-10.825115 1.2506567 -3.9630075
-10.742193 1.2519941 -3.9730051
-10.667043 1.2536632 -3.9820814
-10.587896 1.2439268 -3.9912426
-10.504927 1.2402701 -4.0010729
-10.421982 1.2391098 -4.0109868
-10.346732 1.2307873 -4.0197291
-10.256063 1.2342929 -4.0307317
-10.21654 1.2344198 -4.0354791
-10.06999 1.2241849 -4.052712
-9.7692947 0.78560472 -4.0736108
-9.8414421 0.58026075 -4.0578423
-9.985301 0.30600542 -4.0310807
-9.9885674 0.29723606 -4.030385
-9.984972 0.27854013 -4.0301695
-9.9456863 0.17829503 -4.0314126
-9.8740864 -0.041919217 -4.0323796
-9.9927311 -0.36098191 -4.007093
-9.9802914 -0.36841717 -4.0083284
-9.7094498 -0.083928302 -4.050683
-9.7079506 -0.068322435 -4.051403
-9.7046776 -0.019453689 -4.0534883
-9.6905365 0.038041212 -4.0571761
-9.6845188 0.061594129 -4.0587139
-9.7063084 0.11498544 -4.0579476
-9.7079887 0.11725253 -4.0578246
-9.7328568 0.15630074 -4.0561924
-9.7662735 0.41302967 -4.0610719
-9.7649841 0.42606199 -4.0616779
-9.8093262 0.58040422 -4.0617013
-9.7543249 0.77318716 -4.0749774
-9.4611549 1.2800051 -4.1277103
-9.6588564 1.2811773 -4.1040249
-9.7125559 1.2789339 -4.0975032
-9.7674294 1.272912 -4.0907092
-9.8069553 1.2727355 -4.0859594
-9.8349419 1.2744453 -4.0826602
-9.965064 1.272029 -4.0669608
-10.095093 1.2621214 -4.051013
-10.162695 1.2711457 -4.0432129
-10.174237 1.2692589 -4.0417624
-10.295612 1.2366623 -4.0260677
-10.378558 1.2378229 -4.0161533
-10.414234 1.241277 -4.011992
-10.497229 1.2474315 -4.0022449
-10.619774 1.2559571 -3.9878337
-10.68117 1.2554032 -3.9804463
-10.706616 1.2585312 -3.9775009
-10.730574 1.255245 -3.9745121
-10.818093 1.2526197 -3.963918
-10.88872 1.2597312 -3.9556885
-10.936038 1.2624321 -3.9501035
-10.971689 1.2633877 -3.945858
-10.979461 1.2637187 -3.944937
-11.054564 1.257055 -3.9356933
-11.067931 1.2530874 -3.9339516
-10.918312 -0.83516681 -3.8795953
-10.908327 -0.84512508 -3.8804488
-10.875653 -0.76615489 -3.8871045
-0.17808628 -1.2355537 -5.1546483
-0.171381 -1.2298512 -5.1556506
-0.23112631 -1.2369063 -5.1482363
-0.19155359 -1.2369763 -5.1529827
-5.4286094 1.2663795 -4.6111779
-5.5511274 1.2740819 -4.5967417
-5.4568505 1.275624 -4.608109
-5.2314262 0.41879788 -4.6054916
-5.1908984 0.47684214 -4.6123652
-5.2334476 0.67091501 -4.6139793
-5.2334862 0.67590785 -4.6141477
-5.2338672 0.7233355 -4.6157441
-5.269659 0.74752975 -4.6122866
-5.3104601 0.70728755 -4.6059966
-5.3666201 0.48469028 -4.5915489
-5.4072332 0.42625397 -4.5846515
-5.9594626 0.2546823 -4.5124383
-5.9894271 0.26507947 -4.5092025
-6.0288863 0.25987893 -4.5042868
-6.0583239 0.25652879 -4.500638
-6.4579434 0.57396829 -4.4636726
-6.4943838 0.69062412 -4.4633389
-6.5323052 0.76574373 -4.4613891
-6.5660257 0.77532315 -4.457674
-6.6200666 0.6957134 -4.448432
-6.6430678 0.61492074 -4.442874
-6.64114 0.4951719 -4.4389586
-6.6425242 0.37410963 -4.4346008
-6.6419606 0.33416134 -4.4332848
-6.6270871 0.19404796 -4.4302182
-6.5544329 -0.0030255914 -4.4321127
-6.4514556 -0.083030716 -4.4417005
-6.4363914 -0.10041603 -4.4429064
-6.3701963 -0.24232891 -4.4459362
-6.6417861 -0.72787678 -4.3965297
-6.7159748 -0.72334266 -4.3877835
-6.9442472 -0.57143414 -4.3656492
-6.9773145 -0.48876569 -4.3645434
-6.9959536 -0.48787144 -4.3623376
-7.3071995 -0.36984333 -4.3290725
-7.5868168 0.016682714 -4.3089004
-7.6828361 0.14607058 -4.3018579
-7.687108 0.16028491 -4.3018374
-7.7385406 0.31984124 -4.3011904
-7.8115702 0.55889058 -4.300704
-7.8319931 0.63883758 -4.3010211
-7.8775315 0.79691768 -4.3010302
-7.8855057 0.83681715 -4.301455
-7.8888049 0.87586653 -4.3024111
-7.963007 1.0760142 -4.300437
-8.2682991 1.2705234 -4.270535
-8.2817116 1.2707359 -4.2689323
-8.3144379 1.2702153 -4.264987
-8.3935394 1.2721816 -4.2555623
-8.4360714 1.278981 -4.2506933
-8.3927069 1.2806201 -4.2559543
-8.3136559 1.2809731 -4.2654533
-8.2741289 1.28115 -4.2702031
-8.234602 1.2813261 -4.2749529
-8.195075 1.281502 -4.2797027
-8.1167717 1.2715397 -4.2887545
-8.0214767 1.267567 -4.3000531
-7.6415224 1.2689943 -4.3457003
-7.504365 1.2759047 -4.3623996
-7.50351 1.2728 -4.3623948
-7.7838602 0.79558384 -4.3122253
-7.7555442 0.76222849 -4.3144684
-7.7411342 0.7167207 -4.3146219
-7.6962204 0.55591869 -4.3144441
-7.601758 0.40386695 -4.3205147
-7.5718918 0.37665385 -4.3231568
-7.5569115 0.36424661 -4.3245249
-7.5350528 0.28299707 -4.3243346
-7.5096893 0.17490831 -4.3236356
-6.2468915 -0.76770282 -4.4425411
-6.6879287 -0.99378479 -4.3817844
-7.0044184 -0.97826791 -4.3443403
-7.2758956 -1.0155445 -4.3104701
-7.7422347 -1.0152757 -4.2545147
-7.7455435 -1.0165967 -4.2540717
-7.5724392 -0.81948721 -4.281671
-7.6602077 -0.47132114 -4.2831945
-7.6610165 -0.4640989 -4.2833476
-4.2790842 1.2815824 -4.7496572
-4.1555805 1.2815443 -4.7644773
-4.1002679 1.0306218 -4.7624264
-4.3726501 1.2630385 -4.7377863
-4.3927088 1.2816154 -4.7360225
-4.352942 1.2817115 -4.740798
-4.5785351 -0.19510111 -4.6625862
-4.9410348 -0.29721004 -4.6155472
-5.1368995 -0.23527095 -4.5941868
-5.1634727 -0.2340602 -4.5910397
-5.1698604 -0.23364857 -4.5902872
-5.5676823 -0.55984032 -4.53125
-5.5226469 -0.71806419 -4.5311756
-5.5625739 -0.7586329 -4.5249791
-5.7584219 -0.83946919 -4.4986768
-4.5348082 -0.2056886 -4.6674671
-4.2108545 -0.38828459 -4.7000213
-4.2083263 -0.3932676 -4.7001524
-4.1394043 -0.57547188 -4.7021141
-4.1400156 -0.6735878 -4.6986432
-4.1370015 -0.77516103 -4.6954875
-4.0730801 -0.75246847 -4.7039447
-4.0588074 -0.70748711 -4.7072148
-3.9424605 -0.52734911 -4.7274156
-4.0086594 -0.43098828 -4.7228079
-4.0995545 -0.26406196 -4.71768
-3.9887512 0.036630571 -4.7413898
-3.9881079 0.046943985 -4.7418237
-4.0685501 0.35776031 -4.7429333
-4.0976257 0.52267778 -4.7451544
-4.0440207 0.68725228 -4.7572865
-1.8669572 -1.1836771 -4.9537659
-1.8636451 -1.1844156 -4.9541378
-1.7877727 -1.1858112 -4.9631948
-1.7448554 -1.1888659 -4.9682398
-1.6920633 -1.1891428 -4.9745655
-1.6129107 -1.1887811 -4.984077
-1.569993 -1.1918352 -4.9891219
-1.4742579 -1.2010976 -5.0002899
-1.3454723 -1.2127566 -5.0153418
-1.2695699 -1.2166481 -5.0243158
-1.2234015 -1.2154492 -5.0298982
-1.1476502 -1.2068605 -5.0392861
-1.2138019 -1.1902092 -5.0319242
-1.217114 -1.1894703 -5.0315523
-1.2912245 -1.1971798 -5.0223913
-1.4183993 -1.1821464 -5.0076499
-1.4514141 -1.1788137 -5.0038033
-1.5405021 -1.1769586 -4.993176
-1.589951 -1.1799155 -4.9871392
-1.7383542 -1.1803584 -4.9693146
-1.810976 -1.174709 -4.9607949
-9.0165863 -1.0487494 -4.1004224
-9.0959673 -1.0216358 -4.091835
-9.1344242 -0.99542677 -4.0881276
-8.9204264 -0.59580326 -4.1276469
-8.3963642 -0.70964837 -4.1865969
-8.3596277 -0.75027525 -4.1895986
-8.3589535 -0.71247303 -4.1909885
-0.6546402 -1.2326858 -5.0975571
-0.81754971 -1.2283367 -5.0781574
-0.75528669 -1.1968247 -5.0867205
-0.70252609 -1.1946074 -5.0931292
-0.66301155 -1.1894345 -5.0980501
-0.62012291 -1.1899927 -5.103178
-0.58051634 -1.1923078 -5.107851
-0.53752279 -1.2033186 -5.1126294
-0.43524075 -1.2061018 -5.1248074
-0.39566422 -1.2059211 -5.1295633
-4.6938467 0.0065792352 -4.6557317
-4.7101879 0.0058706105 -4.6537461
-4.9963264 -0.22706285 -4.611341
-5.0835686 -0.22335911 -4.6009994
-5.1788945 -0.22815546 -4.5893931
-5.285481 0.33790603 -4.5962038
-4.3916607 0.17235856 -4.6977372
-4.1878185 0.37293148 -4.7291451
-4.111197 0.52214485 -4.7435074
-4.0562916 0.67727101 -4.7554684
-2.895381 -0.22257227 -4.8636274
-2.8973665 -0.2625201 -4.8620062
-2.8945241 -0.29068714 -4.8613715
-2.8931119 -0.34063786 -4.8598113
-2.8820837 -0.42353597 -4.8582644
-2.8450491 -0.42340496 -4.8627133
-2.7841151 -0.35238621 -4.8724852
-2.7702944 -0.33659309 -4.8746905
-2.7766905 -0.25042707 -4.8769069
-2.8028493 -0.10233092 -4.8788958
-2.7402718 0.10984932 -4.8937531
-2.7014208 0.17411898 -4.900641
-2.7002347 0.19067305 -4.9013567
-2.7674785 0.24944742 -4.8953218
-2.8200152 0.57048345 -4.9001341
-2.8321295 0.6168344 -4.9002852
-2.8317654 0.58688217 -4.8992915
-2.8253727 0.57023907 -4.8994827
-2.8095279 0.24926043 -4.8902693
-2.8443727 0.13104713 -4.8819942
-2.8740587 0.057102144 -4.8758707
-2.897819 -0.022885039 -4.8702497
-2.9180245 -0.10414809 -4.8650107
-2.9000344 -0.17352983 -4.8647676
-0.33966446 -1.2493629 -5.1347795
-0.27405739 -1.2384413 -5.1430311
-4.4386191 0.12151025 -4.690341
-4.4435196 0.11651833 -4.68958
-0.41206026 -1.2510095 -5.1260343
-0.46517134 -1.2398788 -5.1200461
-0.49465179 -1.2374958 -5.1165905
-0.51150608 -1.2355278 -5.1146359
-9.1052475 1.2749002 -4.1702456
-9.1447802 1.2746361 -4.1654921
-9.1591225 1.2764119 -4.1638322
-9.2238827 1.2766019 -4.1560674
-9.1843853 1.279364 -4.160903
-9.1157579 1.2780511 -4.1690931
-9.0657139 1.275166 -4.1749992
-9.0124969 1.2702383 -4.1812148
-8.9470072 1.2684711 -4.189013
-8.9218426 1.2674854 -4.191999
-8.8663597 1.2637923 -4.1985292
-8.8470764 1.2636968 -4.2008405
-8.7859879 1.2656258 -4.2082381
-8.7521944 1.2700785 -4.2124481
-8.6702728 1.2703257 -4.2222877
-8.6307764 1.2730877 -4.2271233
-8.5517082 1.2736174 -4.2366304
-8.5122108 1.2763803 -4.241466
-8.6472998 0.3423686 -4.1929116
-8.6457996 0.35798818 -4.1936326
-8.7828274 0.30966336 -4.1755147
-8.7848244 0.053800382 -4.1664147
-8.9862518 -0.39741626 -4.1266174
-8.7318239 -0.01282832 -4.1704683
-8.7147675 0.0047746897 -4.1731248
-8.6804075 0.069529757 -4.1794906
-8.689661 0.12610017 -4.1803389
-8.9218102 -0.58115709 -4.1279883
-8.9424229 -0.51602042 -4.1277699
-8.9503317 -0.47883555 -4.1281085
-8.9903297 -0.39893284 -4.1260753
-8.961628 -0.47668317 -4.1268272
-9.0405121 1.2744454 -4.1779985
-8.9866114 1.2731996 -4.1844239
-8.8900795 1.2722304 -4.1959748
-8.788909 1.2720276 -4.2081094
-8.7494125 1.2747899 -4.212945
-8.7127876 1.2802427 -4.2175288
-8.6732311 1.2779214 -4.2221956
-8.6590443 1.2771767 -4.2238727
-8.5941772 1.2782747 -4.2316952
-8.5546522 1.2784518 -4.2364445
-8.5112877 1.2800897 -4.2417054
0 0 0 1 0 0 0 1 0 0 0 1 0 0 0 0 0 301 1 0 0
