ply
format ascii 1.0
comment PCL generated
element vertex 1488
property float x
property float y
property float z
element camera 0
property float view_px
property float view_py
property float view_pz
property float x_axisx
property float x_axisy
property float x_axisz
property float y_axisx
property float y_axisy
property float y_axisz
property float z_axisx
property float z_axisy
property float z_axisz
property float focal
property float scalex
property float scaley
property float centerx
property float centery
property int viewportx
property int viewporty
property float k1
property float k2
end_header
-6.7182674 1.3305706 5.0602274
-5.6752977 1.3486737 5.0664062
-6.8781619 1.3521565 5.0691996
-6.5974531 1.3536737 5.0693083
-5.6354246 1.3539063 5.0636005
-6.2367954 1.3606395 5.0662708
-6.157053 1.371104 5.0606604
-4.9357486 -1.3966786 5.0755587
-4.7957563 -1.3703655 5.0792265
-4.9362545 -1.2766672 5.0738182
-4.786284 -1.2703154 5.0789146
-4.7970386 -1.1503614 5.0775919
-4.7579155 -1.0301433 5.0727587
-4.7980175 -0.99035585 5.0757227
-4.7585182 -0.91014636 5.0732279
-4.7658501 -0.87020504 5.0788975
-4.7436066 -0.83008611 5.0774746
-4.7599511 -0.59016204 5.0769711
-4.8510108 -0.47642177 5.0753241
-4.8012404 -0.43626118 5.0721397
-4.7207794 -0.40995902 5.0773611
-4.7788434 -0.35620761 5.0735893
-4.7212563 -0.34995475 5.0751009
-4.7766318 -0.31618556 5.0711746
-4.721633 -0.30994678 5.0727634
-4.7283978 -0.23628077 5.0709095
-4.7342539 -0.21002865 5.0790195
-9.2870617 -0.18150553 5.0772572
-4.7319608 -0.17001593 5.0790005
-4.7288294 -0.15628359 5.0713644
-4.7225633 -0.089956015 5.0761185
-4.7317567 -0.076300472 5.0719967
-4.7319727 -0.036302656 5.0722246
-4.7274175 0.043723673 5.0723248
-4.727634 0.083722264 5.0725536
-4.7235684 0.11003909 5.0768986
-9.369688 0.21798328 5.079752
-4.7493129 0.40359673 5.0757895
-4.7476311 0.55360639 5.0764656
-4.7261295 0.55004823 5.0736303
-4.7431293 0.64363337 5.0766239
-4.7263827 0.67002726 5.0790863
-4.7090435 0.76384544 5.0723314
-4.7092595 0.80384326 5.0725594
-9.4093494 0.81780469 5.0701799
-9.4144154 0.83027208 5.0705853
-4.7092981 0.84383023 5.0752811
-4.7096915 0.8838414 5.0730143
-4.7095547 0.92381322 5.0782299
-4.6882401 0.95025146 5.0723848
-4.7097702 0.96381211 5.0784578
-4.6882639 0.99024189 5.075036
-4.7099857 1.0038118 5.0786839
-4.6489663 1.1104511 5.0726957
-9.4412575 1.1375986 5.0738344
-5.7550802 1.3457106 5.0720606
-6.8776312 1.3521171 5.0766802
-5.9954667 1.3968704 5.0793905
-4.7955322 -1.3103935 5.0869417
-4.7961097 -1.2303864 5.0847616
-4.9761481 -1.1568272 5.0823078
-4.7970629 -1.1103714 5.0802422
-4.7974648 -1.0303733 5.080555
-9.4013557 -1.0022857 5.0863876
-4.8964887 -0.91662341 5.0858021
-4.7982941 -0.83038664 5.0838299
-4.7988715 -0.75037873 5.0816488
-4.7915912 -0.71033967 5.0812778
-4.7793241 -0.67027473 5.0805569
-4.8180008 -0.316412 5.0890598
-4.763947 0.30979773 5.0879707
-4.7641482 0.34979597 5.0881262
-4.7645497 0.42979565 5.088438
-4.7524328 0.42987934 5.0825748
-4.764751 0.46979389 5.0885954
-4.7651267 0.50980139 5.086257
-4.7651539 0.54979277 5.0889082
-4.726809 0.79001689 5.0820494
-4.7197289 0.87005413 5.0818357
-4.7098484 1.0437832 5.0838995
-4.6882153 1.0502219 5.0802565
-4.7100649 1.083783 5.0841265
-7.1172552 1.3282536 5.0885706
-6.3555784 1.3548789 5.0872145
-6.3156815 1.3551098 5.0843801
-5.8748446 1.3575141 5.0806351
-6.5560265 1.3662853 5.0889883
-6.4363031 1.3619817 5.0804577
-5.0549488 -1.3971089 5.0912867
-5.0154266 -1.1970009 5.092289
-9.3606701 -0.96209329 5.0988078
-4.9358182 -0.87681276 5.0987768
-6.3070626 -0.84058332 5.0932379
-6.2996359 -0.82055998 5.0928478
-4.896307 -0.79667109 5.0940371
-9.3571663 -0.72206867 5.0996618
-4.7985721 -0.67041522 5.0919352
-4.7985983 -0.63042617 5.0945873
-4.7598033 -0.4102141 5.092638
-4.7604799 -0.31021163 5.0905352
-9.2732182 -0.18151569 5.0963535
-4.761385 -0.13021097 5.091238
-4.7614102 -0.090221286 5.0938892
-4.7619872 -0.010213256 5.0917072
-4.7621889 0.029784977 5.0918627
-9.3678398 0.057930738 5.091424
-4.7624164 0.10977575 5.0946703
-4.7627921 0.14978334 5.0923328
-4.7841806 0.16329411 5.0945377
-9.3685837 0.17792764 5.0920219
-4.7629924 0.18978205 5.0924883
-4.7631941 0.2297816 5.0926447
-4.7846131 0.243292 5.0949926
-4.7869911 0.68327892 5.0974951
-4.7654305 0.70976186 5.0970144
-4.7487831 0.96351457 5.0937595
-4.7490382 1.0434994 5.0967083
-4.727715 1.1099744 5.0932751
-7.157155 1.3280208 5.0914049
-6.6806426 1.3530614 5.0977745
-6.6357698 1.3558218 5.0946007
-5.0142956 -1.3570577 5.1012602
-9.4083233 -1.3224076 5.1004419
-5.0144072 -1.3170588 5.10151
-9.4085722 -1.2824088 5.1006422
-9.3989182 -1.2023579 5.102849
-9.4020786 -1.122366 5.1009245
-4.9753284 -0.95695424 5.1035175
-4.7984724 -0.55045331 5.1023808
-9.3633928 -0.52210873 5.1010008
-4.7988257 -0.41046998 5.1079159
-4.7995038 -0.31046784 5.1058121
-4.8004084 -0.13046694 5.1065159
-4.8004327 -0.090475827 5.1091652
-4.8006339 -0.050477356 5.1093216
-9.3565121 -0.022056997 5.102809
-4.801012 -0.01046896 5.1069841
-4.8010359 0.029520988 5.1096354
-4.8014135 0.069528967 5.107296
-9.3597488 0.097922593 5.1035795
-4.8016143 0.10952774 5.1074533
-4.801991 0.1495361 5.1051159
-4.8020167 0.18952605 5.1077662
-9.357996 0.21793452 5.1040058
-4.8022165 0.22952625 5.1079226
-4.8024182 0.26952454 5.108079
-9.368639 0.29787806 5.1025982
-4.8029695 0.30954227 5.1032467
-9.3637266 0.33789757 5.104948
-4.8031707 0.3495402 5.103404
-9.3939056 0.37770078 5.1072044
-4.8031974 0.38953099 5.1060534
-4.8033972 0.42952958 5.1062098
-9.3744469 0.45782867 5.1062317
-4.8035994 0.469529 5.1063662
-4.825099 0.48299953 5.1091661
-9.3821774 0.49777934 5.106946
-4.8037996 0.50952899 5.1065226
-4.8039999 0.54952705 5.106679
-4.8042011 0.58952665 5.1068344
-4.8042274 0.62951672 5.1094847
-4.8044271 0.66951585 5.109642
-9.3759327 0.69782162 5.1074295
-4.8046284 0.70951498 5.1097975
-9.371192 0.73785257 5.1072855
-4.8048296 0.7495147 5.1099529
-4.7872462 0.76326239 5.1004438
-4.7881889 1.0032282 5.1067963
-4.7489009 1.0834711 5.101923
-4.7667379 1.1097188 5.108552
-6.8350344 1.3121647 5.1085291
-6.7553592 1.3351272 5.1029882
-6.1941161 1.3706602 5.1033926
-4.9176507 -0.63688415 5.1190338
-4.8956585 -0.59678209 5.112751
-4.8961024 -0.43678695 5.1137562
-4.7987494 -0.39048353 5.110487
-4.798851 -0.37047899 5.1105661
-4.8836231 -0.31677943 5.1186399
-4.8498135 -0.31721491 5.1192102
-4.8429804 -0.19717577 5.1193619
-4.8219733 0.0029760599 5.1139183
-4.8234091 0.20299503 5.1100664
-4.82622 0.72297943 5.1130247
-4.8048816 0.82949603 5.1152534
-4.8266912 0.84296227 5.1162004
-4.8050823 0.86949503 5.1154089
-4.8052821 0.90949404 5.1155663
-9.4148283 0.93756962 5.1111984
-4.8054829 0.94949198 5.1157236
-4.8056855 0.98949254 5.1158791
-4.8057103 1.0294827 5.1185284
-9.4134007 1.137568 5.1145177
-6.9547706 1.3514552 5.1197529
-6.3937054 1.3545147 5.1149845
-5.8320827 1.3525356 5.1176701
-5.0834208 -1.1174086 5.1275301
-5.0535893 -1.0823141 5.1256876
-4.9746819 -0.75706571 5.1222315
-4.9448638 -0.71697056 5.1204214
-4.935442 -0.51694244 5.1209908
-4.9754553 -0.47832221 5.1239824
-4.8586469 -0.39732352 5.1294394
-4.8957491 -0.31685048 5.124486
-4.8506775 -0.15721959 5.120121
-4.849699 0.12278518 5.1215363
-4.862422 0.20269766 5.125371
-4.8582602 0.32273564 5.1232042
-4.84448 1.0028169 5.1258335
-9.411972 1.017526 5.1238966
-4.8272409 1.042917 5.1248198
-4.8272953 1.0529165 5.124876
-4.8199763 1.0829582 5.1245155
-7.2088423 1.3161834 5.121563
-7.2215285 1.3511003 5.1225948
-7.0472136 1.3509316 5.1238136
-7.0347443 1.351005 5.1229286
-7.0247698 1.3510625 5.12222
-6.553124 1.3535749 5.1288157
-5.9918141 1.3766063 5.1291494
-5.912056 1.3845698 5.1235228
-9.3285103 -1.2820863 5.135231
-5.1727638 -1.2776932 5.1327085
-9.3761463 -1.2423975 5.138689
-5.1728749 -1.2376932 5.1329603
-5.1337333 -0.9625721 5.1319389
-5.775362 -0.82188225 5.1369095
-9.3489399 -0.80221522 5.1388254
-5.0137281 -0.75726902 5.1374502
-4.9738727 -0.67715782 5.1376991
-4.9744892 -0.51714665 5.1362085
-4.8650546 0.72266769 5.1308212
-4.8657036 0.84266508 5.1315031
-4.8662138 1.0026331 5.1374006
-7.1543183 1.3278096 5.1313038
-6.6329746 1.3631099 5.1345415
-6.1114554 1.3659122 5.1375952
-6.0316982 1.373875 5.1319695
-5.2922306 -1.3680742 5.1403894
-5.2918525 -1.318121 5.1481867
-5.2119813 -1.2778817 5.1454334
-9.3896046 -1.0824839 5.1403437
-9.3925934 -1.0025028 5.140913
-9.3856077 -0.92245638 5.1407986
-9.381609 -0.76242924 5.1412535
-5.0143332 -0.4772912 5.1417036
-9.345295 -0.18218553 5.1414032
-4.8993511 -0.11761671 5.1438408
-9.3385563 -0.062140346 5.1414871
-9.3405361 0.25784954 5.1430817
-9.3457718 0.29781595 5.1436253
-9.3562422 0.37774703 5.1447096
-4.90277 0.48237708 5.1447601
-9.3599739 0.57772517 5.1458778
-9.3627157 0.61770773 5.1462498
-9.3687572 0.78766906 5.1474409
-9.3839054 0.81757152 5.1486187
-4.9048934 0.84237933 5.1443119
-4.905798 1.0423597 5.1479445
-9.3759117 1.1376261 5.1495295
-6.2709703 1.349985 5.1488457
-5.6296873 1.340983 5.1433258
-7.127018 1.3515553 5.1486731
-6.7526588 1.3599149 5.1430302
-6.4316559 1.3541369 5.1452503
-5.3311319 -1.3582944 5.158165
-9.3147449 -1.2421081 5.1570206
-5.2118611 -1.1979136 5.1509256
-9.3155823 -1.1620879 5.1524305
-5.0130296 -0.63736355 5.1531677
-4.9737296 -0.35725719 5.1546717
-4.9738412 -0.31725788 5.1549225
-9.2405796 -0.30162817 5.1587143
-9.2409992 -0.26161796 5.1564207
-9.2417412 -0.14162204 5.1570177
-9.4080849 1.0974152 5.1515579
-6.9394264 1.3113306 5.1560459
-6.9120364 1.3189888 5.1541405
-6.290946 1.35487 5.1502924
-5.8292742 1.3573231 5.1575966
-9.3543053 -1.2423917 5.164752
-9.3553925 -1.1223732 5.1603632
-5.2511287 -1.1181195 5.166646
-9.3153915 -1.0821365 5.1628065
-5.0521979 -0.71753478 5.1628962
-5.0544591 -0.67757487 5.1683083
-5.0570631 -0.6375832 5.1687317
-5.0521588 -0.60756862 5.1685762
-9.3188553 -0.52215362 5.1655989
-5.0525813 -0.51755464 5.166647
-9.2393227 -0.42165861 5.1655979
-4.9512792 -0.39803275 5.1660948
-4.9366727 -0.39791846 5.1600447
-9.2395687 -0.38165921 5.1657972
-5.0079594 -0.35743031 5.1670532
-4.9589767 -0.35807756 5.166853
-9.2399893 -0.34164906 5.1635027
-5.0055761 -0.31742325 5.1671333
-4.9571314 -0.23806706 5.1673594
-4.954854 -0.19805336 5.1674099
-4.9577808 -0.11807045 5.1680422
-4.9381862 -0.11792791 5.1616364
-4.9384403 -0.03794381 5.1645851
-4.9396992 0.16206363 5.1632299
-4.9595108 0.20192042 5.1698618
-4.940093 0.20207533 5.1609631
-4.9419994 0.52207804 5.1602888
-4.982408 0.68181491 5.1690216
-9.3675709 0.81757712 5.1675434
-4.9445558 0.96207738 5.1602983
-4.9447713 1.0020773 5.1605253
-7.2860928 1.3454788 5.1671047
-7.0318551 1.3407933 5.1627703
-7.273654 1.3505597 5.1662722
-7.2462955 1.3632389 5.1644478
-5.9491611 1.3916266 5.1662998
-9.3005772 -1.3221045 5.1732216
-5.3701177 -1.3185148 5.1761293
-5.2501588 -1.1581954 5.1788645
-5.1705904 -1.0704411 5.1739168
-5.7726192 -0.81962538 5.1768293
-5.0916967 -0.74019367 5.1704931
-5.0961776 -0.47396126 5.1724224
-4.9756846 -0.39821759 5.1753473
-9.31779 -0.38219503 5.176188
-9.2315731 -0.38164505 5.1727657
-9.2344398 -0.32166338 5.1732368
-5.012888 -0.31746179 5.1701422
-4.9765501 -0.23822114 5.1762571
-9.3178568 -0.14220574 5.1797924
-9.2401972 -0.1417233 5.1794653
-9.2362947 -0.02167213 5.1747322
-9.2414846 0.010794669 5.1752367
-4.9799309 0.32178757 5.1744547
-4.9995098 0.68168688 5.1752481
-4.9924612 0.761729 5.1751709
-4.9858451 0.92176759 5.1755505
-7.1515107 1.332598 5.1712303
-7.1915579 1.3598655 5.174221
-6.5902133 1.3581307 5.1715775
-5.8681102 1.3570114 5.1753941
-5.4091129 -1.3987011 5.1883526
-5.3697343 -1.2085775 5.1867971
-5.289609 -1.1983528 5.1863499
-5.8972673 -0.84002507 5.1852922
-5.0909505 -0.63778657 5.186101
-5.1316438 -0.47788796 5.184866
-5.0519333 -0.31766558 5.1853619
-9.3258343 -0.062258065 5.180707
-9.3490219 0.057591289 5.182848
-4.9783177 0.12175319 5.1807985
-9.3397894 0.17765269 5.1827612
-9.3440161 0.4576281 5.1843271
-9.3392773 0.49765977 5.1841841
-5.0203786 0.52150917 5.1859074
-9.3474998 0.61760747 5.185297
-9.3352766 0.65768731 5.184639
-9.3455009 0.69762123 5.1855249
-5.0220699 0.80151391 5.1850061
-9.3744221 0.93743396 5.1886082
-9.3873882 1.0173503 5.1898642
-5.6667356 1.3380395 5.1860456
-5.6268649 1.3432715 5.183239
-6.5492253 1.3532828 5.1836767
-6.1883507 1.3527378 5.1830912
-6.7897358 1.3619715 5.1857777
-5.4088192 -1.3187484 5.1963358
-9.2734079 -1.0020497 5.1978722
-6.2526298 -0.84105432 5.1922293
-5.1702561 -0.75805557 5.1933384
-5.0146985 -0.39851493 5.19065
-5.0181575 0.24146572 5.1942902
-5.0614767 0.84122705 5.1980429
-6.3479328 1.3493108 5.1944151
-5.7465606 1.3425759 5.1917429
-7.1237741 1.3538388 5.1960735
-6.8695331 1.3615086 5.1914473
-9.2705688 -1.3220962 5.2087469
-5.4487753 -1.2388934 5.2020817
-5.9313259 -0.84021294 5.2001677
-9.2352924 -0.60184669 5.2070999
-5.1300454 -0.55800742 5.2043161
-5.05371 -0.39881197 5.2059526
-5.0547915 -0.19881871 5.2070904
-5.0550084 -0.15882027 5.2073174
-5.055223 -0.11882186 5.2075453
-5.0571313 0.2011815 5.2068701
-5.0586061 0.44118747 5.2057419
-5.061554 0.92119825 5.2034845
-8.966259 1.1199023 5.2014589
-9.0337219 1.1394608 5.2061892
-7.3232684 1.3475356 5.2097673
-7.2035074 1.3408178 5.201498
-6.5474253 1.3481512 5.2085848
-6.4676151 1.3461154 5.2029028
-7.0287189 1.3505541 5.2077141
-6.5624142 1.3530635 5.2096767
-5.9063592 1.3791469 5.2032928
-5.4876595 -1.3590804 5.2140522
-5.4875374 -1.2791121 5.2195425
-9.2738819 -1.1621288 5.2122097
-9.2619057 -1.0820498 5.211751
-9.2828503 -0.9221853 5.2139206
-9.2858391 -0.84220451 5.2144918
-5.9705434 -0.84040141 5.2128925
-5.1987491 -0.71828818 5.2180958
-9.234376 -0.69436592 5.2116251
-9.2344551 -0.6818673 5.211688
-9.2347164 -0.63936806 5.2119007
-5.1690416 -0.6381942 5.2165375
-9.2302074 -0.56183809 5.2119436
-9.2980423 -0.48228091 5.2169724
-9.3009071 -0.42229834 5.2174444
-5.1324091 -0.3580811 5.2157192
-5.130197 -0.31805906 5.2133045
-9.301651 -0.30230156 5.2180433
-5.0796285 -0.11900538 5.2167978
-9.300396 -0.10229185 5.2188683
-9.3083715 -0.022343308 5.2197819
-9.3199291 0.17760757 5.2164764
-5.0966172 0.25589594 5.2199936
-5.097578 0.40090367 5.2183237
-5.097795 0.44090202 5.2185507
-5.0984049 0.52091408 5.2165127
-6.6272645 1.3551878 5.2142973
-6.1058931 1.3854882 5.2175055
-5.4878702 -1.1591158 5.2202969
-5.2485123 -0.76094818 5.2212667
-5.2093353 -0.49832633 5.2201672
-5.1692429 -0.31826377 5.2285233
-9.2366142 -0.22192599 5.223959
-5.0959277 0.1608853 5.2219458
-5.0969691 0.32089379 5.2203627
-9.315588 0.33761355 5.221921
-5.0971847 0.36089262 5.2205906
-9.3211336 0.42757711 5.2227116
-9.3203106 0.69758582 5.2238874
-9.3332748 0.77750123 5.2251434
-5.1297035 0.84070277 5.2254448
-9.346241 0.85741663 5.2263994
-5.1249337 0.88073111 5.2253189
-5.1101875 0.9208163 5.2244835
-9.3679276 1.1372776 5.2291679
-8.9650097 1.1398095 5.2215118
-7.3222542 1.3499672 5.2247438
-6.2652588 1.342063 5.2286024
-5.6639409 1.3453279 5.2259865
-5.5286846 -1.3593382 5.2369261
-6.0092664 -0.83313513 5.2331476
-6.0491929 -0.825764 5.2359428
-5.2873931 -0.75866759 5.2389946
-5.2085929 -0.51838595 5.2300158
-5.1317363 -0.39940846 5.236558
-5.1323457 -0.31939787 5.234519
-5.1332498 -0.11941719 5.2381506
-5.1351557 0.20058623 5.2374754
-5.1395402 0.88061702 5.231369
-9.3648415 1.097273 5.2337847
-9.3647461 1.1372483 5.2389717
-7.1209993 1.3486573 5.2359533
-6.3849678 1.3438673 5.2371187
-5.7836518 1.3471326 5.2345037
-5.823782 1.3569131 5.2349005
-6.9066362 1.3685638 5.2342224
-6.866724 1.3662965 5.2313738
-9.2546883 -1.402205 5.2498903
-5.5671229 -0.98946631 5.241827
-5.5670347 -0.95948172 5.2445087
-6.1688318 -0.85364795 5.2440157
-6.1290731 -0.80102074 5.2415972
-5.2470741 -0.59861875 5.2497206
-5.2876563 -0.47871944 5.2482357
-5.2077231 -0.3984949 5.248229
-5.2081175 -0.31848294 5.2462368
-5.1759977 0.44031969 5.2466631
-9.3198519 0.49746141 5.2480021
-5.1768241 0.56032908 5.2448511
-9.3205185 0.57746959 5.2459059
-5.1784754 0.80034781 5.2412291
-9.3637362 1.0572178 5.2460556
-7.2406816 1.3428757 5.2441597
-6.5445905 1.3479404 5.2484837
-6.5046916 1.3481721 5.2456503
-7.3205538 1.3523537 5.2496967
-7.0263596 1.3728696 5.242753
-5.9833341 1.3809724 5.2488737
-9.2629128 -1.2822574 5.2510033
-9.2539253 -1.1221972 5.2511148
-9.2599049 -0.96223485 5.2522554
-9.3101082 -0.88257575 5.2585773
-9.2307186 -0.84204352 5.2507954
-6.2636418 -0.84145212 5.2506218
-6.2889438 -0.71153522 5.2531576
-5.2864733 -0.7187584 5.2542105
-9.224226 -0.68200076 5.2510796
-9.3116722 -0.64382684 5.258522
-5.2473354 -0.31867149 5.2589617
-9.2819424 -0.22237241 5.2571468
-9.2849331 -0.14239118 5.2577171
-9.2936516 0.057553202 5.2592287
-5.2175274 0.84003615 5.2592525
-7.2257042 1.344211 5.2567673
-7.1858063 1.3444433 5.253933
-6.5844884 1.3477081 5.2513189
-6.7042522 1.3595124 5.2598925
-6.604466 1.3525912 5.2527637
-7.3605828 1.372092 5.2525406
-5.3033562 -0.67887741 5.2656403
-5.2934909 -0.63884604 5.2652035
-5.2861805 -0.63880718 5.2621946
-5.3013053 -0.51887274 5.2664738
-5.3388281 -0.478993 5.2693014
-5.326407 -0.46145329 5.2685518
-5.209939 -0.39999092 5.2646694
-5.2543621 -0.35872382 5.2642145
-5.2594609 -0.3187409 5.2648077
-5.221426 -0.12005764 5.2669706
-5.212966 0.159991 5.2678537
-9.301877 0.17750069 5.2603416
-9.3185425 0.45239422 5.262742
-5.2154422 0.52001929 5.2624216
-5.2162685 0.64002991 5.2606087
-5.2163076 0.68001401 5.2633295
-5.2165236 0.7200141 5.2635584
-5.216917 0.76002538 5.2612915
-9.3130722 0.77743268 5.2638474
-9.3218775 0.81736284 5.2671418
-9.3367577 0.97728002 5.2663889
-5.4991784 1.0784847 5.2654953
-9.3377476 1.1372747 5.2671862
-5.6211529 1.3353486 5.2629948
-6.7441115 1.3517804 5.2626829
-6.142848 1.3650459 5.2601261
-5.6040492 -1.3197689 5.2724304
-9.2350121 0.017861247 5.2700491
-5.2529807 0.27971622 5.2788515
-5.2475443 0.55978978 5.2724323
-6.8638201 1.3535848 5.2712011
-7.1183624 1.3659754 5.2759457
-9.2392244 -1.442304 5.2887392
-9.2369785 -1.4022893 5.2887669
-5.6456499 -1.3599641 5.2850761
-9.2474499 -1.3223566 5.2898502
-5.6109552 -1.2798543 5.2831745
-5.6034126 -1.2398469 5.2854033
-5.6161661 -1.1998729 5.2840195
-5.6339564 -1.0799311 5.2859764
-6.2059813 -0.85651827 5.2866535
-9.2155037 -0.84214509 5.2898436
-5.4045315 -0.75927949 5.2846518
-6.2063551 -0.7215215 5.2875023
-5.3643942 -0.71918273 5.2871428
-5.3654041 -0.47915781 5.2836618
-9.1858025 -0.40194729 5.2898092
-5.2487741 -0.40030152 5.2824659
-9.2738876 0.017532259 5.2877569
-5.2523713 0.19970521 5.2808914
-9.3215828 1.1372939 5.2836161
-5.900661 1.3737242 5.283061
-9.2554264 -1.2424082 5.2907648
-9.2486877 -1.1223636 5.2908487
-9.2643929 -1.0024655 5.2924757
-5.6436405 -1.0000116 5.2946482
-6.3409247 -0.76195246 5.2965269
-5.3641005 -0.63922906 5.2951269
-5.288003 -0.36060187 5.2979965
-9.2611208 -0.32243818 5.295352
-5.3252559 -0.31909379 5.2918949
-9.2592449 -0.22242436 5.29568
-5.2892604 -0.16059405 5.2966394
-9.2730494 -0.062486917 5.2923479
-5.2903423 0.039398819 5.2977772
-9.2735424 0.072486013 5.298008
-9.2738199 0.11748341 5.2982321
-5.2911673 0.15940884 5.2959652
-9.2846622 0.25741491 5.2996168
-5.2918172 0.27940479 5.296648
-5.2922091 0.31941673 5.2943821
-5.2926426 0.39941493 5.294837
-5.2926817 0.43939975 5.2975578
-5.2939401 0.63940752 5.2962017
-6.0603499 1.3902961 5.2944975
-5.6819191 -1.4001744 5.3023672
-5.6826859 -1.0002154 5.3098669
-5.2876091 -0.40061396 5.3002615
-9.2831593 0.41742501 5.3002424
-9.2913837 0.53737307 5.3013554
-9.2891359 0.57738745 5.3013849
-9.2943726 0.61735392 5.3019266
-9.2978573 0.77733219 5.3028965
-9.2933655 0.8573631 5.3029518
-5.294528 0.87934673 5.3075409
-9.3191433 0.93721998 5.3000774
-9.3188763 0.94969702 5.3051281
-9.3220367 1.0571768 5.3058348
-9.3050728 1.1372889 5.3050337
-5.5773988 1.2778169 5.3097057
-5.6182361 1.3201364 5.3028078
-5.6582031 1.332405 5.3057127
-6.1798029 1.3446034 5.3027449
-5.6813326 -1.2402692 5.3183355
-5.681838 -1.120258 5.316596
-5.6827364 -0.92023158 5.3128633
-5.4827199 -0.75592941 5.3138661
-5.4426498 -0.72207552 5.3150692
-5.4401627 -0.71956712 5.3149137
-5.4104567 -0.63947296 5.3133535
-5.4030857 -0.59944975 5.3130913
-5.4034786 -0.51943713 5.3111
-5.4532995 -0.47961345 5.3172798
-5.4433589 -0.46708095 5.3166723
-5.4085188 -0.43946895 5.3144388
-5.3266211 -0.40091118 5.3155642
-5.378922 -0.31937671 5.3131323
-5.3382874 -0.12096423 5.3153715
-9.2733335 0.17742512 5.3110027
-5.33252 0.55911183 5.3110495
-5.3210335 0.83913505 5.3192377
-5.5364976 1.1580257 5.3111782
-5.7380414 1.3394405 5.3114243
-6.3792844 1.3409437 5.3169012
-9.2218094 -1.3948904 5.3278522
-6.1087198 -0.76145935 5.3206272
-9.1863136 -0.68215215 5.328661
-9.1865616 -0.64215326 5.3288603
-9.1843147 -0.60213912 5.3288889
-5.4422436 -0.55965436 5.3285608
-9.1823158 -0.52212435 5.3291159
-5.4423537 -0.5196557 5.3288107
-9.1753292 -0.44207779 5.3290005
-5.3670702 -0.20118871 5.3270159
-5.3688002 0.11880049 5.3288374
-5.3694491 0.23879746 5.3295193
-5.370707 0.43880489 5.3281641
-5.3713551 0.55880117 5.328846
-5.3652711 0.7188791 5.321743
-5.3726134 0.75880718 5.3274889
-5.3325772 0.79901087 5.3298702
-5.3331871 0.8790226 5.3278313
-9.317503 0.97709358 5.3277121
-9.3180943 1.017115 5.3229227
-8.958272 1.1593539 5.3213739
-7.3554678 1.3492638 5.3247566
-5.9376435 1.3582811 5.3257084
-5.7774706 -1.4006388 5.3340063
-5.7775803 -1.36064 5.3342581
-5.7602835 -1.2406012 5.3363037
-5.7203183 -1.2004906 5.3362999
-9.2382135 -1.162496 5.33004
-9.2342148 -1.0024672 5.3304939
-9.2394505 -0.96250141 5.3310375
-5.7387857 -0.96052182 5.3340216
-9.1853046 -0.76218319 5.3357449
-5.5211535 -0.75993669 5.3377905
-9.2384415 -0.72249305 5.3320627
-5.4813595 -0.7198087 5.3352928
-9.2416782 -0.60251367 5.3328323
-5.3656344 -0.40120864 5.3308678
-9.243535 -0.30252224 5.3343287
-9.2470207 -0.14254314 5.3352985
-5.3679733 -0.0012081563 5.3306484
-9.2725315 0.29731843 5.3340464
-9.2624607 0.33736059 5.3385496
-9.2632027 0.45735696 5.3391476
-5.4111166 0.59854102 5.336895
-9.1179848 1.1733104 5.3324242
-7.4347177 1.3412074 5.3376894
-7.2200203 1.3412871 5.3365507
-6.5788174 1.347285 5.3311157
-7.1801758 1.3515197 5.3337746
-6.0972924 1.3673546 5.3371029
-5.7604351 -1.0006526 5.3452921
-9.1837044 -0.88223612 5.3476152
-9.1842947 -0.84221578 5.3428268
-5.4813995 -0.51985943 5.3440313
-5.4817934 -0.43984681 5.3420391
-5.4054341 -0.32148364 5.3416367
-5.4422221 -0.31972134 5.340045
-5.4063377 -0.12150243 5.3452682
-9.273427 0.49728999 5.3400326
-9.2811565 0.53723991 5.3407478
-9.3088207 0.97706211 5.344656
-9.3018322 1.0571088 5.3445406
-9.3073158 1.1370748 5.3452816
-5.6144547 1.1449313 5.341712
-9.1169872 1.1782426 5.347414
-8.956852 1.1792508 5.3439207
-5.6478052 1.3172373 5.3449955
-5.6952124 1.3219618 5.3483896
-6.7384405 1.3513578 5.3424816
-7.4346681 1.3886832 5.3429136
-5.7592425 -1.120726 5.3570099
-5.7596965 -1.0806962 5.352273
-5.520062 -0.72004437 5.3554993
-5.4493804 0.55820405 5.3594513
-5.4498129 0.63820267 5.3599062
-5.4107404 0.75844312 5.3552599
-5.3719225 0.95866883 5.3535633
-6.9778328 1.3499664 5.3594866
-6.8580956 1.3431623 5.3509407
-6.4163871 1.3480004 5.3596783
-6.2966509 1.3411958 5.3511324
-5.8549414 1.3460332 5.359869
-9.2112885 -1.4425223 5.3670053
-9.2196522 -1.3000748 5.3682308
-9.2297363 -1.2826403 5.3690042
-5.8382645 -1.2810081 5.3664904
-9.2225018 -1.2425931 5.3686895
-9.2201309 -1.2225773 5.3686161
-9.2229977 -1.1625952 5.3690882
-9.2212658 -1.1225474 5.3616333
-5.7987432 -1.0809002 5.3674908
-9.1713638 -1.0422583 5.3660841
-5.7994208 -0.96087265 5.3632565
-9.2226753 -0.92254198 5.360136
-9.1820831 -0.92232585 5.3673697
-5.5994387 -0.75282866 5.3657808
-9.1733456 -0.72226709 5.3676815
-9.2238169 -0.68257189 5.3663225
-9.1663589 -0.64222175 5.3675661
-5.5199409 -0.64007616 5.3609896
-9.1693478 -0.5622403 5.3681355
-5.5202117 -0.54257768 5.3616037
-5.5602622 -0.49020728 5.3646803
-9.1627312 -0.4221946 5.3683205
-9.16535 -0.40221298 5.3685904
-5.4436603 -0.40180445 5.3614721
-5.4932833 -0.3599945 5.3608599
-9.1783161 -0.32229644 5.3698473
-5.4933949 -0.31999496 5.3611107
-9.2269115 -0.18258661 5.3688154
-5.4449563 -0.16181314 5.3628378
-5.4451728 -0.12181443 5.3630648
-5.4455662 -0.081801414 5.3607979
-5.4469028 0.19817564 5.3648834
-5.4488096 0.51817954 5.3642111
-5.4399552 0.7582159 5.3673611
-5.4501266 0.79440719 5.3682756
-5.4106021 0.79841542 5.3604755
-5.4331226 0.87825644 5.3675127
-9.1558628 1.1779131 5.3651218
-9.0753345 1.1733904 5.369586
-9.03543 1.1736497 5.3668423
-5.7341981 1.3166646 5.3636627
-7.0579853 1.3495291 5.3601685
-5.8375998 -1.2110865 5.3793993
-5.8376274 -1.2010864 5.3794622
-5.8377385 -1.161088 5.379714
-5.8384652 -0.96107686 5.3784742
-5.6386366 -0.76051772 5.378459
-5.5588756 -0.68027842 5.3759575
-9.2649879 -0.42286295 5.375351
-5.4828501 -0.40209037 5.3742819
-5.4830661 -0.36209065 5.3745089
-5.5201416 -0.32014507 5.3729753
-9.225996 -0.30259541 5.3707113
-9.2261486 -0.22261919 5.3760977
-9.2268162 -0.1426107 5.3740034
-9.2377834 0.017318308 5.3754873
-9.2407722 0.097300559 5.3760576
-9.2337847 0.17734632 5.3759422
-9.2494917 0.29724464 5.3775682
-5.4869184 0.31790045 5.3758821
-9.2449989 0.37727389 5.3776245
-5.4873905 0.43788448 5.3790588
-9.2731018 0.77714515 5.3713589
-9.2734251 0.85713065 5.3742504
-5.4107571 0.95835829 5.3713598
-6.5759416 1.3395735 5.3709726
-7.4319878 1.3435258 5.3776064
-7.3522401 1.3540462 5.3721685
-6.0541363 1.354849 5.3790836
-6.0420218 1.3549476 5.37321
-6.0145645 1.3501068 5.371233
-5.9167929 -1.4338373 5.3834991
-5.8377891 -1.0811043 5.3827105
-5.84306 -1.0411071 5.3808107
-5.8457766 -0.96111703 5.3814859
-5.5991039 -0.44044375 5.3852015
-5.5591869 -0.32034862 5.388195
-5.4859147 0.19787857 5.380188
-5.4878616 0.55786657 5.3822346
-5.4883323 0.67785001 5.3854113
-9.2644367 0.69715011 5.3804207
-9.2679214 0.85712886 5.3813915
-5.4499874 0.99805844 5.3868904
-5.7332292 1.0365124 5.389679
-5.7308021 1.0490268 5.3895721
-9.2871132 1.1370053 5.3839874
-6.7355499 1.3411468 5.3823233
-7.4726038 1.4582622 5.3809233
-5.8764014 -1.3612721 5.3911819
-9.1793776 -1.0824347 5.3915129
-5.8772798 -0.92131293 5.3989325
-5.5976281 -0.60053092 5.3991604
-5.5983658 -0.52048618 5.3921814
-5.5216846 -0.40240055 5.3920774
-5.5238862 0.037571728 5.3970737
-5.5276608 0.63759255 5.3930044
-5.4882336 0.75780797 5.3933468
-5.7693372 0.79630256 5.3909702
-5.7694168 0.81130314 5.3910561
-5.5283871 0.83756101 5.3991299
-5.4894915 0.95781505 5.3919907
-5.7704239 0.99754703 5.3921156
-5.4891763 0.99777353 5.3996992
-5.8118687 1.3160424 5.3992558
-7.2703404 1.3494323 5.3965855
-9.2040501 -1.3626744 5.4069662
-9.204298 -1.322675 5.4071674
-5.915669 -1.281477 5.4069042
-5.8768854 -1.0013252 5.4009266
-9.1553879 -0.76235092 5.4063568
-5.6370282 -0.7206707 5.4036503
-5.5982347 -0.32055217 5.4034138
-9.1659641 -0.26241499 5.4093657
-5.562211 -0.12270686 5.4089727
-5.5276003 0.75753701 5.4036617
-5.5279942 0.79754901 5.4013948
-5.9318638 1.3378594 5.4053936
-7.4312172 1.468419 5.4006767
-5.9547262 -1.4016483 5.4163809
-5.9154863 -1.1615255 5.4151402
-5.9155979 -1.1215265 5.415391
-5.9163866 -0.96149969 5.4114075
-5.7564607 -0.76106924 5.4141388
-9.2082577 -0.68269467 5.4103575
-5.6366243 -0.68071717 5.4113827
-9.2060127 -0.64267969 5.4103861
-5.6774282 -0.48082054 5.4104004
-5.5754824 -0.40279895 5.4109373
-9.2088604 -0.18269411 5.4126797
-9.1841583 -0.14378245 5.411159
-9.2195778 -0.06276384 5.4139652
-9.2225685 0.017217845 5.4145346
-9.2183218 0.13724753 5.4147902
-9.2285461 0.1771802 5.4156742
-5.5637646 0.19726995 5.4132872
-9.2267952 0.29719266 5.4161034
-9.2223015 0.37722263 5.4161587
-9.2175617 0.41725436 5.4160147
-5.5656714 0.51727259 5.412612
-9.2357616 0.53713572 5.4178133
-5.5636482 0.63727009 5.4156113
-5.8473229 0.75572121 5.4188557
-5.5666132 0.75723815 5.4189644
-5.8481483 0.87573099 5.4170446
-5.5282288 1.0374621 5.4177217
-5.4885058 1.0377069 5.4123945
-6.5730791 1.3343621 5.4108429
-7.134551 1.3413275 5.4106798
-7.2144032 1.3508651 5.4164047
-7.669981 1.3868475 5.4192343
-5.9939094 -1.4143372 5.4290266
-5.9765964 -1.3617826 5.428154
-5.9548273 -1.2416818 5.4223738
-5.9546356 -1.1867144 5.4277077
-5.9573107 -1.1217239 5.4282875
-5.9550381 -1.0417172 5.4286165
-5.9527659 -0.96171165 5.4289484
-9.1410322 -0.44235441 5.426877
-5.5997105 -0.4029966 5.4226837
-5.6010084 -0.1630041 5.4240484
-5.601047 -0.1230188 5.4267693
-5.6033869 0.27698204 5.4265509
-5.6038575 0.3969653 5.4297266
-5.8872995 0.8354609 5.4271307
-9.2705364 0.91691315 5.4219389
-9.2808838 0.97684515 5.4229231
-9.2738972 1.056892 5.4228067
-6.2111549 1.3362371 5.4252329
-7.5696845 1.4674283 5.4277391
-5.9935398 -1.3618842 5.4368382
-5.9992647 -1.2818562 5.4302025
-5.7150607 -0.68109477 5.4368334
-5.7162418 -0.44105482 5.4308577
-5.6762152 -0.36095908 5.4336004
-5.6763263 -0.32096046 5.4338512
-5.6421428 0.19670025 5.4389048
-5.9247599 0.51518571 5.4381208
-5.8622398 0.51553524 5.4361868
-5.8848448 0.54540396 5.4379511
-5.9251919 0.59518373 5.4385748
-5.8751421 0.59546113 5.4375257
-5.8854403 0.6553998 5.4385757
-5.8856297 0.69039893 5.438776
-5.6054487 0.75692677 5.4367609
-5.6060586 0.83693814 5.4347229
-5.606452 0.87695038 5.432456
-5.8481274 1.0356606 5.4304218
-5.8880658 1.0754131 5.4359779
-5.5674572 1.0771625 5.4332533
-5.5275578 1.0773948 5.430419
-6.8922839 1.3350074 5.4335308
-6.8523836 1.3352398 5.4306965
-6.3707638 1.3378091 5.4365845
-7.7485914 1.358758 5.4395494
-7.7087002 1.3615193 5.4368172
-7.6118355 1.4271516 5.4304543
-9.1970587 -1.2428266 5.4471283
-9.1925659 -1.1627973 5.4471836
-9.1754494 -1.1076853 5.4462576
-9.1883221 -1.0427679 5.4474392
-9.1588879 -0.96257532 5.4457798
-9.1947947 -0.80280894 5.4489784
-9.1950436 -0.76280993 5.4491777
-9.1380234 -0.76241171 5.4402456
-9.1306934 -0.68238914 5.445118
-5.7549043 -0.64123887 5.4423275
-9.1296835 -0.44237953 5.4461432
-9.1324253 -0.40239736 5.4465151
-9.1402016 -0.35494819 5.4472656
-5.7153716 -0.32116377 5.4490709
-9.1455135 -0.30248198 5.4478712
-5.9643421 0.55491436 5.4486637
-5.9260955 0.79516411 5.4422073
-5.9265285 0.87516177 5.4426613
-5.9294538 0.95514417 5.4432945
-9.2695351 0.97682011 5.4421902
-5.887279 0.99538946 5.4405098
-5.887507 1.0378888 5.440752
-5.6074338 1.1569014 5.4415302
-7.8283386 1.3482376 5.4449863
-7.0519195 1.3415803 5.44491
-7.7884493 1.3509984 5.442255
-6.0327473 -1.242106 5.4553051
-9.1380596 -0.56249756 5.4587011
-5.7421803 -0.36129731 5.4581909
-9.1976404 -0.34282166 5.451273
-5.7397971 -0.32128927 5.458271
-5.6792107 -0.16358697 5.4521589
-9.1963863 -0.1428127 5.4520988
-5.6792488 -0.12360066 5.4548798
-9.1819935 -0.050216764 5.4515305
-9.202116 -0.022848576 5.4530401
-9.2083426 0.17711297 5.45438
-9.2085896 0.2171115 5.4545803
-5.6818442 0.35638347 5.4576101
-5.6431646 0.51663733 5.4506989
-9.2182999 0.57705057 5.4568901
-9.2365017 0.69693327 5.4586887
-5.9249549 0.71511364 5.451726
-9.2369957 0.77693069 5.4590864
-5.8476915 1.3155054 5.459445
-7.9878507 1.329695 5.4558744
-6.6101699 1.3389189 5.4536037
-6.5702448 1.3341508 5.4507408
-6.088624 1.3367196 5.4566298
-8.0128832 1.3445317 5.4576635
-7.3916121 1.3483902 5.4550409
-7.211555 1.3481534 5.4562902
-8.0279408 1.3594334 5.4587669
-7.3676624 1.5085478 5.4541245
-7.3227682 1.5088412 5.4510384
-6.0719748 -1.3622605 5.4622889
-6.0719147 -1.3222771 5.4650335
-6.032958 -1.042141 5.4615488
-6.0331798 -0.96214283 5.4620523
-9.1750498 -0.92279321 5.4696264
-5.8757491 -0.76171941 5.4649553
-5.7933836 -0.72147143 5.4620314
-9.1767063 -0.68278956 5.4683294
-5.7933245 -0.68148726 5.464777
-5.9135151 -0.63434184 5.4683342
-5.7841344 -0.52142882 5.4601068
-5.7169247 -0.40387771 5.4660969
-5.7048111 -0.40377766 5.4602251
-5.7543068 -0.36136752 5.4640379
-5.7544174 -0.32136792 5.4642897
-5.6909313 -0.20369783 5.4602995
-5.700141 0.11624905 5.4626493
-5.6955867 0.1962758 5.4627504
-9.2245255 0.4569715 5.4642887
-5.682138 0.47635344 5.4632788
-5.6753058 0.59639347 5.4634304
-5.6904836 0.63630557 5.4647217
-5.6845579 0.92384017 5.4658251
-6.0053401 0.95459068 5.4687347
-5.6851654 1.0363361 5.466465
-5.6460924 1.156577 5.4618196
-6.7697921 1.3429914 5.4649687
-7.5916324 1.4270847 5.4691582
-9.1712208 -1.4028339 5.4797039
-6.1149597 -1.3224708 5.4767694
-6.075388 -1.2023451 5.4747734
-6.0716295 -1.1773412 5.4759197
-9.1347828 -0.84259117 5.4797525
-5.8325424 -0.68167603 5.4775019
-5.9384341 -0.6419217 5.470005
-5.833612 -0.48163506 5.4712753
-5.7933521 -0.3615711 5.4792576
-5.7934647 -0.32157162 5.4795084
-5.7178688 -0.16391027 5.4724503
-6.002037 0.47455248 5.4759798
-6.0032558 0.63457406 5.4719028
-6.0037661 0.79454255 5.4777985
-5.965342 1.0347791 5.4738359
-5.6846719 1.0762818 5.4766674
-7.7057867 1.333837 5.4765854
-6.9293737 1.3395648 5.4762926
-6.4078135 1.3348653 5.4793034
-6.2881298 1.3380616 5.4708147
-6.969285 1.3418325 5.4791412
-6.1106668 -1.2425288 5.4882374
-9.1726112 -1.122867 5.4860878
-6.0714388 -1.1223729 5.4812546
-9.1343155 -0.86261386 5.4846401
-9.1247101 -0.80255073 5.4842529
-5.87182 -0.72184861 5.4874821
-9.1179705 -0.68250626 5.4843388
-9.1207123 -0.64252329 5.4847088
-9.1760769 -0.56288469 5.4888802
-5.8724871 -0.48185462 5.4889879
-9.2168951 -0.44313759 5.4897289
-9.1220741 -0.42252916 5.4858074
-9.1301756 -0.32258177 5.4868183
-9.1355343 -0.26261503 5.487462
-9.1487465 -0.14270133 5.4889174
-5.7570982 -0.12421092 5.4879799
-6.079423 0.1590459 5.489831
-6.039876 0.22427586 5.4873667
-6.0399303 0.23427573 5.4874229
-6.0008559 0.35451666 5.4827776
-6.0310359 0.4343271 5.4878531
-6.0414038 0.4742808 5.4862947
-5.7206192 0.47601536 5.486064
-5.7617769 0.67579043 5.4875422
-6.043056 0.71429956 5.4826727
-5.7236071 0.99601364 5.4865274
-5.6842189 1.156213 5.4895897
-5.6846123 1.1962253 5.4873238
-7.8256083 1.3505551 5.4849043
-7.2806144 1.5889169 5.4885979
-6.1103125 -1.1225921 5.4989662
-6.1111012 -0.9625653 5.4949846
-5.8719816 -0.60186708 5.4907293
-6.1126046 -0.48256209 5.4955053
-9.2167397 -0.44064829 5.4922352
-5.8724256 -0.44187063 5.4917345
-5.7951279 -0.4044604 5.4942093
-9.1856632 -0.22294237 5.4910898
-9.1834164 -0.18292803 5.4911184
-9.1853981 0.13706145 5.4927149
-6.084383 0.15401724 5.4901571
-6.0798283 0.23404339 5.4902573
-5.7590432 0.23577777 5.4900255
-9.2013512 0.29695955 5.4945412
-9.1966114 0.3369911 5.4943972
-6.0611763 0.47415099 5.4902058
-6.0738606 0.51407778 5.4913187
-6.0616083 0.55414903 5.4906607
-9.2239494 0.724316 5.498045
-9.2240276 0.7368145 5.498107
-6.082284 0.7540009 5.4982023
-9.2292633 0.77678168 5.4986496
-6.0826778 0.79401255 5.4959373
-6.078084 0.83405316 5.4933157
-5.7621098 0.83574665 5.4959326
-9.2272644 0.85679531 5.4988775
-6.0708199 0.87409592 5.4930124
-9.2277603 0.93679285 5.4992762
-6.0463152 0.95423865 5.4916954
-6.0438623 0.96175158 5.4915609
-9.2055607 0.97693789 5.4979324
-5.7231526 1.0759442 5.4994497
-7.3438964 1.336002 5.4917984
-7.168766 1.3381729 5.4932976
-8.0251026 1.3442519 5.4985971
-7.9253407 1.3449039 5.4917393
-7.3913603 1.3481909 5.4951172
-7.1702657 1.6156641 5.4948769
-7.2077389 1.6279465 5.4976034
-6.1495514 -1.3627145 5.5002079
-5.9453292 -0.7621944 5.5098419
-5.9057565 -0.64206982 5.5078468
-5.9033732 -0.60206258 5.5079269
-9.1352196 -0.5227046 5.5037947
-5.9114714 -0.44207558 5.5069523
-5.9113216 -0.4345904 5.5094938
-5.8641353 -0.36194068 5.5066853
-5.8592577 -0.32192582 5.5065937
-9.1775713 -0.18295136 5.5032463
-5.7971516 0.035499573 5.5016985
-6.07794 0.11395368 5.5070314
-5.797585 0.11549726 5.5021524
-6.1186247 0.19374737 5.5053329
-5.798017 0.19549528 5.5026083
-6.0798073 0.39397278 5.5036364
-5.7989206 0.39547613 5.5062399
-6.1201782 0.51372266 5.5096464
-5.7998242 0.59545648 5.5098705
-6.081892 0.71398783 5.5004692
-5.8010435 0.75547731 5.5057936
-9.2244263 0.85678887 5.5036936
-9.2247505 0.93677509 5.506587
-5.7624812 1.0356874 5.5070448
-6.0435843 1.0741831 5.5046701
-6.205471 1.3333141 5.5050163
-8.1449108 1.3584697 5.5069036
-8.1848764 1.3682085 5.5096979
-8.1050367 1.3637305 5.5041857
-6.1890926 -1.1229393 5.5194283
-5.9504695 -0.7072112 5.5105314
-5.910573 -0.64210093 5.510684
-5.9386244 -0.48217678 5.5110865
-6.1542168 -0.40654507 5.5197172
-5.8416224 -0.40480143 5.5100422
-6.1117349 -0.3626712 5.5137167
-6.1517515 -0.32280016 5.516716
-5.8713837 -0.32199591 5.5124407
-6.1559086 -0.12654135 5.5188169
-5.8330717 -0.12475786 5.5121732
-6.11766 0.11370942 5.5123587
-9.1790371 0.13700435 5.5123234
-6.1575985 0.15346345 5.5179138
-6.119391 0.43369934 5.5141783
-5.8062634 0.43540373 5.5119858
-5.7990799 0.49044666 5.5117664
-6.1206484 0.63370585 5.5128231
-9.2232456 0.77674496 5.5132713
-5.8007278 0.79543602 5.5135021
-6.8866119 1.3345845 5.5133295
-6.3650923 1.3373866 5.5163822
-8.2248745 1.382947 5.5125151
-7.5040693 1.5074197 5.5111151
-9.1504269 -1.4429241 5.5231972
-9.1506748 -1.4029248 5.5233955
-6.2278771 -1.4030915 5.5254068
-6.2254925 -1.3630842 5.525485
-6.2406802 -1.2831337 5.5270185
-6.2283821 -1.2830783 5.5236664
-6.1884146 -1.2429664 5.5236626
-9.1692638 -1.2205451 5.525507
-9.1471729 -1.1629012 5.524251
-6.2012186 -1.1230097 5.5252752
-6.2063184 -1.0830271 5.5258703
-9.1504087 -1.0429204 5.5250206
-9.1581383 -1.0029712 5.5257349
-9.1533966 -0.9629395 5.5255909
-6.189537 -0.96294367 5.5204334
-9.1310749 -0.94279259 5.524147
-9.111742 -0.84266686 5.5232744
-9.112237 -0.76266909 5.5236731
-5.9895339 -0.76240003 5.5229111
-9.1631069 -0.60299945 5.5278997
-5.9497299 -0.60230619 5.5261545
-9.1633549 -0.56300116 5.5281
-9.1338444 -0.49530777 5.5263786
-9.1168337 -0.42269456 5.5255404
-9.1169586 -0.40269613 5.5256395
-6.1913748 -0.3629435 5.5217085
-6.1913137 -0.32295859 5.5244532
-6.1186409 -0.32275796 5.5244598
-6.113987 -0.30388352 5.5299349
-6.1945863 -0.28679436 5.5257282
-9.1282969 -0.18276814 5.527422
-6.1563783 -0.0065574646 5.5219917
-5.8397408 0.79513907 5.5288048
-5.8401742 0.8751359 5.5292587
-5.8405671 0.91514802 5.5269928
-6.121315 0.95361638 5.529604
-5.8013554 1.0753611 5.5275631
-5.7613187 1.115566 5.5299425
-5.7624989 1.2356017 5.5231438
-7.0861053 1.3334249 5.5275002
-7.006309 1.3338885 5.5218306
-7.7829432 1.3481343 5.5220528
-7.5020504 1.3473562 5.525281
-7.2613726 1.3413407 5.5262403
-5.968338 1.3544633 5.5283775
-7.4234772 1.547871 5.5207911
-7.3033237 1.5886067 5.5227356
-7.1711202 1.6694332 5.5215292
-6.2628536 -0.48321706 5.5334177
-6.2355299 -0.44313127 5.5317793
-6.2359266 -0.36708426 5.5370126
-6.2308745 -0.32311785 5.5321894
-6.2339926 -0.24708028 5.538763
-6.1946654 -0.20682281 5.5311689
-6.1170068 -0.20640028 5.5306654
-6.1148911 -0.13638875 5.5308876
-6.2296543 -0.12705496 5.5390921
-6.2107868 0.073054343 5.5388117
-9.1624527 0.097011358 5.5310478
-9.1504765 0.17709097 5.5305891
-9.1833954 0.25687686 5.5332174
-6.1972599 0.2731615 5.5338993
-9.1789017 0.33690599 5.5332747
-9.1943626 0.41680679 5.5347013
-6.1985569 0.51315355 5.535264
-9.1980934 0.61678362 5.5358706
-9.1985884 0.69678152 5.5362701
-9.1846142 0.85687339 5.5360394
-5.8406448 0.99511945 5.5324354
-6.1216097 1.0735872 5.5352745
-6.1226897 1.2735804 5.5364113
-7.3411198 1.330819 5.5316772
-6.6842833 1.3355323 5.5390568
-7.9026423 1.3448513 5.5302715
-7.381103 1.3430589 5.5344839
-7.205843 1.3402293 5.5360451
-8.022419 1.3540694 5.5385532
-8.2632351 1.3825837 5.5377073
-7.1673355 1.5979537 5.5346746
-7.1823893 1.6692716 5.5398436
-6.2667499 -1.4033105 5.5431194
-6.2272892 -1.2431861 5.5413761
-6.2276225 -1.123189 5.5421295
-6.2282395 -0.96317816 5.5406408
-5.9888878 -0.56251031 5.541625
-9.1327209 -0.4828878 5.5438995
-5.9122043 -0.36536723 5.5428381
-5.9122448 -0.32538295 5.5455599
-5.9122825 -0.28539667 5.5482798
-5.9127159 -0.20539871 5.5487347
-9.1351681 -0.14287505 5.5406075
-6.1148853 -0.0064456761 5.5416012
-6.2351522 0.032883704 5.5453434
-6.1971998 0.39310411 5.5445576
-5.8774171 0.51486301 5.54002
-6.1991215 0.68312204 5.5412188
-6.1970072 0.75313473 5.5414391
-6.1799822 0.83323336 5.5406542
-5.8804846 1.1148301 5.5459261
-5.8409781 1.1550741 5.5408258
-5.8416271 1.2750707 5.5415087
-6.2424941 1.3253703 5.5477066
-6.2026072 1.3281021 5.5448866
-6.7241945 1.3377997 5.5419044
-8.182086 1.3605262 5.5495644
-7.5761652 1.4267848 5.5482836
-6.2666798 -1.2433604 5.5516071
-6.2670622 -1.0433792 5.555357
-6.0282154 -0.52269948 5.5546017
-6.2693548 -0.40335065 5.5518942
-5.9513559 -0.40563741 5.5529261
-6.269578 -0.32335109 5.5523958
-5.9514341 -0.32566702 5.5583677
-6.2726126 -0.28738993 5.5563326
-5.9495897 -0.20565602 5.5588722
-5.9361396 0.074421793 5.5594025
-6.2354856 0.19283924 5.5537338
-5.9293089 0.19446155 5.5595541
-5.9147005 0.19457421 5.553504
-5.9295244 0.23446062 5.5597811
-5.9249701 0.31448713 5.5598822
-6.237648 0.59282756 5.5560093
-5.9172955 0.67456043 5.5562325
-5.9175501 0.75454366 5.5591812
-7.7000637 1.2959745 5.5562096
-5.9611859 1.3143481 5.5552263
-5.8808556 1.3147722 5.5570393
-5.8411336 1.3150172 5.5517101
-6.9236755 1.3341415 5.5560617
-6.8837771 1.3343725 5.5532274
-6.8438916 1.3371052 5.5504074
-6.402142 1.3344431 5.5591011
-7.9809098 1.3442278 5.5582066
-8.2619724 1.3725054 5.5551147
-8.3019552 1.3847442 5.5579214
-9.1484251 -1.3231095 5.5636997
-6.3057852 -1.2835472 5.5640802
-9.1406765 -0.96305656 5.5648098
-6.306675 -0.96355617 5.5660906
-9.1491489 -0.80311072 5.566123
-9.147398 -0.68309712 5.5665483
-9.1453991 -0.60308403 5.5667763
-9.1483879 -0.52310312 5.5673466
-9.111968 -0.36286375 5.5655737
-9.1196976 -0.32291293 5.566287
-9.1203156 -0.22291535 5.5667858
-6.2737718 -0.0074252784 5.5629139
-6.2740264 0.072558016 5.5658607
-5.9301729 0.35445639 5.560463
-9.1778336 0.49676421 5.5640011
-5.928545 0.51446605 5.5611973
-5.9190011 0.59452105 5.5609426
-5.9217119 0.63450551 5.561347
-5.9568267 0.67180204 5.5640402
-5.9620428 0.7142719 5.5646362
-6.2382355 0.83276653 5.5673485
-5.9176278 0.83451593 5.5646238
-5.9980421 0.91531235 5.5682616
-6.1991625 0.95300746 5.5627031
-5.9184551 0.95452476 5.5628128
-5.9587469 0.99430513 5.5633802
-5.9190636 1.0345348 5.5607738
-5.9515209 1.0743331 5.5657978
-5.9394846 1.1544019 5.5653667
-5.9399166 1.2344005 5.5658226
-6.5218253 1.3312473 5.5675879
-6.3574243 -1.3637593 5.574667
-6.3626347 -1.2837777 5.5755138
-6.3453484 -1.2837059 5.5718164
-6.3058262 -1.0835974 5.5728188
-5.9904079 -0.36595067 5.5709486
-6.3480129 -0.3237288 5.5778465
-9.1724358 -0.26450711 5.5701818
-5.9913511 -0.12598443 5.577302
-9.133604 -0.063013345 5.5709343
-9.1333389 -0.023048788 5.5786161
-9.1349945 0.21695498 5.5773201
-6.2747927 0.31251141 5.574707
-9.1762486 0.35172382 5.5732536
-9.1744061 0.45673725 5.5736065
-9.1747293 0.53672284 5.5764999
-6.2759123 0.55249071 5.5785656
-9.1781216 0.65421444 5.5747623
-9.1784935 0.71421278 5.5750618
-9.1763859 0.77672613 5.5752029
-9.1923409 0.93662322 5.5770283
-5.9595127 1.2342575 5.5722265
-7.2030077 1.3400179 5.5759439
-7.4394841 1.547479 5.5795279
-6.3842216 -1.2839254 5.58953
-6.345377 -0.96378958 5.586298
-6.1061959 -0.56310803 5.5847883
-6.106307 -0.5231086 5.5850391
-6.3869591 -0.48389888 5.5870724
-6.3624573 -0.4080542 5.587141
-6.0293822 -0.40623432 5.5835304
-9.1704521 -0.36334476 5.5896406
-6.3527174 -0.36375904 5.5804329
-6.3514256 -0.20796204 5.582406
-6.3516808 -0.12797794 5.5853539
-6.3523293 -0.0079812109 5.5860376
-6.3527613 0.072016448 5.5864916
-6.3527999 0.11200151 5.5892124
-9.1336422 0.13690045 5.5893917
-9.1344051 0.17693326 5.5821085
-5.993197 0.31396285 5.5872841
-9.175642 0.33668962 5.5806618
-6.3050885 0.51227927 5.587945
-6.3229761 0.59217465 5.5896397
-6.036438 0.83375371 5.5855951
-6.2769747 0.84744227 5.5877237
-6.2603045 0.99253809 5.5873098
-6.0373025 0.99374938 5.5865049
-6.0375195 1.0337478 5.5867329
-6.223331 1.0727537 5.5851068
-6.2389026 1.152678 5.5841303
-5.9979143 1.1539494 5.5895691
-6.2390628 1.2151617 5.5869799
-6.7213593 1.3375887 5.5818033
-8.0595951 1.3561265 5.581214
-9.1244144 -1.2431023 5.5924854
-9.1253281 -1.1230953 5.5905905
-6.3847661 -0.96396387 5.5965271
-9.1284523 -0.56313515 5.5983706
-6.3891797 -0.40826726 5.5990648
-6.3900442 -0.24827197 5.5999746
-6.0301466 -0.16628084 5.5923767
-6.0306182 -0.046298593 5.5955524
-6.0312672 0.073697716 5.5962353
-6.0314827 0.11369684 5.5964642
-6.0317392 0.19368169 5.599411
-6.0339999 0.51371014 5.593751
-6.0350418 0.67371845 5.5921659
-9.1770134 0.69662178 5.5949268
-6.326335 0.75215542 5.5907269
-6.0758448 0.87346828 5.5986309
-6.2770119 0.95239854 5.5958023
-6.0375967 1.1137185 5.5921755
-6.2794085 1.2974279 5.5902824
-6.3194151 1.3171958 5.5932322
-9.1224136 -1.455641 5.6014004
-9.1236668 -1.2531477 5.6024122
-9.1246738 -1.0906531 5.6032219
-9.1255379 -0.92316991 5.6065512
-9.1260185 -0.87316024 5.6043062
-9.1439095 -0.80327654 5.6058559
-9.1371708 -0.68323028 5.6059408
-6.1844754 -0.68221653 5.6069975
-9.1227016 -0.60313636 5.6053114
-6.1846862 -0.60596871 5.6074762
-6.1848035 -0.56346887 5.6077433
-6.1849222 -0.52097118 5.6080103
-6.1077619 -0.40680259 5.609149
-6.1078024 -0.39930302 5.6091909
-6.4261045 -0.32413748 5.608284
-6.0957251 -0.32673398 5.6087179
-9.1095943 -0.30304629 5.6057777
-6.0913873 -0.20670873 5.609046
-9.115572 -0.14308333 5.6069193
-6.0695539 -0.12656701 5.6054125
-9.1158199 -0.10308483 5.6071186
-6.0698085 -0.046583444 5.6083622
-9.1215515 0.016879022 5.6080589
-9.1321163 0.056834012 5.6039553
-9.1318207 0.064310998 5.6089811
-6.0754437 0.073384017 5.6093988
-9.1345158 0.096793622 5.6093159
-6.3914585 0.11167714 5.6095037
-9.1247864 0.13685736 5.6088295
-6.0710673 0.15342429 5.6070061
-9.1250343 0.17685679 5.6090279
-6.0538669 0.23351005 5.6087132
-9.1255302 0.25685468 5.6094275
-6.352602 0.27191761 5.6050844
-6.0723639 0.39341715 5.6083708
-6.353899 0.51190972 5.6064501
-6.2770901 1.0323696 5.601244
-7.696866 1.3057586 5.6036463
-6.5189757 1.3285366 5.6074743
-7.8173432 1.3450087 5.6045961
-8.3390083 1.3668011 5.6004829
-8.3490753 1.3817357 5.601244
-6.4220142 -1.3642192 5.6192102
-6.4225812 -1.2841908 5.6147251
-6.1087437 -0.1268523 5.6182213
-6.4305706 0.031421244 5.616869
-9.1333675 0.31430331 5.6102285
-9.1512146 0.37668738 5.6117411
-6.1121244 0.43315741 5.6164188
-9.1744804 0.50903606 5.6139441
-6.1128421 0.53316784 5.6144943
-9.1526985 0.61667919 5.6129379
-6.1135054 0.65566421 5.6151915
-9.1509466 0.73669255 5.6133642
-6.3550186 0.75188804 5.6103077
-6.1040559 0.75321805 5.615037
-6.1144371 0.82815754 5.6161728
-6.3550973 0.83185959 5.6157503
-6.1269331 0.83308601 5.6170864
-9.1417141 0.85675442 5.6132774
-6.1545787 0.87292457 5.6192627
-6.3169289 1.1520821 5.6147375
-6.3179312 1.2721037 5.6104307
-7.3356624 1.3354549 5.6115131
-7.1602726 1.3400384 5.6130075
-8.3383179 1.4217315 5.6157207
-7.181344 1.5474161 5.6156054
-6.4617958 -1.4093449 5.6216764
-9.1217651 -1.2832611 5.627203
-6.4249525 -1.2042296 5.6203871
-6.4428549 -1.0442909 5.6225958
-6.4626875 -0.96438706 5.6294603
-6.4582644 -0.88434297 5.6246309
-6.4633636 -0.84435928 5.6252251
-6.2236786 -0.56368911 5.6254559
-6.4517808 -0.52432704 5.6263771
-6.4893036 -0.48444763 5.6292048
-6.4647565 -0.40435407 5.6254959
-6.4648681 -0.36435604 5.6257467
-6.4653225 -0.32432669 5.6210089
-6.1481104 -0.12712339 5.6285381
-6.3919082 0.39158931 5.6260576
-6.1113758 0.39311817 5.6236725
-6.3931274 0.55160987 5.6219807
-6.243053 0.63241017 5.6242743
-6.2331195 0.6399684 5.6236086
-6.1525722 0.63287914 5.6278715
-6.2008777 0.67265642 5.6214905
-6.393816 0.71159136 5.6253834
-6.113893 0.7931329 5.6209612
-6.356039 1.0718251 5.6221027
-6.7983088 1.3344139 5.6273556
-8.0967093 1.3481843 5.623826
-8.1765337 1.3501631 5.6293268
-9.1201649 -1.4033128 5.6390743
-6.5006833 -1.4045643 5.6394215
-6.4613938 -1.2444252 5.6351833
-9.1242218 -0.80331022 5.6370783
-6.4967737 -0.4090631 5.6367836
-6.4872541 -0.32444453 5.6300373
-6.4928675 -0.20904076 5.6375666
-6.469151 -0.048873484 5.6317177
-6.4305496 0.19134954 5.6302481
-6.1497021 0.23283878 5.6355715
-6.1504879 0.3128638 5.6310396
-6.4138207 0.39141819 5.6351328
-6.4289985 0.43133029 5.6364231
-6.4319782 0.52131402 5.6371117
-6.4221659 0.55137074 5.6365738
-6.1517854 0.55285561 5.6324043
-6.4076357 0.63145494 5.6359653
-6.4255242 0.71135104 5.637661
-6.1528277 0.71286309 5.6308203
-6.1530433 0.75286305 5.6310472
-6.4062233 0.83146334 5.6369257
-6.3945808 0.95154428 5.6342297
-6.3967037 1.311547 5.6337833
-9.1202412 -1.3633267 5.6417685
-9.1032791 -1.2832147 5.6409674
-6.5006728 -1.2845987 5.6451635
-9.1015263 -1.1632019 5.6413937
-9.1102467 -0.96325731 5.6429062
-9.1234903 -0.83834267 5.6443872
