ply
format ascii 1.0
comment PCL generated
element vertex 1459
property float x
property float y
property float z
element camera 0
property float view_px
property float view_py
property float view_pz
property float x_axisx
property float x_axisy
property float x_axisz
property float y_axisx
property float y_axisy
property float y_axisz
property float z_axisx
property float z_axisy
property float z_axisz
property float focal
property float scalex
property float scaley
property float centerx
property float centery
property int viewportx
property int viewporty
property float k1
property float k2
end_header
-1.7292597 -1.4874623 3.7876496
-2.0636246 -1.5258945 3.6066883
-2.0911341 -1.5260619 3.6413212
-2.0992553 -1.5262042 3.6669931
-1.7022219 -1.5364536 3.6123645
-1.7819841 -1.5238736 3.618366
-1.7480347 -1.5334268 3.5355654
-1.7539718 -1.5404413 3.4557405
-1.5485919 -1.5386276 3.5207169
-2.2606847 -1.5383905 3.6538415
-2.2267139 -1.5329447 3.5711293
-2.2665901 -1.5229061 3.5741534
-2.53356 -1.5263335 3.0780389
-2.4734454 -1.5272908 3.3544168
-7.5262876 -1.5541148 5.7718248
-7.5572214 -1.5535177 5.6135759
-7.6741753 -1.5569817 5.6616993
-7.6011105 -1.5546046 5.7769699
-7.6177855 -1.5603122 5.8983765
-7.7910991 -1.5654447 5.7097998
-3.1437118 -1.5405079 4.0400443
-3.1516485 -1.5367826 3.4034829
-2.9978561 -1.5310069 3.3121614
-2.9920797 -1.5313144 3.3919504
-2.9949746 -1.5286614 3.3520663
-2.8695049 -1.5311165 3.4231825
-4.1901603 -1.5427778 4.5547924
-3.9412882 -1.504496 4.6752491
-4.0221806 -1.5323563 4.6633015
-4.5436611 -1.5424638 4.6598759
-5.0055027 -1.5366299 4.6384611
-5.0110159 -1.5311438 4.5586839
-5.0192633 -1.5304159 4.4389691
-5.0275121 -1.5296856 4.3192558
-4.9050336 -1.5345453 4.3508835
-5.0646667 -1.5300572 4.3619094
-5.5876741 -1.5075091 4.919323
-5.4734721 -1.501639 4.8312998
-5.5532889 -1.499396 4.836812
-5.9013758 -1.524019 5.0210276
-9.6135845 -1.5733479 2.0138869
-9.2888699 -1.5667506 2.0716925
-9.2118435 -1.5611104 2.0263038
-9.2531109 -1.5637693 2.0090921
-9.5118418 -1.5566584 2.3276954
-9.7086105 -1.5580186 2.3813674
-9.5063334 -1.5569795 2.407506
-8.7576361 -1.5695879 3.9595985
-8.7260084 -1.5663656 3.8371418
-8.688858 -1.5659643 3.7944844
-8.617342 -1.5599999 3.6692851
-9.4086056 -1.5576251 3.2427633
-8.9926834 -1.5895922 3.0936403
-9.0193453 -1.5896413 3.0704198
-8.7907019 -1.5651548 3.4807529
-8.827879 -1.560555 3.5234337
-8.9502907 -1.5711144 3.4917438
-8.9131985 -1.5607131 3.4491293
-8.516922 -1.5556525 3.3817046
-8.4368114 -1.5476936 3.3812182
-8.097209 -1.559386 3.0720515
-7.9775114 -1.5561664 3.0638039
-8.0944557 -1.5595461 3.1119561
-8.1343746 -1.5572871 3.1147211
-7.7573776 -1.5510992 2.7679622
-7.6294308 -1.5458622 2.8794377
-9.885088 -1.5477582 1.5315337
-9.8875818 -1.5477734 1.5317067
-9.7821999 -1.567495 1.6045433
-8.1069136 -1.5658597 -0.5559479
-6.8965473 -1.5418315 0.083602667
-6.9278641 -1.5499231 0.20611849
-7.2584572 -1.5504415 0.069340169
-7.0475898 -1.5403429 0.21471322
-6.9250126 -1.550073 0.24601623
-6.9421329 -1.5466713 0.0066395402
-6.9051037 -1.5413799 -0.03609091
-7.5634108 -1.5566924 -0.23256379
-7.4946041 -1.5580666 -0.39770067
-7.7272263 -1.542487 0.30004156
-7.8025188 -1.6107068 0.36510557
-7.7721558 -1.6274028 0.22260806
-7.7786965 -1.6106517 0.38351008
-7.5736971 -1.4938395 1.3672075
-7.5284605 -1.4935908 1.3690982
-7.4978023 -1.5482708 1.2093253
-8.0078306 -1.5591625 0.88067877
-6.8680816 -1.5258358 0.48265165
-7.0732431 -1.5362346 0.41707391
-7.2328181 -1.541795 0.42846125
-7.1872091 -1.5444551 0.50539529
-7.3205123 -1.5548382 -0.99507892
-6.6685596 -1.5351349 0.46835315
-6.6687384 -1.5351249 0.46585995
-6.788269 -1.5305554 0.47692806
-6.5858865 -1.5425043 0.50251758
-7.0960121 -1.5422764 0.65929371
-6.8594933 -1.5362855 0.60230529
-6.9022665 -1.528776 0.56528986
-6.2881346 -1.5749921 0.73926878
-6.4120574 -1.5351969 0.69063044
-6.3755474 -1.5348783 0.64040005
-6.5089521 -1.5395743 0.45692676
-6.1156998 -1.5303733 0.34864432
-6.8832664 -1.6172607 0.82677007
-6.9065299 -1.535489 0.36505681
-6.999135 -1.5406536 0.33155522
-7.394496 -1.5420116 1.6029872
-8.4814281 -1.5425085 2.1538892
-8.9783154 -1.5475504 2.6517687
-9.1678905 -1.5436901 2.6648681
-9.0852852 -1.5508709 2.6992328
-8.8857765 -1.5471717 2.6854784
-9.1112785 -1.5478156 2.5406575
-9.1379414 -1.5478649 2.5174384
-9.1761246 -1.5482056 2.5451317
-9.0274811 -1.5541022 2.3744659
-8.9930859 -1.5535399 2.2919033
-9.112812 -1.5517596 2.3001754
-9.1898518 -1.5549005 2.3455741
-8.9669666 -1.5499941 2.0896387
-9.0137691 -1.5473309 1.9926389
-8.2583513 -1.5376887 2.4818294
-8.1386089 -1.541968 2.4735475
-8.5376682 -1.541868 2.5010905
-8.1647415 -1.5430142 2.6758235
-8.1248245 -1.545275 2.6730607
-8.1600151 -1.5428089 2.6354024
-8.1702213 -1.5476924 2.5959921
-8.874258 -1.6244367 2.0829387
-8.5894947 -1.6238796 2.3239071
-8.9339466 -1.54935 1.9871215
-8.8885632 -1.5444338 2.0642011
-9.3853493 -1.5436866 1.2564859
-9.6219654 -1.5552869 1.3128664
-9.6192398 -1.5504491 1.352793
-9.704443 -1.5706053 1.2784014
-9.018878 -1.6170056 1.9125195
-9.0612335 -1.6247599 1.9154109
-9.1231728 -1.6237116 1.5989265
-7.7995939 -1.6108778 0.40750414
-7.7711883 -1.5525615 0.82427579
-7.7601862 -1.5507065 0.98390561
-7.5206199 -1.5470684 0.89014173
-7.5634451 -1.5443451 0.93025666
-7.4811697 -1.6127733 1.2450659
-7.6982613 -1.5492555 1.300402
-9.8815098 -1.5519909 2.4910569
-10.005153 -1.5574797 2.441931
-9.9734974 -1.5592558 2.3194537
-9.8963985 -1.5661147 2.2740078
-9.8393116 -1.5630938 2.2299857
-9.8565092 -1.5633754 2.2712667
-9.8365574 -1.5632538 2.2698913
-10.096928 -1.6322311 2.2675343
-9.3797169 -1.5567398 3.0803902
-9.3394966 -1.5515212 3.0826471
-8.9201736 -1.5477332 2.7680402
-8.8431034 -1.5495924 2.7226191
-9.1036301 -1.5898582 3.0110817
-9.692771 -1.5577333 2.9015157
-9.6356831 -1.5547119 2.8574924
-9.5957508 -1.5594728 2.8547173
-9.2698441 -1.5504472 2.9299932
-9.3879948 -1.5537574 2.9606872
-9.498085 -1.5549636 2.5272307
-9.5035934 -1.5546421 2.4474208
-9.4155512 -1.5496449 2.5616508
-9.4950142 -1.5501459 2.5721467
-9.4870968 -1.5506085 2.686872
-9.6150732 -1.5508448 2.575417
-9.4389153 -1.5533524 2.8038211
-9.4843435 -1.55077 2.7267766
-9.4937992 -1.5511822 2.8076191
-9.3563671 -1.5505341 2.8382313
-9.8091145 -1.547366 2.6690147
-9.8063316 -1.5525272 2.7088978
-9.7636881 -1.5499487 2.7460613
-9.7065706 -1.5519279 2.7020147
-9.6783714 -1.5497912 2.820364
-9.5613976 -1.5514101 2.7721879
-8.46068 -1.5384954 0.71154028
-8.778635 -1.5205728 1.33499
-8.8142462 -1.5461305 1.9788729
-8.8954487 -1.5440307 1.9644396
-8.980751 -1.5466883 1.890126
-8.8968105 -1.5464491 1.944474
-9.2821121 -1.5568463 -0.15403467
-9.348135 -1.5606327 0.050985157
-9.3453808 -1.5607934 0.090888858
-9.7099495 -1.5702829 1.1985922
-9.6249475 -1.5451158 1.270511
-9.5930204 -1.5644028 1.150449
-8.7082624 -1.5521045 1.7710558
-9.4746513 -1.5661799 1.7036093
-9.4966545 -1.5674675 1.9657449
-9.4141064 -1.5646483 2.0001547
-9.4526186 -1.5674691 2.0228469
-9.3728247 -1.5644894 2.0173519
-9.2779484 -1.5596644 0.48719364
-9.3261442 -1.5544219 0.37025613
-9.0620651 -1.5367789 -0.44980967
-8.9950018 -1.5336989 -0.49452198
-4.7434216 -1.4949794 1.9146892
-4.90593 -1.4802946 1.8864068
-5.0142169 -1.5248543 1.7337092
-5.2264786 -1.5298836 1.5683526
-5.1837358 -1.5273944 1.605408
-5.1096282 -1.5318135 1.5198891
-5.1552391 -1.529153 1.4429545
-5.1624069 -1.5234873 1.9047171
-4.9457927 -1.4929113 1.8892441
-5.1751804 -1.5278459 1.7251018
-5.2150774 -1.5279859 1.727954
-5.2207747 -1.5301844 1.6481483
-5.2621446 -1.5302281 1.6311064
-3.7076766 -1.5029356 4.5761065
0.26825285 -1.5434947 2.7818809
0.51058483 -1.5391061 2.8038023
0.65212059 -1.547785 2.5524218
0.53547335 -1.540368 2.6013548
-4.0541449 -1.4354949 4.7861938
0.83891964 -1.4178572 2.9002452
-2.9673562 -1.5205125 4.2682967
-2.733557 -1.5214605 4.1716361
-2.704828 -1.5331814 4.0091753
-2.8161287 -1.5292416 4.1373215
-2.6485655 -1.4363236 4.2461543
-3.2366667 -1.5414758 3.8908796
-2.5053504 -1.5271252 3.9951549
-2.5099046 -1.5323284 3.9586132
-2.54248 -1.5199786 4.0378933
-2.5536525 -1.5319104 3.8782403
-2.6324718 -1.5350257 3.927371
-2.5983465 -1.5371011 3.8446817
-3.0723362 -1.5396596 3.9147248
-3.0612068 -1.5371141 3.544821
-2.3457847 -1.5187789 3.9839511
-1.9135182 -1.5302815 3.4676564
-1.4962163 -1.487186 3.6851029
-1.5746994 -1.4872124 3.7084827
-8.3566656 -1.5432413 5.0671892
-8.4818392 -1.5486581 4.9955854
-8.3594255 -1.5405593 5.027297
-8.3649464 -1.5351943 4.9475117
-8.9922915 -1.5650932 5.1509085
-8.7046452 -1.576314 5.2513561
-8.6833277 -1.5530636 4.275301
-8.8071632 -1.5693407 4.404068
-8.8869572 -1.5723205 4.409564
-8.7351818 -1.5537301 4.3590674
-8.7466192 -1.5702323 4.1192179
-8.3814468 -1.5291028 4.7081051
-8.5809717 -1.5304068 4.7218237
-8.7006102 -1.5436885 4.7299929
-8.633069 -1.5752469 5.126152
-8.5244446 -1.5562367 4.9583864
-8.3731976 -1.5321486 4.8278074
-8.3277721 -1.5372523 4.90485
-8.2878819 -1.5344912 4.9021196
-9.504982 -1.5496378 3.0088749
-9.052084 -1.5729572 4.3407669
-9.1766005 -1.5669973 4.8027229
-9.2083015 -1.5628034 4.9252081
-9.2501087 -1.5604401 4.9005289
-9.2659302 -1.5604808 4.8890867
-9.2274847 -1.56653 4.6458464
-9.4648361 -1.4607795 4.7027493
-9.9171314 -1.5426377 3.7189724
-9.6783056 -1.5549444 3.983108
-9.7781239 -1.5455462 3.9900339
-9.7484932 -1.5559121 3.5468962
-9.7429562 -1.5612345 3.6266842
-9.7202358 -1.5637754 3.6652014
-10.053242 -1.5648894 3.4877033
-9.9308462 -1.5518311 3.519403
-9.6383591 -1.5622051 3.9803205
-9.4621887 -1.5672119 4.2087145
-9.5502453 -1.569708 4.0944958
-9.3906269 -1.5687485 4.0834823
-10.526619 -1.5777045 0.6935913
-10.446867 -1.5672252 0.68812859
-10.452045 -1.5904564 1.410111
-10.078083 -1.5632074 1.3844098
-9.8772202 -1.5497432 2.5534201
-9.853056 -1.5672866 2.0304394
-9.8757477 -1.5697467 1.9919
-9.8255301 -1.5688221 1.8481025
-9.8454819 -1.5689422 1.849479
-10.398636 -1.5726227 1.9678344
-10.470409 -1.5335876 2.0932307
-9.7172642 -1.5566128 3.7452164
-7.8489423 -1.5291244 4.8719511
-7.0819588 -1.5568192 5.3427429
-7.1727738 -1.5536019 5.1886387
-7.0838056 -1.5575252 5.500803
-6.8769488 -1.5516651 5.4088402
-7.1906776 -1.5581748 5.5106077
-7.2819147 -1.5460199 4.9531546
-7.2154298 -1.553488 5.1514816
-7.1167903 -1.5478417 5.0219774
-7.2209339 -1.550501 5.0716887
-7.5084629 -1.5509366 5.1566601
-7.1741743 -1.5731945 4.0534716
-6.8025398 -1.5511185 4.1607552
-6.2825046 -1.5282288 4.7264967
-6.2481041 -1.5251139 4.6439552
-6.1242828 -1.5362463 5.2768841
-6.0753112 -1.5219227 5.406415
-7.4320569 -1.5073006 4.5226135
-7.4317136 -1.5073234 4.5276031
-7.6094675 -1.5350596 4.8554497
-7.7292132 -1.5308424 4.8637066
-7.7346869 -1.5329777 4.7838831
-7.4897528 -1.5342778 4.8472185
-6.0341644 -1.5182502 4.8397579
-9.4786987 -1.5687456 3.9692743
-9.4842072 -1.5684232 3.8894656
-9.5585079 -1.5692257 3.974781
-9.486948 -1.5707611 3.8495495
-9.6128979 -1.5624075 4.0587525
-9.6466064 -1.5642219 3.860595
-8.9812346 -1.5783209 5.3104658
-4.2294321 -1.5507926 3.99614
-5.0956035 -1.43716 5.0813141
-8.3007441 -1.4823848 6.469449
-8.1282978 -1.5667473 6.0537481
-8.1545248 -1.5604185 6.2560558
-8.0387926 -1.5614638 5.6065712
-8.3552113 -1.5762306 5.6683636
-8.1170902 -1.5570881 5.6345301
-8.2742701 -1.5572015 5.4624081
-8.0182114 -1.5424293 5.3245773
-3.2936296 -1.5331125 -1.0399709
-5.0589218 -1.5260205 -1.4761384
-5.1515269 -1.5309848 -1.5096998
-3.6857529 -1.590082 -0.35079914
-3.9655042 -1.4862697 0.23102549
-3.897049 -1.4702399 0.065852225
-5.0855055 -1.500789 0.27028352
-4.897604 -1.5051469 0.65794271
-4.7807341 -1.5046893 0.60955501
-4.7750707 -1.5076239 0.68933928
-4.7493315 -1.4989561 0.4870562
-4.6617193 -1.4965034 0.52095646
-5.0242753 -1.5023451 0.47123808
-4.9943867 -1.5014997 0.42422158
-4.6896143 -1.5053995 0.76349312
-4.6241541 -1.4966388 0.55588549
-4.8175192 -1.5043586 0.090852857
-4.7691379 -1.4999326 0.20774823
-5.2636547 -1.5056854 0.48833686
-6.0075054 -1.5096076 -0.3808552
-5.9903607 -1.5282649 -0.70296991
-6.0302587 -1.5284048 -0.70011866
-4.7688699 -1.4893056 -0.35362852
-4.8115954 -1.4916682 -0.39071131
-4.7660275 -1.4970235 -0.31377113
-4.8465424 -1.4921288 -0.31805837
-5.0954924 -1.5260869 -0.5263195
-5.0994129 -1.5258793 -0.58117986
-6.744689 -1.5318983 -1.3566048
-7.0324607 -1.5418036 -1.4565496
-9.5875835 -1.5522255 1.2303144
-9.9562378 -1.5787432 0.53393364
-9.3040819 -1.5607107 0.68947166
-9.4953136 -1.5673931 0.82292891
-9.487093 -1.5603765 0.9426772
-9.7389517 -1.5511686 1.361053
-9.6935539 -1.5487508 1.4381192
-9.7960701 -1.5491903 1.4050972
-9.872941 -1.6271517 1.4100887
-9.8160353 -1.5468088 1.4064865
-10.064484 -1.5340145 1.5840676
-10.020363 -1.5490152 1.6411035
-9.1073837 -1.5468496 0.63585597
-9.1817284 -1.540152 0.72120523
-9.0675087 -1.5416101 0.63312441
-9.1046867 -1.537012 0.67580414
-9.1761913 -1.545475 0.80099291
-9.217165 -1.5400105 0.64346004
-9.773922 -1.570478 1.7242472
-9.7484741 -1.5681813 1.8026915
-9.9735165 -1.5591789 1.7380686
-9.8888054 -1.5776147 0.93023801
-9.8895645 -1.5638635 1.2110132
-10.060113 -1.5791785 1.0623422
-9.8565063 -1.5731435 0.52707237
-9.8454189 -1.5862881 0.6866343
-9.1775513 -1.5454711 1.3624229
-9.1417923 -1.5424894 1.2998242
-9.1505709 -1.5419765 1.172627
-9.1830873 -1.5401487 1.282635
-9.2931499 -1.5463558 0.84915626
-9.3990498 -1.5553814 1.0569065
-9.9699802 -1.5829365 0.33438668
-9.9205828 -1.5606847 -0.10998291
-6.3264356 -1.6037726 -2.2463281
-6.4393721 -1.5195436 -2.1401124
-6.4083519 -1.4544395 -1.7008457
-6.3139977 -1.5297397 -2.0688584
-6.4169612 -1.5569109 -1.2596818
-7.6050286 -1.5041991 -1.4122975
-7.6457491 -1.481899 -1.4194219
-6.8709106 -1.5486951 -0.68020034
-6.7488651 -1.5322255 -0.85003459
-6.7516418 -1.5314218 -0.99519944
-7.5262718 -1.485967 -2.1981785
-8.1137571 -1.485413 -1.2292572
-8.1468582 -1.5439845 2.3538227
-8.1179409 -1.5481011 2.1914277
-7.3795719 -1.5344845 2.3037949
-7.4251676 -1.5368243 2.226841
-7.5001092 -1.5431305 2.4294729
-7.422307 -1.5394728 2.2667284
-7.4137425 -1.5424139 2.3864124
-7.505619 -1.5428077 2.3496635
-8.7617855 -1.5692703 3.3183589
-8.573266 -1.5699258 3.1449618
-8.6338663 -1.5590334 3.4298575
-8.4990654 -1.5516235 3.0597236
-8.5941277 -1.5470178 3.0262077
-8.2692041 -1.5596976 3.4848766
-8.2348366 -1.554135 3.4023356
-8.1577396 -1.5609931 3.3568914
-8.1921911 -1.5515568 3.4394991
-7.9101219 -1.5475373 3.4601409
-7.7903514 -1.556818 3.4518375
-7.9045839 -1.5528597 3.5399284
-7.6610126 -1.5841516 3.5806284
-8.2711601 -1.5408102 2.0416503
-8.4509344 -1.5517129 2.0139182
-8.3601646 -1.5418783 2.1680748
-8.2684059 -1.5409713 2.0815556
-8.3257294 -1.5512383 1.5040843
-9.0892982 -1.5682052 3.2206812
-8.9242001 -1.5625685 3.2894993
-9.1125774 -1.5869118 3.462786
-9.0356655 -1.5612708 3.4174843
-9.8386393 -1.5618453 1.9492757
-9.8117714 -1.5671282 2.0476375
-9.8145123 -1.5694665 2.0077212
-9.851676 -1.5673672 2.0503907
-9.7014227 -1.5509417 2.4861507
-9.6549778 -1.5510852 2.5781708
-9.7230825 -1.553461 2.462575
-9.5255718 -1.5633514 2.1281395
-9.5282974 -1.5681909 2.088212
-9.7168446 -1.5625341 2.2616301
-9.7422762 -1.5673327 2.1831746
-9.7340698 -1.5578171 2.3029344
-9.5145969 -1.5564971 2.2877917
-9.2026062 -1.5062913 -0.74070358
-8.7122402 -1.6515341 -0.61976671
-7.9376807 -1.5580417 0.15412176
-6.1262112 -1.5297363 -1.1172465
-6.0494232 -1.5268463 -1.1652833
-6.0464125 -1.5295762 -1.1229048
-6.0893135 -1.5319254 -1.1624821
-6.3001442 -1.5239542 -1.3078884
-6.1679678 -1.5286891 -1.3172904
-6.2545805 -1.5268099 -1.2309337
-6.1003251 -1.5454276 -1.8835931
-6.0576153 -1.533066 -1.8464551
-6.0946941 -1.5283635 -1.8036985
-4.8257985 -1.5058044 -3.2075915
-4.822937 -1.5210376 -3.1677818
-4.714283 -1.5157278 -3.2248719
-9.8840618 -1.5690316 0.12803477
-9.9040279 -1.566651 0.12942326
-9.9804401 -1.5610452 -0.1058526
-9.9976368 -1.5613264 -0.064571738
-9.9982243 -1.5775744 0.21607083
-9.9328461 -1.5800364 0.2917411
-7.941823 -1.5528772 0.67567092
-7.6061387 -1.5575582 -0.30685502
-4.2444363 -1.5254576 -3.1379466
-4.1846228 -1.5270286 -3.2140746
-4.2245183 -1.5269656 -3.2111833
-4.7262273 -1.4418645 -3.4951742
-4.9655013 -1.5016778 -3.126775
-4.9027076 -1.5109133 -3.1619418
-4.3936567 -1.5159487 -3.3317118
-4.6607289 -1.5055783 -2.7875037
-5.1052661 -1.5185217 -2.836246
-5.0396285 -1.5097735 -3.0413599
-0.49980879 -1.5191648 2.5203691
-0.18959427 -1.5287577 2.3769307
0.26616049 -1.5374224 2.2204857
0.59420109 -1.5661703 2.315975
-0.47040987 -1.5176145 1.8363072
-0.53537416 -1.5187489 2.041682
0.68693209 -1.5340135 1.9481897
-1.38972 -1.5142087 -4.1667461
-1.6705737 -1.4340535 -4.1683846
-1.3129673 -1.4339309 -4.2143984
-1.2346253 -1.4338009 -4.240139
-1.3126254 -1.4739645 -4.2096758
-0.99064493 -1.5193914 -2.5832229
-1.1016376 -1.5099045 -2.4548073
-1.5521002 -1.5332915 -2.5827219
-1.5891089 -1.5359621 -2.5399499
-1.4410679 -1.5227803 -2.711024
-1.1334801 -1.5273459 -2.8937631
0.52047873 -1.4657934 -0.86687326
0.56439734 -1.4566226 -0.74977458
0.32002163 -1.5006292 -1.2779636
0.060090065 -1.5211616 -1.5397267
0.17391396 -1.5007091 -1.6281908
0.13108635 -1.5004247 -1.6651461
0.048357487 -1.5076176 -1.6992106
0.52140331 -1.511304 -0.78701246
0.46855593 -1.5059705 -0.8231169
0.37269974 -1.503615 -1.1643834
0.42120838 -1.504419 -1.0527076
0.62081814 -1.4274713 -0.63348651
0.60827637 -1.4674531 -0.63280332
0.59779835 -1.4671816 -0.67212701
0.66713047 -1.5296274 0.084413528
0.47066832 -1.5420918 0.13921726
0.35101509 -1.5369165 0.14824823
0.029824257 -1.5303737 -0.38915312
-0.0040602684 -1.5283326 -0.30636466
-0.24664068 -1.530769 -0.52157402
-0.23785448 -1.5265648 -0.40186465
-0.29226255 -1.5246434 -0.40501201
-0.013056278 -1.5275558 -0.42602479
-0.27726412 -1.5234405 -0.20556384
-0.31715679 -1.5258821 -0.20258093
-0.22907257 -1.52486 -0.28217274
1.3839397 -1.5182561 1.6150897
1.4189882 -1.4433082 1.6129434
1.3751383 -1.4174793 1.4960663
1.132586 -1.5343648 1.4734294
0.43892002 -1.5236255 0.78354484
0.52768135 -1.5295209 0.89717388
0.47580242 -1.5259243 0.74064177
0.4050107 -1.5340852 0.86625284
0.47279978 -1.528165 0.70073974
0.59246111 -1.5283408 0.69174176
-0.29316473 -1.5279562 0.116512
0.24932814 -1.5482957 0.39650172
0.37501717 -1.5339903 0.46737176
0.32103157 -1.5318226 -0.2506023
0.24125147 -1.5342042 -0.24461919
0.010043144 -1.5279436 0.4146252
-7.8310914 -1.6448365 -0.99630773
-7.5712423 -1.5469459 -1.1376566
-0.67449617 -1.5131882 0.75328028
-1.0590951 -1.5132208 -0.6624105
-1.175878 -1.528302 -0.61383736
-1.3167439 -1.5302792 -0.995538
-1.3306696 -1.5274385 -1.0837775
-1.4075303 -1.5275822 -1.0380338
-3.2192745 -1.5001357 1.1404465
-3.1193779 -1.5033726 0.8526355
-3.3474712 -1.494722 1.0292656
-3.5070753 -1.4925412 1.040598
-1.3662348 -1.5144711 1.1649803
-2.0396628 -1.5278128 0.73298293
-1.9880664 -1.5289333 0.8896243
-1.9364655 -1.527554 1.0462825
-2.0162616 -1.5324324 1.0521015
-2.0191824 -1.5296667 1.0122266
-1.3984175 -1.5115563 0.72616786
-1.36145 -1.5113525 0.68334997
-1.2699718 -1.5175353 0.83703274
-1.233005 -1.5173308 0.79421484
-1.3863494 -1.5126505 0.89072251
-1.1220994 -1.5142207 0.66577655
-1.0423088 -1.5118424 0.65994042
-0.99949622 -1.5146687 0.69689012
-1.2459962 -1.5104889 0.51445585
-1.510412 -1.5210204 0.29312873
-1.7351449 -1.5244769 0.51012981
-1.5297933 -1.507814 0.5753963
-2.064419 -1.5243702 2.5162392
-1.8679333 -1.5243274 2.4615316
-1.9018924 -1.5222731 2.5442896
-2.0304558 -1.5239246 2.4334974
-1.9714305 -1.5298036 2.1483009
-1.6935637 -1.5307024 2.6490939
-2.1631529 -1.5209649 2.8068793
-2.2026732 -1.5209547 2.8148293
-2.2830048 -1.5183295 2.813292
-2.3199358 -1.521033 2.8561304
-2.3199358 -1.5210317 2.8561296
-2.3598292 -1.5234916 2.8590798
-2.4595935 -1.5082934 2.9925425
-2.0509648 -1.5262034 3.2372255
-1.9682281 -1.5315253 3.2711585
-1.8914237 -1.5388623 3.2252967
-1.8057117 -1.5369297 3.2991621
-2.210525 -1.5260423 3.2490802
-2.1336899 -1.513379 3.2033393
-2.3555005 -1.5206165 2.3774438
-2.3023908 -1.5185108 2.0125127
-2.4279947 -1.522904 1.9415947
-2.2804184 -1.5157937 1.9707851
-2.3422768 -1.5159702 2.0154908
-2.7538249 -1.51358 2.2518301
-2.8394258 -1.5010072 2.177866
-3.0825846 -1.5087016 1.3713105
-2.9000497 -1.5169953 1.1177123
-2.9711747 -1.5109782 1.4654771
-2.7769384 -1.5098517 1.9326789
-2.6913576 -1.5149246 2.0066733
-2.7855978 -1.5118905 1.8129823
-2.8567431 -1.5050861 1.9384751
-2.7682867 -1.5053122 2.0523839
-2.9336727 -1.4954733 1.9841855
-2.8053133 -1.4980825 2.0951972
-2.7653983 -1.5054661 2.092279
-3.2934141 -1.500731 1.2259037
-3.1881406 -1.5050291 1.5793228
-3.1139939 -1.5094341 1.4938376
-3.1111672 -1.5071515 1.5337515
-1.319943 -1.5083007 1.7390327
-1.3390965 -1.514961 2.0211926
-1.2741113 -1.4988258 1.8159082
-1.3878691 -1.5091921 1.9045173
-1.3789821 -1.5124201 2.0241704
-1.5016158 -1.5120569 1.9931723
-1.1204829 -1.5010014 1.7242588
-0.99489999 -1.5116079 1.7950864
-2.0495994 -1.5230852 2.7157006
-2.192318 -1.5342461 1.3858695
-2.2565875 -1.5290368 2.0892677
-2.2285476 -1.5256048 1.9267616
-1.5798237 -1.5328373 2.5604088
-1.7587519 -1.5203584 1.771559
-2.7913423 -1.5240835 1.7331409
-2.8711262 -1.5268178 1.7389073
-2.7485571 -1.5241205 1.7701482
-2.6658988 -1.5165399 1.8042976
-2.5994074 -1.5217714 1.7938931
-2.4797373 -1.521892 1.7850022
-2.5964408 -1.5195148 1.833797
-2.5934818 -1.5222579 1.8736718
-2.9059272 -1.4760216 -3.8328302
0.26706028 -1.5221546 -0.96852779
0.35284281 -1.517791 -0.89472151
0.38450766 -1.5046362 -1.0073293
0.48058558 -1.5295581 -0.26258302
0.32403469 -1.5295817 -0.2106992
0.64614201 -1.5253116 -0.19477594
-5.099618 -1.5392292 2.7824221
-5.0910616 -1.5396708 2.9021168
-5.1338191 -1.5371591 2.8650794
-5.0198135 -1.5414574 2.7767093
-5.3846078 -1.5398861 2.722589
-5.2791591 -1.5398411 2.7952552
-5.2563491 -1.5424196 2.8337173
-5.1559286 -1.5376935 2.3453279
-1.6520252 -1.5575726 -3.6366379
-1.965699 -1.5162417 -3.8141215
-2.0055838 -1.4962406 -3.8110926
-1.1570275 -1.4736049 -4.2761154
-0.93688941 -1.5249225 -2.9481013
-1.01668 -1.5247995 -2.9423187
-2.9027667 -1.5366499 -2.4046476
-2.856998 -1.528262 -2.233844
-2.6032426 -1.5287113 -2.1455693
-2.5604551 -1.5290055 -2.1085656
-10.811714 -1.5340639 0.63325423
-10.406948 -1.5694864 0.68536437
-9.9177074 -1.575999 1.0926223
-7.5634298 -1.5566155 -0.81394827
-7.5400968 -1.5593396 -0.69882154
-8.4207191 -1.5482556 0.70874202
-8.0260611 -1.6169378 1.4831347
-8.5142202 -1.5555824 1.6774576
-8.5885353 -1.5538846 1.7627848
-8.5458908 -1.5513061 1.7999477
-8.6050758 -1.5504187 1.523367
-8.5679245 -1.5500165 1.4807098
-8.490941 -1.5368758 1.4353535
-8.3284836 -1.5510776 1.4641788
-7.0375547 -1.5395745 2.6001434
-7.0974507 -1.5286802 2.3237495
-6.869422 -1.5344734 2.7084503
-6.6785045 -1.5283513 2.5745173
-6.8124433 -1.5330219 2.3835633
-7.7189398 -1.538201 2.1639292
-7.5937195 -1.5378036 2.2354779
-7.9836626 -1.6166826 1.4802099
-7.9376736 -1.5531951 1.3169107
-7.8179598 -1.5524753 1.308651
-7.6748528 -1.5530492 1.0581987
-7.6803904 -1.5477263 0.97841066
-7.6721001 -1.5532103 1.0981029
-7.3467588 -1.5420045 1.6396761
-7.4807053 -1.5441725 1.4487323
-7.3625431 -1.5408043 1.5178368
-7.3988476 -1.583479 2.0317941
-7.3969498 -1.5364435 2.1818078
-7.4884081 -1.5762275 2.0150464
-8.8221321 -1.6179922 0.69607073
-4.3588352 -1.5205394 1.6862211
-4.66363 -1.4947444 1.9089127
-4.6298728 -1.5268427 1.0398453
-4.8579483 -1.5306929 1.2164054
-4.6584778 -1.5127939 1.202356
-3.9861069 -1.5241278 1.6358156
-3.7084136 -1.5215447 2.361017
-4.0913959 -1.5098283 1.2824523
-4.1680045 -1.5269939 1.5520661
-4.6196756 -1.5318136 3.0686333
-4.6138978 -1.5321205 3.148423
-4.8345671 -1.5372388 3.1244032
-4.6225638 -1.531659 3.0287368
-4.8687868 -1.5379709 2.645618
-4.8953137 -1.5380886 2.5847452
-4.8744836 -1.5401766 2.5658131
-4.973474 -1.5409086 2.6129525
-5.0312309 -1.5383675 2.6171274
-4.9542799 -1.5404485 2.571516
-4.5774531 -1.5220829 2.5442479
-4.7283363 -1.5355128 2.6754353
-4.6144409 -1.5298535 2.5870011
-4.6942511 -1.5225879 2.5928078
-4.6631279 -1.4820114 2.4703956
-4.108376 -1.5085226 1.0430586
-3.7948296 -1.5124481 0.94059515
-3.7881851 -1.498552 1.1407055
-3.9657164 -1.5318969 0.79220629
-4.3477659 -1.5140021 1.0600072
-4.4635172 -1.5314244 2.455754
-4.4178596 -1.5266149 2.5326762
-4.3010416 -1.5336094 2.484086
-4.3924847 -1.4957302 2.3304338
-4.4658766 -1.5285372 2.9772999
-4.0448999 -1.5240624 2.1447396
-3.9160006 -1.528937 2.8171721
-4.1125884 -1.5296757 2.8715074
-3.9900069 -1.5319784 2.9027293
-5.9005136 -1.5324035 1.676735
-5.9360847 -1.5328555 1.7393769
-5.5385637 -1.5363275 1.6909465
-5.5417175 -1.5366324 1.7512721
-5.5449295 -1.5363226 1.6712987
-5.4971828 -1.5388157 1.7079775
-5.5855274 -1.5411447 1.5939767
-5.6611018 -1.5390871 1.6595941
-5.6938119 -1.5421649 1.7621242
-4.7203455 -1.483707 2.2339022
-5.1224284 -1.5405494 2.4632297
-4.8881831 -1.537348 2.4062662
-4.1449027 -1.525722 1.8712384
-4.2131867 -1.5090706 2.0366657
-4.1617045 -1.522067 2.1933081
-4.2299294 -1.5279152 2.3586454
-4.1102433 -1.5275635 2.3499811
-3.9968824 -1.5221394 1.7001154
-4.2082529 -1.5177853 1.3307995
-5.0769062 -1.5235097 1.9788095
-4.9800849 -1.495826 1.9694182
-4.9202991 -1.4803202 1.9276711
-5.4444985 -1.5392923 1.8847227
-5.4666061 -1.5359253 1.6457024
-5.460145 -1.5360254 1.6652385
-5.4559078 -1.5387021 1.7251322
-5.4145422 -1.5361855 1.7421825
-5.293479 -1.5333065 1.753642
-5.1965923 -1.526419 1.9873548
-5.3533163 -1.5321094 2.03864
-4.8774843 -1.4925293 2.5260999
-4.3213453 -1.5000364 2.2049508
-6.8067217 -1.5305158 3.0248013
-7.4565153 -1.5819566 3.3485029
-7.4567752 -1.5817798 3.3084269
-6.6157961 -1.526895 2.8908577
-6.3963394 -1.5272466 3.155885
-7.4807711 -1.5818244 3.287529
-7.3538361 -1.5480074 3.2242584
-7.3110781 -1.5505196 3.2612953
-7.4350138 -1.5819267 3.3695726
-7.071557 -1.5883026 3.5247488
-7.0004835 -1.5389894 3.1188271
-7.0489464 -1.5361842 3.0019939
-6.3393207 -1.5304939 3.3924105
-7.3538628 -1.5483096 2.6628258
-7.30826 -1.5484681 2.7397702
-7.2812657 -1.550559 2.6950064
-7.2950792 -1.5422535 2.4955165
-7.1144805 -1.5371922 3.2071874
-7.6089821 -1.5599073 -0.34676218
-7.6175394 -1.5594559 -0.46645665
-7.7436714 -1.5589436 -0.52084887
-7.4588552 -1.5501633 0.12110555
-7.5468998 -1.5551583 0.0068753362
-7.6583786 -1.5513622 0.13487202
-7.5291939 -1.5493728 0.20900598
-7.4451132 -1.5459691 0.32065055
-7.4779034 -1.5448345 0.36576545
-7.4423733 -1.5436292 0.36056697
-7.5149803 -1.5351242 0.40855557
-7.5548792 -1.5352648 0.41140711
-7.5593328 -1.5445108 0.408732
-7.6391411 -1.5449911 0.41423881
-7.5937419 -1.5425731 0.49130458
-7.7134418 -1.5457925 0.4995538
-7.579957 -1.5458791 0.69081867
-7.5428066 -1.5454776 0.64816022
-7.5434532 -1.5408661 0.57097912
-6.990562 -1.5383489 1.012691
-6.8708849 -1.5329295 1.004156
-6.9421082 -1.5386597 1.1295339
-7.0104942 -1.5395409 1.2948277
-7.1280489 -1.540074 1.3333067
-7.0190582 -1.5365914 1.1751442
-6.7853918 -1.5304505 1.0782579
-6.9335499 -1.5391117 1.2492273
-6.2847476 -1.5751711 0.78664666
-5.9959903 -1.5271989 0.90153098
-5.9532385 -1.5272084 0.93857634
-6.0985785 -1.5260211 1.1494838
-6.5502868 -1.5261879 2.1242337
-6.5560312 -1.5133921 2.0444865
-6.986289 -1.535329 2.1954708
-6.9948626 -1.5298874 2.0757968
-6.8751602 -1.5319794 2.0672317
-6.7953715 -1.5292081 2.0615375
-5.7950234 -1.5409572 2.030082
-6.2082705 -1.5312785 2.4205828
-6.1370077 -1.5380645 2.2951553
-5.9232559 -1.5381222 2.4803867
-6.3622227 -1.5199181 1.9504015
-7.2418418 -1.5450065 2.5470552
-8.0548401 -1.5417205 2.5254035
-7.694109 -1.5471514 2.5230372
-7.7711639 -1.5477934 2.568449
-7.3803973 -1.542411 2.4212132
-7.0660601 -1.5352994 2.7626064
-7.1230707 -1.5345519 2.5260711
-7.083189 -1.5294166 2.5232391
-7.5097027 -1.5476437 2.8711672
-7.3852205 -1.5438876 2.7853909
-2.9134672 -1.4915477 2.2634726
-3.4008169 -1.5149944 2.1783524
-3.4954426 -1.5102843 0.63866436
-4.1251068 -1.484089 0.24235716
-4.0880332 -1.4862914 0.19961399
-1.791513 -1.5214739 0.83515042
-1.6747563 -1.5188938 0.78649509
-1.6718359 -1.5216589 0.8263706
-2.81459 -1.5172719 1.191851
-2.8174236 -1.5145541 1.1519659
-2.8230755 -1.5191178 1.0721405
-2.5921514 -1.5279857 0.9354099
-1.763329 -1.5229759 0.67264026
-1.5891235 -1.5220451 0.86040992
-2.6351328 -1.529659 0.81675261
-2.6808767 -1.5290679 0.73989516
-2.6603913 -1.5284224 1.0191543
-2.6490307 -1.5267595 0.69884467
-2.8884327 -1.5247397 0.71583486
-2.9625969 -1.510334 0.80137622
-1.8946114 -1.5271411 2.1024985
-1.8901522 -1.5175059 2.1623914
-2.7891202 -1.5192308 1.5509429
-2.8004441 -1.5158596 1.3913611
-2.1191165 -1.5156146 2.3198028
-2.1989098 -1.5255351 2.3256702
-2.4860849 -1.5221448 2.0719936
-3.9227633 -1.4939073 0.26805222
-4.1194553 -1.4795252 0.32218277
-4.0424986 -1.4716473 0.27666613
-4.2248244 -1.5933512 0.52954125
-4.347353 -1.5933735 0.4981299
0.21206856 -1.5241017 -1.1097355
0.052497387 -1.526509 -1.0980036
-3.4122281 -1.5190891 -0.45001292
-3.4606299 -1.5110153 -0.56683958
-3.5460694 -1.5232394 -0.64104843
-3.9994354 -1.501158 -0.2478624
-1.8197925 -1.5287887 -2.402873
-1.7458029 -1.5384467 -2.4885035
-1.7828121 -1.5411167 -2.4457302
-5.1997519 -1.5388463 -1.9073315
-5.2280226 -1.55417 -2.3064206
-5.3034344 -1.5605937 -2.5216632
-5.430541 -1.5309172 -2.0513237
-5.2964935 -1.5602 -2.1411922
-5.6087561 -1.5246674 -1.8782461
-5.6041336 -1.449522 -2.8004875
-6.129962 -1.5296223 0.14915377
-6.2183228 -1.5269504 0.035173476
-6.2211742 -1.5268015 -0.0047239065
-5.9646654 -1.5293618 0.21754274
-7.5576844 -1.5578693 -0.1900121
-7.0732431 -1.5439898 -0.14438766
-7.1929302 -1.546909 -0.13584208
-6.9563627 -1.5559193 -0.19289106
-6.959239 -1.548269 -0.23275799
-6.9621072 -1.5431185 -0.27263576
-6.6600285 -1.5358412 0.026615202
-6.6686077 -1.5278901 -0.093048275
-6.674118 -1.5325992 -0.17037123
-6.6792836 -1.5326064 -0.17250764
-7.4921389 -1.5438261 0.72770911
-7.3810024 -1.5429554 0.59945953
-7.3844042 -1.5377768 0.55210084
-7.2670851 -1.5197359 0.51119816
-7.4258623 -1.5420971 0.60000718
-7.4351616 -1.5423443 0.40282276
-5.6368504 -1.5356824 1.437258
-5.8363981 -1.5343932 0.32866195
-5.8734441 -1.5346842 0.37141109
-5.6141791 -1.5073965 0.63369721
-6.4292116 -1.5140388 1.0127558
-6.3095093 -1.5161192 1.0041906
-5.8848352 -1.5235727 1.3347248
-6.0501237 -1.5263308 1.2663249
-6.3793211 -1.524034 1.7109944
-6.2951989 -1.524115 1.7650816
-6.3322358 -1.526906 1.8078219
-6.4576344 -1.5270259 1.7365805
-6.8224134 -1.5304855 1.6824399
-6.5389118 -1.5245788 1.7224028
-6.6343555 -1.5216844 1.5086204
-6.0216675 -1.5233448 0.54246038
-4.6018696 -1.4963844 0.51671189
-4.444561 -1.5028559 0.82632715
-5.1787534 -1.5329121 1.1137779
-5.1702013 -1.5330832 1.1632926
-4.8664622 -1.5150404 1.0967915
-4.7496166 -1.4995829 1.0484868
-4.990057 -1.5016491 0.95002139
-4.9843516 -1.5019505 1.0298183
-5.0345745 -1.4997073 0.98849523
-4.5447383 -1.5027467 1.6755557
-4.5048356 -1.5051666 1.6727122
-4.427845 -1.517289 1.6270838
-4.5217943 -1.5163602 1.433248
-5.4774365 -1.5351131 1.4233565
-5.9019651 -1.5176698 1.0953561
-5.8278732 -1.5170894 1.0098584
-5.7822862 -1.5122498 1.0868217
-5.5884943 -1.5137491 0.99275684
-5.953198 -1.5319537 1.4999888
-5.762949 -1.5366058 1.5665762
-5.8734102 -1.5291731 1.4942956
-5.793622 -1.5263929 1.4886017
-5.7993345 -1.5235931 1.4088159
-5.5538831 -1.5362216 1.6519405
-5.0999274 -1.5078278 0.63217795
-5.0600314 -1.5052489 0.62936205
-5.0971017 -1.5055463 0.67209011
-4.998621 -1.4986987 0.8303383
-4.3461671 -1.4928297 -0.047782362
-4.424202 -1.4906249 -0.017171741
-4.4354978 -1.5047545 -0.17685241
-4.4612722 -1.4909221 0.02555716
-4.6790357 -1.4949756 0.24148458
-5.5030499 -1.5040258 0.5054571
-5.6341782 -1.4963439 0.35445073
-5.5576072 -1.4908952 0.3038823
-5.4403262 -1.5075886 0.82177901
-5.3818393 -1.5306367 1.6396618
-5.3020515 -1.5278646 1.6339681
-5.6169667 -1.5194899 1.1551802
-5.5656352 -1.5274512 1.3118904
-5.4117312 -1.5315915 1.2206684
-5.3918738 -1.5311643 -0.74576557
-5.3434281 -1.5289747 -0.62891245
-5.3804812 -1.5267656 -0.5861541
-5.3820858 -1.5266813 -0.60859609
-5.5714474 -1.5179163 -0.45216131
-5.7794609 -1.5281664 -0.55763638
-5.6535358 -1.5289561 -0.67206168
-5.1183891 -1.492129 -0.28394085
-5.1706672 -1.5073872 -0.36532962
-5.1055102 -1.5441473 -2.2749536
-5.2052522 -1.5543488 -2.2679362
-4.8802652 -1.5400804 -2.4914134
-4.75774 -1.5375574 -2.4599891
-4.3615942 -1.5240415 -2.5281143
-4.3700829 -1.5233892 -2.6478114
-4.2902837 -1.5232283 -2.65347
-4.3160334 -1.5243977 -2.4511454
-3.5149307 -1.5198905 -3.0292554
-3.5947218 -1.52505 -3.0236242
-3.4351263 -1.5222298 -3.0349278
-4.0802546 -1.5154922 -3.0843744
-4.0763807 -1.5057912 -3.0294571
-3.0021462 -1.5390422 -2.5845177
-3.447 -1.5326136 -2.0717175
-3.3756902 -1.5318003 -2.1970739
-3.1278012 -1.5319744 -2.0943542
-3.5301769 -1.5463097 -0.98316383
-4.6120653 -1.5112677 -0.40497088
-4.5153179 -1.4924144 -0.17112362
-4.8543129 -1.4990302 -0.42782211
-5.0340095 -1.4959533 -0.13435292
-5.1098166 -1.4975793 -0.16426778
-5.144002 -1.5005199 -0.08163029
-4.9196291 -1.5296509 -0.78426611
-4.2300272 -1.5216631 -0.67273045
-4.6499701 -1.5293332 -0.76329064
-4.7000318 -1.4908022 -0.51390994
-4.476491 -1.5240985 -0.75551915
-4.7586136 -1.5269396 -0.77562535
-4.7158794 -1.5295781 -0.73856986
-4.8440657 -1.5316639 -0.84979117
-4.8027601 -1.5291933 -0.83265376
-4.9077573 -1.5283989 -1.0056611
-4.8597045 -1.5287486 -0.92886913
-4.3592658 -1.5286673 -0.79894292
-4.3567801 -1.5313579 -0.7640487
-4.3952866 -1.5215467 -0.74121106
-4.3310299 -1.5301896 -0.96637475
-4.6205888 -1.6088272 -0.84601033
-4.5817504 -1.5272983 -1.108979
-4.8978267 -1.5325286 -1.6079028
-4.8409476 -1.5337547 -1.3713377
-4.9263973 -1.5384786 -1.4455054
-4.9207416 -1.5364137 -1.3656931
-5.1005917 -1.5324017 -0.79150093
-5.0036683 -1.5294844 -0.83845925
-5.1260624 -1.5304439 -1.1505923
-5.228632 -1.5304242 -1.1834186
-5.1915574 -1.532627 -1.2261608
-4.9066005 -1.5325029 -1.1661689
-4.9948859 -1.5345097 -1.2802221
-5.4138575 -1.5253501 -1.2504557
-5.4053674 -1.526002 -1.1307577
-5.5791211 -1.5227342 -1.3189223
-5.4851675 -1.5261632 -1.1250987
-5.9639664 -1.5246215 -1.0911312
-5.2484455 -1.5264007 -1.4626987
-4.9235673 -1.5386968 -1.4056065
-5.1600132 -1.5328313 -1.6294112
-5.1684957 -1.5371784 -1.7491362
-4.7523651 -1.5386212 -1.8187587
-5.1714683 -1.531024 -1.508285
-5.1543527 -1.5332668 -1.549613
-5.2511206 -1.5396208 -1.7833908
-3.1385577 -1.5380932 -0.5497309
-2.4495339 -1.5341096 -0.48035455
-2.3814468 -1.5306715 -0.64575875
-2.6626 -1.5319178 -0.62355602
-2.7452295 -1.531859 -0.65779603
-2.6824136 -1.5278939 -0.90283704
-2.5933831 -1.5232973 -0.90297937
-2.5534933 -1.525859 -0.90588593
-2.6776712 -1.4896603 -1.5132985
-2.8120427 -1.507372 -1.0338871
-3.139714 -1.5173576 -1.1310045
-2.349232 -1.5185857 -0.20684916
-2.6600578 -1.5302626 -0.022211432
-2.8595731 -1.5206612 -0.0080088973
-2.7826028 -1.5202847 -0.053565621
-2.4085522 -1.5278183 0.078196943
-0.89871049 -1.5236403 -1.8680096
-1.4797971 -1.5266055 -1.5852826
-1.8105478 -1.5376791 -1.721801
-1.1312017 -1.5252448 -1.0983938
-1.1612427 -1.5271268 -0.41436195
-1.1495295 -1.5231866 -0.25476122
-2.0747597 -1.5316018 -0.94061255
-2.1146548 -1.5315403 -0.93772089
-2.2372417 -1.536121 -0.96896887
-2.2482171 -1.5335312 -1.0165229
-2.2083192 -1.5310931 -1.0194336
-2.1655006 -1.5314194 -0.98246825
-2.3580348 -1.530292 -0.32660604
-1.9151738 -1.5293502 -0.95216441
-2.07986 -1.5295721 -0.90851998
-2.5748827 -1.5311651 0.61335862
-2.5692277 -1.5291001 0.69317049
-1.680927 -1.5276839 -0.93776691
-1.3500776 -1.5267321 -0.80159295
-1.7255983 -1.5282412 -0.45319414
-1.6827693 -1.5235664 -0.41619682
-1.5806556 -1.5271599 -0.66435909
-1.8170862 -1.5270581 -0.60690951
-1.5037966 -1.5270172 -0.71010363
-1.5865185 -1.5316311 -0.74417543
-1.4891629 -1.5258427 -0.51062691
-1.8200121 -1.5267935 -0.64680183
-1.4950132 -1.5253128 -0.59041083
-1.5155039 -1.5284578 -0.86968672
-1.817682 -1.4726894 -3.9850032
-1.7465777 -1.4643973 -4.1104279
-3.1102495 -1.5345265 -2.9778349
-3.0304627 -1.5268666 -2.9834523
-2.879353 -1.5258944 -3.1144683
-2.9576735 -1.5197324 -3.162576
-2.8918016 -1.544386 -2.8065441
-2.8281169 -1.5366849 -2.9577577
-3.1216333 -1.4936556 -3.1372092
-3.0845633 -1.4933587 -3.1799383
-3.2669969 -1.5109533 -3.2804801
-3.4178867 -1.5079083 -3.3568809
-3.3583479 -1.5073993 -3.434262
-3.275671 -1.5102558 -3.4001648
-3.3380835 -1.5102485 -3.3625534
-4.1705885 -1.5204889 -2.6619456
-4.1883864 -1.5178019 -2.7007692
-4.1335244 -1.5176913 -2.7046597
-4.0678501 -1.5314442 -2.9098983
-4.1533446 -1.508669 -2.983912
-3.811476 -1.5297703 -2.6874673
-3.7260134 -1.5325447 -2.6133411
-3.4951122 -1.5264134 -2.749989
-3.5720901 -1.5217913 -2.704402
-3.6766949 -1.5154369 -2.9776561
-3.5035906 -1.5332596 -2.8697274
-3.7429957 -1.5287404 -2.8527234
-4.1793633 -1.5204631 -2.2202108
-4.2478428 -1.5214932 -2.0549548
-4.0225906 -1.5224258 -2.2714429
-4.6437054 -1.534384 -2.5482614
-4.729197 -1.5141081 -2.6222899
-4.3927231 -1.5216483 -2.9670038
-4.4897709 -1.5311279 -2.6393642
-4.6094894 -1.518868 -2.6308069
-4.6495667 -1.5189348 -2.6304705
-4.6949649 -1.5085936 -2.7048895
-4.4470539 -1.523766 -2.602253
-4.4326577 -1.5209589 -3.3163815
-4.4638753 -1.5190952 -3.1937921
-4.5037704 -1.5190322 -3.1909006
-3.443624 -1.5165777 -3.1545982
-3.3581853 -1.5043523 -3.0803888
-3.4418597 -1.5142139 -3.1296461
-3.4787531 -1.5145241 -3.0844235
-3.9082637 -1.5236241 -2.9211743
-3.8255448 -1.5175869 -3.2400422
-3.7856503 -1.5176479 -3.242934
-3.7706895 -1.5176712 -3.2440178
-3.8426089 -1.5248766 -3.1263442
-4.3842382 -1.5198009 -2.8472934
-3.8417718 -1.5212398 -1.9835036
-3.3100281 -1.5380524 -2.402271
-3.387002 -1.5359299 -2.356698
-3.694891 -1.5299398 -2.1744239
-3.7662015 -1.5307534 -2.0490675
-2.5641129 -1.4962243 -3.7705438
-1.4569106 -1.5608644 -3.4821308
-2.2332206 -1.5370061 -2.5734887
-2.0678668 -1.5427177 -2.5052943
-2.0135007 -1.5364439 -2.3086698
-1.9394972 -1.5386024 -2.3942552
-2.1308854 -1.5382968 -2.8215456
-2.8379974 -1.524917 -3.1712787
-1.7691364 -1.5484824 -3.8687112
-1.8830233 -1.5390081 -3.7801683
-1.6465602 -1.5562496 -3.8375566
-2.5184236 -1.4917538 -3.6936185
-2.4727364 -1.4947842 -3.6167428
-1.7945526 -1.5548048 -3.6663787
-1.8799448 -1.5370982 -2.6793025
-2.2817993 -1.5412465 -2.6903093
-2.6096439 -1.5450531 -2.7868898
-2.6751137 -1.5070143 -3.6422379
-2.7253127 -1.4760709 -3.7812669
-0.52140903 -1.526746 -2.900775
-0.43868065 -1.5195539 -2.866708
-0.4416194 -1.5217937 -2.9066155
-0.49620581 -1.5304643 -3.1031997
-0.53609705 -1.5304416 -3.1002634
-0.72644472 -1.5304685 -3.3644397
-0.67787075 -1.5287284 -3.2476327
-1.1595287 -1.5402529 -3.2529004
-1.135956 -1.5491765 -3.4334114
-0.41103125 -1.5255352 -1.9462745
-0.40031433 -1.5253166 -2.1848779
-0.47721338 -1.5254258 -2.1391993
-0.45973349 -1.524729 -2.0630119
-0.22330379 -1.5121067 -2.1204424
-0.30431366 -1.5134299 -2.6760149
-0.42055702 -1.52619 -2.4641552
-0.42344332 -1.5234563 -2.5040348
-0.38065195 -1.5212516 -2.4670174
-0.39462852 -1.5209703 -2.2683249
-0.33729029 -1.5272393 -1.8686121
-0.16873789 -1.5209357 -1.9239714
-0.32709503 -1.5319728 -1.3508601
-0.28719902 -1.5294964 -1.3537809
-0.37578964 -1.5261666 -1.4675643
-0.35402632 -1.5140384 -1.5464776
-0.3552351 -1.527995 -1.1883259
-0.38914871 -1.5296576 -1.1599207
-0.48761702 -1.5308833 -1.1759437
-0.57318544 -1.5277948 -1.2499354
-0.38459682 -1.5228839 -1.5872221
-0.5650816 -1.5202978 -1.6916404
-0.56855345 -1.5168717 -2.2929533
-0.89523363 -1.5245655 -1.2666838
-1.4821069 -1.5295659 -1.0637615
-1.4902458 -1.5296941 -1.0720893
-0.97329855 -1.5207866 -2.3438556
-0.92471933 -1.5165464 -2.2270346
-1.2699223 -1.5239578 -2.5630109
-1.3584247 -1.5431354 -2.6770248
-1.3127077 -1.5236634 -2.6000147
-1.3098128 -1.5213956 -2.5601048
-1.8204067 -1.5430945 -2.9643903
0.72992039 -1.5099249 -0.2812022
0.76882219 -1.5157479 -0.16382301
0.81471777 -1.5113257 -0.087019026
0.72891617 -1.5256884 -0.16088772
0.82368517 -1.5271022 0.032546341
0.7439146 -1.5244856 0.038559854
0.80478525 -1.5313603 0.31473473
0.88454962 -1.536477 0.30870405
1.0741739 -1.4755328 0.49541277
1.5795107 -1.5041038 2.0818424
1.0591521 -1.5080104 0.49633044
-0.57741117 -1.5216942 -3.473778
-0.83416414 -1.5300981 -3.6958315
-1.0677543 -1.5556198 -3.5988305
-0.88603902 -1.5377204 -3.352917
-0.89657927 -1.5366842 -3.4507062
-0.78080511 -1.5342441 -3.5610507
0.65513945 -1.5260899 -0.075115561
0.64914227 -1.5255706 -0.15488905
0.73792696 -1.5189661 -0.041181266
0.62215614 -1.5207365 -0.51385164
0.62814808 -1.5237559 -0.43409455
0.67305183 -1.5088218 -0.43737447
0.030742645 -1.5010515 -1.9385257
0.025981426 -1.4906274 -2.0032842
-0.50084543 -1.5210744 -2.6214879
-0.44578457 -1.5253999 -3.5079696
-0.4606266 -1.5264325 -3.5223949
-0.43992233 -1.5359218 -3.428251
-0.32629442 -1.4417684 -3.3156719
-0.34379005 -1.4817579 -3.314646
-0.34478569 -1.484091 -2.9536061
-0.38372374 -1.521733 -3.3119674
-0.62599659 -1.5233985 -3.5905812
-0.62120342 -1.524492 -3.5725601
-0.043046474 -1.4886751 -2.2939942
-0.87696528 -1.5473317 -3.7329447
-0.34026527 -1.5304937 -1.0432602
-0.38315153 -1.5301764 -1.0801477
-0.30653524 -1.5313002 -1.0716046
-0.30937433 -1.5297745 -1.16592
-0.31828165 -1.530256 -1.2311698
-0.34626245 -1.5299742 -1.1230346
-0.328269 -1.5315312 -0.88371551
0.01260519 -1.5264859 -1.095067
0.033720493 -1.5298201 -0.87080657
-0.0061721802 -1.532261 -0.86782312
-0.10707474 -1.5314167 -1.0862885
-0.29346371 -1.531531 -1.1598768
-0.075993538 -1.5306563 -1.208899
0.049616814 -1.5278041 -1.192898
-0.52696419 -1.5291934 -1.0625197
-0.50940895 -1.5307828 -0.82316828
-0.80512381 -1.5224127 -0.48055804
-0.85672569 -1.5237913 -0.63721573
-0.83147049 -1.5275285 -0.83963275
-1.0218289 -1.513698 0.93918455
-1.0496874 -1.5133935 0.90112054
-0.98779249 -1.5157281 0.85645831
-1.0705037 -1.5153419 0.82241786
-0.96913791 -1.512476 0.73478585
-1.1045439 -1.5158107 0.905128
-1.1901815 -1.5151581 0.83119678
-1.1863365 -1.5130054 0.88357151
-1.0040619 -1.5117543 0.63457549
-1.3215683 -1.5164142 0.68039232
-0.852386 -1.5123941 0.68611538
-0.84046745 -1.5123636 0.67772138
-0.70561218 -1.5139225 0.87588167
-0.73965359 -1.5143905 0.95859194
0.076929569 -1.5253357 0.77063602
-0.055644035 -1.5349362 1.1415638
0.10391998 -1.5276703 1.1296147
0.60445642 -1.5293783 0.85128862
0.63836575 -1.5189198 0.76857853
0.77991247 -1.5225979 0.51723027
0.012289524 -1.4489667 -2.2576995
-0.010592461 -1.4486954 -2.2961228
0.31130171 -1.4148469 -1.3970885
-10.098868 -1.5572963 3.4081867
-10.032717 -1.5460217 3.205694
-9.9583874 -1.5502188 3.1203558
-7.6224818 -1.5336558 -1.2943541
-7.5594583 -1.5317802 -1.335364
-7.5622697 -1.5216208 -1.3752234
-7.6007977 -1.5219404 -1.3525182
-7.5426788 -1.5359961 -1.3000274
-7.5056171 -1.5306989 -1.3427283
-7.5084543 -1.5254806 -1.3825986
-7.2146668 -1.5603821 -1.7645373
-7.0579176 -1.5473459 -1.815685
-7.0949755 -1.5551432 -1.7729979
-6.8058877 -1.5286269 -1.51265
-6.9554915 -1.5414271 -1.5021086
-7.0038843 -1.5383537 -1.6189618
-7.2574043 -1.5552444 -1.8015783
-6.8612728 -1.5317289 -1.8696473
-7.0664005 -1.5516914 -1.9354098
-7.1979752 -1.5598146 -0.96369636
-7.3290019 -1.5541852 -1.1147757
-7.1857119 -1.5301135 -1.3553889
-7.1465244 -1.5274795 -1.3681793
-7.0267963 -1.5447396 -1.3767657
-7.2662144 -1.5327189 -1.3597186
-5.356369 -1.5503211 -2.1368935
-5.382143 -1.5364889 -1.9344833
-4.5840039 -1.5308273 -2.2717702
-4.675107 -1.5401167 -2.4257631
-4.6323938 -1.5302547 -2.3886373
-4.6637998 -1.5334874 -2.2661245
-3.9999554 -1.5216672 -1.9522357
-4.2051177 -1.5191314 -2.0178714
-4.2421794 -1.5244298 -1.9751711
-4.572968 -1.532325 -1.5507417
-3.4416234 -1.5336759 -1.4304869
-3.4529436 -1.532805 -1.5900841
-3.6467824 -1.53364 -1.4961371
-3.6666002 -1.5271161 -1.7754042
-4.0002279 -1.5297945 -1.3908465
-3.8748598 -1.5349892 -1.3195641
-3.9204159 -1.5371341 -1.3965471
-3.8007207 -1.5343941 -1.4050217
-5.8895636 -1.5108997 -1.7379501
-5.9803224 -1.5254112 -1.8518953
-5.4792223 -1.5259703 -1.6067326
-5.5477057 -1.5245013 -1.4414625
-5.4251804 -1.521979 -1.4100378
-5.3937635 -1.5262469 -1.532593
-5.3994198 -1.5283107 -1.6124051
-6.2831531 -1.5327605 -1.0685363
-6.2563982 -1.5297601 -1.1506188
-6.2944765 -1.5293905 -1.2281193
-6.3771062 -1.5293314 -1.2623588
-6.3488145 -1.5265094 -0.8633393
-6.4382439 -1.5319117 -0.81692469
-5.9812279 -1.5264423 -0.76910794
-6.0239563 -1.5263044 -0.80617714
-6.1606274 -1.5302389 -1.0371115
-6.4939752 -1.5297889 -1.2139708
-6.6327024 -1.5317146 -0.90839708
-6.7305264 -1.5404865 -1.1571505
-6.807476 -1.5533633 -1.1116621
-6.7206388 -1.5312476 -1.0174474
-6.7647753 -1.5360022 -1.074495
-6.9278975 -1.5476776 -0.35530412
-6.691402 -1.5341867 -0.41226161
-6.5398035 -1.5400602 -0.72956455
-6.9899988 -1.5525689 -0.8581053
-6.9928246 -1.5548519 -0.89801741
-6.944994 -1.5517759 -0.5947119
-6.8986001 -1.5501524 -1.2655859
-6.174789 -1.6107118 -0.95634353
-5.7424068 -1.5303755 -0.60039556
-5.9622383 -1.6097428 -1.0691615
-6.0582561 -1.6100317 -1.0448073
-5.9014874 -1.6094943 -1.0960246
-5.775784 -1.5258514 -1.2648897
-5.6988153 -1.5254742 -1.3104465
-6.1581345 -1.5302335 -1.0372885
-6.0811644 -1.5298566 -1.0828464
-6.26963 -1.5342443 -0.68302727
-6.1123052 -1.6090245 -1.2414747
-6.1444283 -1.5283362 -1.3740973
-5.8584185 -1.5232927 -1.2991145
-6.0579162 -1.5236933 -1.2849679
-6.0635805 -1.5207572 -1.3647525
-6.4826512 -1.5331604 -1.0543889
-6.5568066 -1.5237554 -0.96887469
-6.1917729 -1.5178444 -1.4759462
-5.1125817 -1.5326835 -0.76573765
-5.1477118 -1.5285003 -0.60767853
-5.0749769 -1.5302972 -0.71310306
-5.09582 -1.5302694 -0.72415686
-3.1310608 -1.4423853 -1.57232
-3.2229362 -1.5216055 -1.739172
-3.2220595 -1.5166738 -1.726675
-2.954061 -1.5277425 -1.9061477
-2.6344585 -1.5268472 -2.02298
-2.5945585 -1.5244086 -2.0258577
-2.4476714 -1.5282265 -1.0018599
-2.2002325 -1.5334502 -1.0117413
-2.2430186 -1.5331569 -1.0487454
-2.4939301 -1.5193554 -1.1909024
-2.488138 -1.5148206 -1.1110846
-2.5765874 -1.5064988 -1.2249436
-5.2315865 -1.5467719 -0.94269276
-5.2714863 -1.5468514 -0.93986237
-5.3935142 -1.5294145 -0.96369541
-5.3207164 -1.5298963 -0.85607636
-4.1505475 -1.4996301 -0.11683273
-4.2409716 -1.4914736 -0.26075315
-4.2260451 -1.4918349 -0.19163764
-4.0990629 -1.5266387 -1.0880728
-4.134357 -1.5320728 -1.0204347
-4.2653723 -1.533942 -1.1715566
-4.1643653 -1.5279142 -0.87792647
-4.1216397 -1.5255518 -0.84084368
-4.2316961 -1.5280486 -0.87315226
-3.9648671 -1.5275159 -0.8920747
-4.1230459 -1.527944 -0.86081088
-4.2014346 -1.5282116 -0.83519852
-4.1971889 -1.5260385 -0.77534032
-3.3460302 -1.5298486 -0.29436356
-3.3191478 -1.5299485 -0.2687009
-3.4662685 -1.5230792 -0.64670706
-2.4060817 -1.5344816 -1.6385193
-3.1668615 -1.5334175 -0.9487077
-3.1996765 -1.5365413 -0.84614801
-3.4433165 -1.5416943 -0.88904321
-3.3991709 -1.5394403 -0.83201408
-5.6354671 -1.4977536 -2.6782255
-5.5556269 -1.5225936 -2.6840229
-5.3332667 -1.567371 -2.6599379
-5.498703 -1.5513198 -2.4476113
-6.0695524 -1.5215007 -2.579895
-6.0704999 -1.4814322 -2.5921419
-6.1798892 -1.5149606 -2.4391992
-3.973628 -1.5242442 -3.2774508
-3.9851356 -1.522338 -3.2285044
-3.5954106 -1.5146044 -3.1037192
-3.6024153 -1.5132792 -3.3438222
-3.7174139 -1.5118414 -3.4082673
-3.8491795 -1.5168657 -3.3586419
-3.2415519 -1.5073538 -3.4828317
-3.0877538 -1.5071354 -3.5741875
-3.2900615 -1.4765934 -3.5994537
-3.6489081 -1.5176319 -3.292949
-2.9345884 -1.544091 -2.8435469
-2.8167975 -1.5375544 -2.7981603
-2.4067943 -1.5294244 -1.6484642
-2.3959527 -1.5302961 -1.4988599
-2.3916116 -1.5281451 -1.439003
-1.6099236 -1.5295109 -1.06331
-1.6815937 -1.5342565 -1.0493317
-1.4653459 -1.5302675 -1.3858249
-1.5480237 -1.5274118 -1.4199207
-2.7975509 -1.5431727 -2.6128392
-2.8796177 -1.5390207 -2.5531061
-2.8715489 -1.5385134 -2.5272384
-2.592283 -1.5389477 -2.5474792
-2.5067096 -1.5395372 -2.4734731
-2.694607 -1.5326567 -2.2993934
-3.5952742 -1.5363035 -1.9008157
-3.0307338 -1.5349926 -2.4220634
-2.8854055 -1.5305445 -2.1652374
-3.050837 -1.5290971 -2.1398971
-2.8884082 -1.5289944 -2.1113176
-2.8411622 -1.5259564 -2.108259
-2.8825088 -1.5282785 -2.1253288
-1.549118 -1.5303577 -1.7808092
-1.5885286 -1.5391552 -1.9785321
-1.4584508 -1.5295854 -1.9477983
-2.2210708 -1.5386294 -1.852479
-2.3008413 -1.5285058 -1.846638
-2.5090013 -1.5324976 -1.9518931
-2.0216045 -1.5439394 -1.8669646
-1.9788024 -1.5367343 -1.8299191
-1.8903282 -1.5325558 -1.7159901
-1.9019036 -1.5366259 -1.8755965
