ply
format ascii 1.0
comment PCL generated
element vertex 1451
property float x
property float y
property float z
element camera 0
property float view_px
property float view_py
property float view_pz
property float x_axisx
property float x_axisy
property float x_axisz
property float y_axisx
property float y_axisy
property float y_axisz
property float z_axisx
property float z_axisy
property float z_axisz
property float focal
property float scalex
property float scaley
property float centerx
property float centery
property int viewportx
property int viewporty
property float k1
property float k2
end_header
-0.84550953 -1.076946 -2.0201604
0.15150499 -1.0648056 -1.6334395
-0.14701223 -0.97608441 -2.7698874
-0.16709614 -0.95870215 -2.7690256
0.30936193 -1.0289407 -0.54059887
0.30669785 -0.93116719 -0.60513043
-0.074259281 -1.0854858 -3.5739684
-0.16807938 -1.0881522 -3.610754
0.046376228 -1.0874728 -3.5581741
-0.23546791 -1.1010454 -3.6085281
-0.18063498 -1.1274561 -3.6907363
-0.36779356 -1.1208663 -3.9643426
-0.02214241 -0.9833461 -4.5670767
-0.47496843 -1.1506622 -3.9550138
-0.28903389 -1.1250708 -4.0021467
-0.21047592 -1.1242273 -4.0448995
-0.29327154 -1.1438965 -4.1272564
-0.5814085 -1.0560933 -1.4147744
0.13689852 -1.0559411 -2.1000795
-0.45180798 -1.1402066 -4.081676
-0.91155243 -1.0915235 -2.7382474
-1.3055854 -1.080477 -2.5637741
-1.3041525 -1.0780202 -2.5237982
-1.2455812 -1.0849104 -2.5659649
-2.0469627 -1.1531764 -2.0565276
-1.2437696 -1.0807647 -1.9656286
-1.237679 -1.0572197 -1.8722742
-1.1238542 -1.0796317 -1.969997
-0.95368528 -1.0564209 -1.7620628
-1.0439105 -1.0788764 -1.972908
-1.8179834 -1.0806047 -2.3449759
-1.6937459 -1.0746058 -2.2294149
-1.7336948 -1.0774835 -2.2279634
-2.3070426 -1.098249 -3.6880808
-2.2299652 -1.1024057 -3.7709465
-1.9170265 -1.146661 -3.9825277
-1.9124589 -1.1293062 -3.8525887
-1.0773344 -1.0853572 -2.8923082
-1.2016182 -1.0863559 -3.0078597
-1.1358585 -1.0834668 -2.8501465
-1.2459345 -1.0891 -3.1263294
-1.368762 -1.0901445 -3.2019086
-1.3258781 -1.0898554 -3.1234179
-1.2103086 -1.0910894 -3.2477083
-1.401453 -1.0907428 -3.000586
-1.2486935 -1.0844175 -2.9260907
-1.3127961 -1.0877539 -2.7636523
-1.3084502 -1.0853873 -2.643729
-1.3499017 -1.0832214 -2.6822433
-1.2299638 -1.0845884 -2.6866145
-1.4371037 -1.0862534 -2.8792019
-1.5541298 -1.0849752 -2.7948837
-1.4799876 -1.0865427 -2.9576926
-2.1225181 -1.0849935 -3.0143375
-2.0883236 -1.0894376 -3.1756935
-1.9168112 -1.0857832 -2.8617263
-1.8797286 -1.0878179 -2.9431319
-1.5389807 -1.1479158 -2.3952403
-1.5375235 -1.1479601 -2.355267
-1.0489187 -1.0946246 -3.2135658
-1.7777431 -1.1676153 -4.1477313
-1.8885102 -1.1275306 -4.5725579
-1.8570347 -1.1326973 -4.5337315
-1.8912933 -1.1467507 -4.6527004
-1.6217258 -1.1669124 -4.9479589
-1.6600895 -1.1626465 -4.9014821
-1.7000961 -1.1579413 -4.8999739
-1.9488585 -1.1321757 -4.650454
-1.7641635 -1.1724286 -4.1882586
-2.5512657 -1.0978811 -3.7992625
-2.46841 -1.0972151 -3.7222271
-2.6543453 -1.1154261 -4.4359508
-1.5644133 -1.1462368 -1.994047
-1.9633551 -1.0775589 -1.9394101
-1.9642034 -1.0546411 -2.0471532
-2.1901805 -1.0545324 -1.6390595
-2.133219 -1.1334872 -1.1610137
-2.1759715 -1.1333872 -1.2395766
-10.916559 -1.1044892 -2.1774726
-10.958332 -1.1045095 -2.2565622
-10.919186 -1.1116426 -2.2974648
-10.906311 -1.0901527 -1.9375992
-10.892178 -1.0766866 -1.7049835
-10.531959 -1.1265206 -1.7159884
-10.424434 -1.1257406 -1.7159537
-10.618052 -1.1264044 -1.8715533
-10.650692 -1.0997121 1.5363747
-10.476355 -1.138222 1.4922236
-10.004196 -1.1335481 1.8015381
-9.7997646 -1.1228763 1.9969712
-9.1135921 -1.1164156 2.2614145
-9.2344704 -1.117154 2.2241592
-8.8373222 -1.1136307 2.0950775
-10.006687 -1.1065444 0.094382703
-9.9327679 -1.1028184 -0.0066729188
-9.9718199 -1.1057975 0.03422147
-10.086347 -1.097785 0.27695441
-9.9658375 -1.1013281 0.13348562
-9.9188576 -1.1276166 1.1594595
-9.8988695 -1.1249602 1.159
-9.9197693 -1.1274495 1.1194701
-9.917963 -1.1252841 1.1994597
-9.9043455 -1.1239549 0.91906393
-10.046161 -1.1221826 0.84230256
-10.026135 -1.1245265 0.84182084
-10.006135 -1.1268795 0.84136844
-9.9096565 -1.1392912 1.5593072
-9.7651768 -1.1315681 1.7560822
-9.8803644 -1.1344144 1.638667
-8.9756336 -1.0986866 1.2980827
-9.2474747 -1.0878905 1.2243103
-8.4584188 -1.1482313 -0.46071985
-9.7389526 -1.118753 1.1553768
-10.075404 -1.1163422 -1.1844192
-10.075605 -1.1116031 -1.0037044
-10.034662 -1.1164925 -0.96465653
-9.7218723 -1.1255382 -2.8122215
-9.589283 -1.1147127 -2.6951613
-9.6293097 -1.1100216 -2.6942515
-9.5502529 -1.1068431 -2.7360382
-9.4265499 -1.1236553 -2.5788088
-10.242041 -1.1070393 -2.4325609
-10.081117 -1.1186522 -2.3961697
-10.921859 -1.1112961 -2.4174342
-10.61129 -1.1805196 -2.8646607
-10.734543 -1.2258066 -3.0220871
-10.858644 -1.1335981 -3.1790962
-10.608976 -1.1233671 -2.7445173
-10.687187 -1.1215986 -2.6627495
-10.956389 -1.2069526 -3.0971122
-10.891201 -1.184772 -2.8584394
-11.012477 -1.1179091 -2.8955545
-11.053482 -1.0980449 -2.9345951
-10.81164 -1.1167728 -2.8600144
-10.848556 -1.1823679 -2.7393522
-10.303265 -1.1270132 -3.3914971
-10.423232 -1.1277647 -3.3888268
-10.38501 -1.1297827 -3.4697042
-10.262384 -1.1268784 -3.352397
-10.623194 -1.1265172 -3.3843708
-10.422358 -1.1253806 -3.3488302
-9.456728 -1.1121277 -2.1380007
-9.6566505 -1.1161755 -2.133503
-9.8547163 -1.1278425 -2.0490398
-9.7541513 -1.0871308 -2.0112333
-9.6139984 -1.1110466 -2.0144255
-8.2146015 -1.2361153 -1.546695
-8.0822535 -1.2200885 -1.5496371
-8.1613503 -1.2183031 -1.5078418
-8.0014915 -1.2045629 -1.5114095
-8.210865 -1.1501734 -1.9066678
-8.0014372 -1.0946604 -1.4711418
-8.1977196 -1.1040875 -1.3067021
-9.1304932 -1.1125729 -1.8652774
-9.0900793 -1.1095871 -1.8467594
-10.08167 -1.1206826 -1.4643593
-9.8781338 -1.1694661 -1.3265214
-10.248381 -1.1152071 -1.5599055
-9.5646362 -1.1013714 -1.5959899
-9.2410173 -1.1642257 -1.4608911
-9.8242645 -1.1680819 -1.7103291
-9.8615503 -1.1686746 -1.5894599
-9.7308369 -1.1094518 -1.8723369
-10.016324 -1.108687 -3.077755
-9.9101315 -1.112128 -2.7279401
-10.11364 -1.1184354 -2.8834066
-10.071848 -1.1182452 -2.804327
-9.9936733 -1.1175058 -2.8861079
-9.6409988 -1.1117394 -3.2141228
-9.995779 -1.1213447 -2.1580181
-9.9074383 -1.1689289 -1.6284378
-10.251467 -1.1245736 -1.6974152
-9.9310904 -1.128702 -1.8872808
-9.6643085 -1.1668427 -1.7139302
-9.933219 -1.1704428 -1.1077286
-9.9554644 -1.1703633 -1.2072521
-9.2047443 -1.1635277 -1.6267478
-8.6984262 -1.1400924 -0.45529473
-7.8189459 -1.0982752 -0.47500557
-7.6047869 -1.0875933 -0.64040923
-7.6438856 -1.0905831 -0.59956181
-7.9770608 -1.1047021 -0.39143974
-7.9761796 -1.1022958 -0.35144413
-7.9743581 -1.1049842 -0.27147043
-7.5543432 -1.0915433 -0.16140503
-7.533679 -1.0891708 -0.24134952
-8.1024303 -1.1050676 -0.62867731
-8.203207 -1.1182469 -0.66644943
-8.2223587 -1.110997 -0.62598997
-8.306839 -1.1111468 -0.82413888
-8.4824972 -1.2276388 0.21980846
-8.4844151 -1.2124517 0.13986742
-8.718832 -1.164368 0.18527091
-8.7887135 -1.1255145 0.4269973
-8.284831 -1.2008735 0.12289619
-8.851099 -1.1520833 -0.13180369
-8.6132145 -1.2349396 -0.25738621
-8.9212904 -1.1251276 -0.13015932
-9.6877556 -1.0939702 0.047218919
-9.6477671 -1.0936614 0.046319127
-9.2735853 -1.1675547 -0.24235415
-9.3457184 -1.0870498 0.86395884
-10.043603 -1.0980415 0.39600408
-7.4874945 -1.1365186 1.6240574
-7.3933663 -1.1559377 1.5815386
-7.3129625 -1.1144459 1.3923434
-7.3913798 -1.1178498 1.4616364
-7.004528 -1.0698225 0.89537656
-7.3103261 -1.1399393 1.4996945
-7.5502939 -1.1367217 1.5051862
-7.4303646 -1.1308306 1.5024768
-7.5121307 -1.1360571 1.4242975
-7.5451841 -1.1577189 1.7225331
-7.5696635 -1.1580077 1.7455963
-7.5869904 -1.1975902 1.630778
-8.1139736 -1.0963657 2.2386842
-8.644701 -1.1082805 1.770619
-8.5674248 -1.1121742 1.6488055
-8.730135 -1.1103785 1.5324954
-7.9158936 -1.0895206 2.1541715
-7.9594221 -1.1041523 1.9950598
-7.9067488 -1.0936974 2.5540528
-8.2110291 -1.1212952 1.483092
-8.210247 -1.1114529 1.5206259
-6.4046278 -1.1452609 0.85883236
-6.4445596 -1.1455684 0.8622427
-6.3816772 -1.1451855 0.87831497
-7.5078888 -1.0903343 0.7444818
-7.6398888 -1.1964499 0.33593738
-7.498724 -1.091387 0.55756009
-7.4099798 -1.1914922 0.62149477
-7.5873761 -1.093076 0.15938544
-7.7913666 -1.1042777 0.59084904
-8.0760794 -1.1377956 0.53094816
-7.9530516 -1.11765 0.51446271
-7.9920707 -1.1256187 0.55532944
-8.0320396 -1.1284205 0.55623102
-7.87813 -1.1110591 0.44653106
-7.9172726 -1.1189513 0.4824034
-8.4138222 -1.1147921 1.3652142
-8.6556339 -1.1087699 1.290738
-8.7719669 -1.1078459 1.4534386
-8.851963 -1.1059499 1.4552723
-8.6602345 -1.1029325 1.0908138
-8.8719692 -1.2026144 0.65510976
-9.0674572 -1.0996112 0.78003561
-9.0752401 -1.100639 0.59355032
-9.1502075 -1.094713 0.66191161
-9.071126 -1.0964415 0.62008858
-8.3891239 -1.1416414 0.68435633
-8.331749 -1.158185 0.56294501
-9.1152496 -1.0984499 0.59445667
-8.873848 -1.1044283 0.49552166
-10.218669 -1.1362182 2.0465021
-10.184137 -1.1374116 1.8056444
-10.547741 -1.1394492 1.6513904
-10.356827 -1.1381916 1.6895505
-9.1883326 -1.0853707 0.74784446
-9.1911097 -1.0948468 0.6228348
-9.3493128 -1.0863907 0.70650125
-9.639884 -1.0917071 0.28620708
-9.4349422 -1.0901178 0.28159559
-8.7649126 -1.1396228 0.14635658
-9.2194576 -1.1664784 -0.50363648
-8.9488945 -1.1239254 -0.6896773
-9.7349129 -1.0985284 -0.27181095
-9.6543179 -1.0904779 -0.24360037
-9.6531334 -1.0980963 -0.19363195
-10.546471 -1.1350307 0.047286272
-9.8041019 -1.0977771 0.20987177
-9.7634182 -1.0925434 0.24147534
-9.7332573 -1.092329 0.24829853
-9.7182627 -1.0922122 0.24796116
-5.5931177 -1.0776496 -0.12397563
-6.0321484 -1.0790458 -0.074425101
-5.4478149 -1.0887508 -0.80734211
-5.5272703 -1.1781843 0.72112572
-5.5672579 -1.1784821 0.72203732
-5.6497202 -1.1586059 0.62148297
-5.104754 -1.1516043 0.38671398
-5.1792498 -1.1510181 0.54934847
-5.0867624 -1.0826842 0.76902544
-1.813684 -1.0732387 -2.2250435
-1.8842616 -1.0517968 -2.0499203
-1.8042998 -1.0539517 -2.0527039
-3.5220981 -1.0637691 -1.3088058
-2.4933026 -1.0625377 -1.1482658
-3.002357 -1.0713277 -1.3264959
-2.9650967 -1.0741208 -1.4077988
-2.9555733 -1.0674373 -1.1279953
-3.0328214 -1.0623311 -1.0453417
-2.9169602 -1.0674897 -1.1693366
-3.2281816 -1.1500456 -0.91807532
-3.1455007 -1.1491888 -0.84085453
-2.4808064 -1.0637597 -0.78848422
-2.4794278 -1.0613954 -0.74850082
-2.6834705 -1.0618497 -0.86148822
-2.7075179 -1.067366 -0.8963173
-2.7648315 -1.0570577 -0.89866936
-2.4738848 -1.0594382 -0.58858865
-2.7523866 -1.0457788 -0.53884506
-2.6724253 -1.0479345 -0.54162955
-2.7923634 -1.0459509 -0.53745639
-2.8064075 -1.0454892 -0.4928343
-2.8048072 -1.0572306 -0.89728254
-2.8034286 -1.0548662 -0.8572976
-2.4252422 -1.1400791 -0.35040611
-2.3797131 -1.1404495 -0.19189149
-2.4638298 -1.1403865 -0.30904305
-8.8089304 -1.1644918 -0.040258408
-8.7247305 -1.1643126 0.14539248
-8.0479355 -1.1187623 0.010226369
-7.788022 -1.0895231 -0.87578487
-7.8707013 -1.0898614 -0.99395299
-8.1877918 -1.107622 -0.8668223
-6.3748837 -1.1552402 -1.1475198
-6.2174044 -1.0660826 -1.23063
-6.0590806 -1.0769221 -1.3141328
-6.0564518 -1.0798693 -1.1941726
-6.4173484 -1.0677856 -1.22629
-6.2101049 -1.1426847 0.61684132
-3.0771003 -1.0537201 -3.550231
-2.9999566 -1.0455123 -3.6329217
-3.1529264 -1.0446131 -3.4274802
-3.0687594 -1.0573341 -3.3103895
-2.9874091 -1.0596834 -3.2732029
-4.4791842 -1.0579147 -4.4225492
-4.5467501 -1.0606942 -4.3797536
-4.5839381 -1.0637341 -4.2984266
-4.4984636 -1.056641 -4.141264
-4.2558012 -1.0635014 -4.0696759
-5.0580497 -1.0764965 -4.1219187
-5.2418237 -1.118314 -4.1791186
-4.5191779 -1.0581961 -4.4218907
-4.0379648 -1.1104671 -3.9974127
-4.0136738 -1.1102687 -4.0182672
-5.1953101 -1.1135113 -3.8700571
-3.9745638 -1.0675094 -4.0394392
-3.9759536 -1.067323 -4.0794148
-3.7231615 -1.1074176 -4.3685536
-3.5380464 -1.1077043 -4.1523485
-3.5163412 -1.1075044 -4.1756158
-3.6989007 -1.0657735 -4.1690803
-3.3349664 -1.0623156 -4.0616331
-3.2977571 -1.0642754 -4.1429839
-3.2564137 -1.0592937 -4.1043711
-3.5192351 -1.0661733 -4.4384937
-3.5073557 -1.0638173 -4.4158731
-3.3446758 -1.0635157 -4.3414731
-3.4232378 -1.0640383 -4.2987223
-3.3860393 -1.0634983 -4.3800602
-3.957952 -1.0572374 -3.5596743
-4.4515347 -1.0599008 -3.9427867
-4.5701222 -1.0480912 -3.8985887
-5.1961994 -1.1087641 -3.9100766
-5.1979108 -1.1067672 -3.9900732
-5.0496984 -1.0826102 -3.8820891
-4.7253981 -1.0343914 -3.7580476
-3.8848925 -1.0684714 -3.7623873
-3.7635579 -1.0731521 -3.7265992
-3.2426188 -1.0386502 -3.7045093
-3.2096214 -1.0292785 -3.5455146
-3.2719586 -1.0302463 -3.395762
-3.2860188 -1.0283669 -3.8005142
-2.659555 -1.0968671 -3.4751043
-2.7002537 -1.0972236 -3.4936347
-2.8179851 -1.0984224 -3.429307
-2.7809966 -1.0904554 -3.5106997
-5.5206766 -1.0757679 -5.0457668
-5.4151263 -1.0744727 -5.1283131
-5.3738074 -1.0514314 -5.1692314
-6.6040926 -1.0869498 -4.7597947
-6.5786233 -1.0867856 -4.7403979
-7.1828871 -1.1767875 -4.3478022
-7.3593707 -1.1122403 -4.5617509
-6.1605158 -1.1233052 -4.6305032
-6.1977229 -1.1141089 -4.5095439
-6.4385786 -1.1187251 -4.5438061
-6.4909906 -1.1267196 -4.5425792
-6.4376664 -1.1138676 -4.503799
-7.2220306 -1.1768909 -4.3069658
-7.0340962 -1.134982 -4.2711883
-7.9104042 -1.1101731 -3.6532006
-6.6574774 -1.1284366 -4.4985881
-6.7392073 -1.1331009 -4.397459
-6.1340475 -1.1084374 -5.1912465
-5.7746091 -1.0575525 -5.1996698
-5.7346931 -1.0496759 -5.2005978
-5.8154597 -1.0677866 -5.2387409
-4.7609324 -1.0862172 -4.5381904
-4.9353266 -1.0813624 -4.046155
-4.772717 -1.063562 -3.9716711
-4.774086 -1.0683751 -4.0116706
-5.0125098 -1.0795715 -3.9634161
-5.7269087 -1.1316358 -4.418849
-5.4723349 -1.0956888 -4.2867751
-5.3406153 -1.0873039 -4.1922016
-5.9042196 -1.1195319 -4.9967294
-5.3669806 -1.1309489 -4.4264574
-5.4070144 -1.1263032 -4.4256406
-5.207068 -1.1245311 -4.4298749
-4.9733539 -1.1136408 -4.6949754
-3.2876718 -1.1468129 -0.315705
-3.244967 -1.1461438 -0.23711872
-3.2490604 -1.146866 -0.3570475
-2.98874 -1.0639223 -0.92676485
-3.1500094 -1.0649136 -0.96127981
-3.1427734 -1.148708 -0.76090205
-3.1055255 -1.1490021 -0.84221935
-3.6256812 -1.0564458 -0.82502639
-3.7083378 -1.0623034 -0.90221936
-3.6270337 -1.0591863 -0.86498797
-2.6880279 -1.1439956 -0.33618426
-2.6237316 -1.1410753 -0.30349147
-2.7266533 -1.141444 -0.2948581
-3.318099 -1.067108 -1.1956742
-3.5965934 -1.0631832 -1.1461709
-2.6716866 -1.0819156 -5.1839333
-2.8111084 -1.0741423 -5.1704035
-2.799016 -1.0658575 -5.3792634
-2.6405182 -1.0742882 -5.4251709
-2.6005285 -1.0764925 -5.4266548
-2.091208 -1.0574363 -5.7252932
-2.8150961 -1.096011 -3.3493576
-3.0204825 -1.0507804 -3.0718889
-3.1776075 -1.0518248 -2.9863873
-2.7792091 -1.057456 -3.040277
-1.881161 -1.0902722 -2.983108
-1.6783657 -1.0909741 -2.9104452
-2.0367491 -1.0844165 -2.8573546
-1.8441017 -1.0898058 -3.0645118
-1.8898513 -1.0950062 -3.2229562
-1.7227306 -1.0887191 -3.0289054
-1.680301 -1.0884154 -2.9629059
-1.5613632 -1.089753 -2.9947586
-1.6398516 -1.0905527 -2.9518733
-4.4804516 -1.0490537 -3.6215353
-4.3580689 -1.033886 -3.5531712
-4.5426354 -1.1194868 -2.5390394
-4.954289 -1.0623698 -2.2843275
-4.955667 -1.0646845 -2.3243136
-5.2895918 -1.0736204 -3.8737149
-5.329587 -1.06879 -3.872303
-5.2496161 -1.0734529 -3.8751016
-4.0164919 -1.075428 -2.942347
-3.9751277 -1.075446 -2.903759
-3.9195714 -1.0749483 -2.960721
-3.9492745 -1.0754571 -2.8796425
-3.2213252 -1.0781348 -1.8793176
-3.3896973 -1.0540485 -2.1785378
-2.8202829 -1.0799532 -2.3885138
-2.4335775 -1.0857786 -2.7628469
-3.1683381 -1.1130304 -2.7268329
-2.5564513 -1.0818236 -2.838418
-2.1879461 -1.0811926 -2.6116843
-2.3449209 -1.0827906 -2.5259144
-3.6306057 -1.1373708 -2.2105823
-3.5165687 -1.0536249 -2.3742528
-3.7388875 -1.0634416 -4.1676803
-3.7378259 -1.0685813 -4.137723
-4.0628667 -1.0617311 -4.2764931
-3.8960011 -1.0669874 -4.0821905
-4.3674269 -1.057621 -3.8256245
-4.0173569 -1.0573058 -4.1179547
-3.336201 -1.0326831 -2.9407649
-3.2631829 -1.0339193 -3.1434298
-4.3111634 -1.0360235 -3.0670118
-4.2612348 -1.0258132 -3.0686975
-4.2583952 -1.0411842 -2.9888191
-4.1571484 -1.0331843 -3.5301285
-9.3337946 -1.1805216 -4.5543242
-9.2995081 -1.1868134 -4.795176
-9.112484 -1.1635339 -4.5997643
-9.3006153 -1.1670811 -4.8328023
-8.9361324 -1.1495057 -4.6441054
-8.7011147 -1.1384745 -4.8498816
-9.094511 -1.1632141 -4.5801916
-10.136961 -1.1293691 -3.9231625
-10.136059 -1.1294289 -3.8831716
-10.014254 -1.1336199 -3.8059015
-9.9325523 -1.1231223 -3.727706
-7.4379902 -1.1556325 -4.52001
-8.0095291 -1.158124 -4.3861775
-7.9287348 -1.1495429 -4.3506637
-8.3721781 -1.1726501 -4.497416
-8.4111805 -1.175276 -4.4564495
-7.4460039 -1.1968621 -4.3821282
-8.0162153 -1.1626101 -4.6660724
-8.1790113 -1.1675942 -4.7821698
-8.3404045 -1.1571193 -4.8333917
-8.2237663 -1.1719196 -4.9811282
-8.2659454 -1.1579319 -5.0652423
-8.3457727 -1.1612144 -5.0583038
-9.0048237 -1.1015469 -3.3884768
-8.8458271 -1.0927486 -3.432055
-8.8786278 -1.0910403 -3.1112332
-8.8049374 -1.0924996 -3.3929648
-8.8413229 -1.0930504 -3.2321057
-8.5978079 -1.0889341 -3.0775433
-8.3986874 -1.0973259 -3.1220522
-8.2367973 -1.1137083 -3.045702
-8.2833834 -1.1141353 -3.0046425
-8.277647 -1.1189559 -3.0847998
-9.9316502 -1.1231821 -3.687716
-10.027823 -1.119683 -3.597661
-9.7649345 -1.1899613 -4.1838074
-9.7266903 -1.2477401 -4.2818446
-9.7031946 -1.247928 -4.3449268
-9.7676344 -1.2484322 -4.3208709
-9.3251886 -1.1754692 -4.1944547
-9.5249119 -1.1975102 -4.1895094
-9.4060421 -1.1840687 -4.2324667
-9.4869213 -1.1901687 -4.2704973
-9.7272444 -1.1169367 -3.4922595
-9.4473619 -1.1097695 -3.4985528
-9.1773491 -1.1069411 -3.9447412
-9.9725609 -1.1209326 -3.7268019
-10.032246 -1.1241049 -3.7976251
-10.034979 -1.1137582 -3.9175644
-9.4607372 -1.1263666 -4.0984287
-9.138279 -1.1040708 -3.9856267
-9.4792824 -1.1056218 -3.1377363
-10.119043 -1.1180737 -3.1233459
-10.018105 -1.1084547 -3.1577334
-7.6597991 -1.149927 -4.8147531
-7.6603947 -1.1099825 -4.8225231
-7.8642011 -1.1382459 -4.9899898
-9.8906841 -1.1344936 -5.0214467
-10.035793 -1.2126933 -4.5372634
-10.547166 -1.1137177 -4.3578553
-10.057543 -1.2141299 -4.7142863
-10.319265 -1.1299318 -4.1113291
-10.318373 -1.1300486 -4.0713387
-10.125124 -1.1636401 -4.1753559
-10.479254 -1.1259345 -4.1077547
-10.532659 -1.1211478 -4.1465611
-10.502249 -1.121664 -4.1589198
-10.543249 -1.116841 -4.1979141
-9.8076191 -1.2488396 -4.3199086
-9.3826704 -1.1584847 -4.9134202
-10.559246 -1.1239358 -4.1059675
-11.023977 -1.1289053 -3.4154615
-11.016512 -1.1848294 -3.0957084
-11.142288 -1.1098886 -3.3327508
-11.095284 -1.093064 -3.01367
-11.381083 -1.0890574 -3.2698579
-10.978661 -1.1268495 -3.1764045
-10.023371 -1.1202614 -3.3977103
-10.056395 -1.1268504 -3.5648823
-10.14073 -1.11136 -3.2750406
-10.021637 -1.112992 -3.317708
-9.8800106 -1.1161565 -3.1687369
-10.704891 -1.1367865 -3.4625998
-10.874723 -1.1240168 -3.8988919
-10.902214 -1.130886 -3.3381581
-11.037414 -1.1146719 -4.0152702
-11.076466 -1.1225375 -3.9744143
-8.1724892 -1.1531273 -4.5048432
-8.3792429 -1.1181307 -4.0427547
-8.0598812 -1.1791507 -4.8249574
-8.059 -1.1713686 -4.7850204
-8.1018372 -1.1751274 -4.9040051
-7.6456771 -1.0565068 -4.7997689
-1.7299185 -1.0402204 -5.6933064
-1.7293773 -1.0004413 -5.6704226
-2.6560042 -1.104911 3.3351364
-3.6153779 -1.0055262 3.3979492
-3.613811 -0.9833194 3.4705229
-3.4972105 -1.0170228 3.3151217
-10.881926 -1.1105911 -4.2187724
-11.062124 -1.118809 -4.1452746
-11.063099 -1.1186534 -4.1852617
-10.683792 -1.1041094 -4.3031864
-10.636553 -1.1247829 -3.9842176
-10.782156 -1.1239861 -4.152112
-10.743143 -1.1234986 -4.1930723
-10.947546 -1.1304417 -3.5772071
-10.790245 -1.1315941 -3.7007451
-11.109331 -1.1237134 -3.653605
-10.178429 -1.1780174 -4.7341514
-10.909056 -1.1088928 -4.4290481
-0.19680548 -1.0741824 1.5928487
-0.27533722 -1.0822046 1.635564
0.41686869 -1.0890583 1.6627933
-0.82642269 -1.1068263 -3.7020025
-0.94351912 -1.0980489 -3.6176739
-0.9463377 -1.1079596 -3.6976357
-0.71066523 -1.12806 -3.8263235
-0.630651 -1.1348057 -3.8292451
-0.7120266 -1.138015 -3.8663111
-0.62510777 -1.1049843 -3.6693077
-0.81489038 -1.0946819 -3.3821964
-0.71572971 -1.0789199 -3.2657127
-0.41984606 -1.0546465 -0.21965039
-0.77125406 -1.0670117 0.032659292
-0.26511717 -1.1145667 0.19443047
-0.28441048 -1.1147382 0.2151134
-0.70013905 -1.0680463 0.92994428
-0.10049868 -1.0756272 1.7594932
-0.14167261 -1.0831356 1.7207032
-0.18850422 -1.0677975 1.8327376
-0.016795635 -1.0685407 1.8769668
-0.066581726 -1.09481 1.718181
0.36809444 -1.0989847 1.3840848
-0.10243845 -1.1142144 0.26883113
-0.2861886 -1.0886185 0.94981623
-0.52773905 -1.069044 1.2841722
-4.8427801 -1.0665118 1.0376595
-4.5314856 -1.0771632 1.9476534
-4.5700603 -1.08461 1.9890372
-4.1771674 -1.0739337 1.7754461
-4.9383955 -1.0746535 0.5806942
-4.8748369 -1.0721641 0.09822166
-4.9188933 -1.0755743 -0.020326436
-4.6653948 -1.0720414 0.37124288
-4.5895476 -1.0698869 0.24856865
-4.7185354 -1.1721312 -0.026581883
-4.56285 -1.0511657 0.0074018836
-4.8871155 -1.0743289 -0.26156223
-5.1141796 -1.0659128 -0.17435455
-5.0456433 -1.0773396 -0.21611011
-4.7189999 -1.0771348 -0.027137041
-4.9615989 -1.0762422 -0.09891212
-4.1525121 -1.0733023 0.15362799
-4.1883707 -1.0777673 0.27495134
-4.2869191 -1.1840087 -0.2813831
-4.1768246 -1.0657229 0.61469042
-4.1388955 -1.0658959 0.55335879
-3.1025298 -1.1416124 0.41839111
-3.7787294 -1.1417029 0.54152477
-3.9096689 -1.1632962 0.80628037
-2.9976108 -1.0035778 -0.0062744617
-2.9714208 -1.0458549 -0.41715917
-2.9715791 -1.1225188 0.15364981
-2.9475958 -1.101703 0.27277768
-2.9020648 -1.1205523 0.43143582
-4.5632 -1.0746051 -0.15254205
-4.5018063 -1.1875936 -0.71429205
-6.8002739 -1.0894859 3.2759933
-7.0845432 -1.0729048 0.89468777
-7.0054789 -1.0721271 0.85287631
-7.1217742 -1.0762535 1.0155547
-7.2026653 -1.0766636 0.97738755
-3.2204778 -1.0674078 1.6627122
-3.7138958 -1.0595679 1.2792624
-3.589849 -1.0632821 1.3951253
-4.0531464 -1.0726498 1.8912781
-3.8546655 -1.0644509 1.844433
-3.6911788 -1.1156117 1.9367191
-3.6920199 -1.0657189 1.9189373
-3.7375026 -1.056868 1.7603399
-3.7719727 -1.0660942 1.9216689
-3.6175125 -1.0688056 1.7563173
-3.4861896 -1.1475128 -0.26890278
-3.4395423 -1.0542157 1.1097734
-2.832927 -1.1421006 0.10901231
-3.3704147 -1.1608362 0.77535629
-3.5354481 -1.1424747 0.63328886
-2.1779475 -1.0494596 1.0213882
-2.0966084 -1.049309 1.0585881
-2.1751511 -1.0548317 1.1013166
-2.4182999 -1.1407577 -0.15052861
-2.3769362 -1.1407202 -0.11193973
-2.5823684 -1.1410387 -0.26490355
-2.5809789 -1.1411741 -0.22492689
-2.4610524 -1.1406586 -0.22909105
-4.1715899 -1.1700301 -0.12530708
-3.6051681 -1.1679248 -0.23970491
-3.2273111 -1.0661106 1.4628187
-3.4486752 -1.1408967 0.83043849
-2.8783603 -1.1432508 -0.049526513
-2.9664979 -1.1450707 -0.28665131
-3.20772 -1.1464385 -0.31843674
-2.1454239 -1.1363733 -0.36011323
-2.0557437 -1.1394784 -0.083068609
-2.0129898 -1.1395783 -0.0045049787
-2.2900417 -1.1410546 0.08516258
-2.2445126 -1.1414258 0.24367678
-2.5376678 -1.0659747 1.0338081
-2.6106758 -1.0672398 1.2364608
-2.3722105 -1.0660439 1.1881577
-2.4177914 -1.0529702 1.0297041
-2.4191694 -1.0552845 0.98971605
-2.413605 -1.0585272 1.1496063
-2.4219565 -1.052413 0.90977752
-2.3833504 -1.0570588 0.86838984
-2.5390761 -1.0607893 0.99385607
-2.3089736 -1.05098 0.70573604
-2.4471774 -1.1395154 0.17067337
-4.5602179 -1.064715 1.1080539
-5.1448064 -1.0748867 1.568328
-5.0711727 -1.0958052 1.4487938
-5.1489239 -1.0706077 1.4483718
-5.2765923 -1.0961893 1.2134157
-5.0757909 -1.0873885 1.2488831
-5.0537777 -1.1067933 2.2085514
-5.2146983 -1.1002984 2.1722426
-5.3786268 -1.1031837 2.0009241
-5.3383145 -1.1004559 2.0150208
-5.3783031 -1.1007521 2.0159321
-5.1270852 -1.0692582 2.0880008
-5.0057559 -1.0759537 2.1239252
-5.0884252 -1.0793114 2.0467186
-5.128437 -1.0719995 2.0480404
-5.1338449 -1.0829605 1.8881952
-5.0966215 -1.0782543 1.8068486
-5.09935 -1.0787351 1.7268964
-5.3010092 -1.1071074 1.894106
-5.3356123 -1.0960062 2.1350117
-5.7090907 -1.110925 1.5433043
-6.3026133 -1.1444073 0.83650231
-6.189712 -1.1426166 0.6338805
-6.3023748 -1.1449767 0.95652676
-6.2382278 -1.1453688 1.1376108
-6.2944002 -1.1460607 1.1964048
-6.1531601 -1.1632719 1.3531464
-5.0656605 -1.1019068 1.6887053
-5.0619555 -1.1101403 1.8486251
-5.4210668 -1.0954983 1.8969001
-5.502923 -1.0882261 1.8187789
-4.4738116 -1.0663471 2.4659309
-4.4724712 -1.0611069 2.5058789
-4.2475576 -1.0751261 2.0580239
-3.3797104 -1.1526119 2.1889706
-3.4028778 -1.1528375 2.1697512
-3.4014294 -1.152581 2.212225
-3.2869563 -1.1529802 2.0482254
-2.8829827 -1.0527781 2.1714196
-2.6972966 -1.067201 2.2000599
-3.0828269 -1.0612174 2.1782899
-3.0483072 -1.0619905 2.0170197
-3.1296122 -1.0651078 1.9797899
-3.2000272 -1.0612996 2.2623382
-4.7963014 -1.078331 2.3969603
-5.0510015 -1.1123446 2.3284945
-5.052845 -1.1094768 2.248528
-4.6682487 -1.0638251 2.6326475
-4.5057015 -1.0450933 2.7070346
-4.6256051 -1.0506557 2.7111602
-4.9053903 -1.06197 2.7207756
-5.0446863 -1.1036305 2.6084666
-4.3767185 -1.0641627 0.62150216
-4.6185732 -1.0756505 0.56978643
-4.578609 -1.0729623 0.56840563
-4.5820322 -1.0710636 0.46845376
-4.5427384 -1.0709962 0.44709826
-4.5013723 -1.0755671 0.48573792
-5.1386719 -1.1537865 0.50601411
-2.9368837 -1.1013411 3.3016982
-3.0337377 -1.0990586 3.223947
-2.8978019 -1.1059517 3.2607565
-3.0096798 -1.0987557 3.1833749
-2.8968682 -1.106114 3.3007445
-3.4100094 -1.021028 3.1930346
-3.2607355 -1.0650148 3.1493626
-3.5380635 -1.0295891 3.2760134
-3.4201822 -1.0210549 3.18577
-3.5399303 -1.0292656 3.1960359
-4.5691204 -1.0667803 3.0198593
-4.2669816 -1.0695645 2.8927598
-4.2710743 -1.0647554 2.9328866
-4.1567302 -1.0653256 2.3750563
-4.1580939 -1.0655669 2.3350816
-4.1140499 -1.0596569 2.4536147
-2.8280823 -1.1062264 2.8190045
-2.8290155 -1.1060655 2.779016
-3.2884061 -1.1532359 2.0057516
-2.8938582 -1.0622022 1.8516554
-2.8925078 -1.0594612 1.8916165
-2.8897669 -1.0614811 1.971584
-3.6503248 -1.1377881 1.9579729
-3.8342037 -1.0608425 2.4440713
-3.7928877 -1.055414 2.4826527
-3.4621601 -1.1529987 2.1917868
-4.862536 -1.0749985 0.45803475
-4.907969 -1.0761486 0.29949701
-6.1970506 -1.113714 2.9548063
-6.325613 -1.09341 3.0255823
-6.4482365 -1.0901034 2.9082046
-6.0416784 -1.1091076 2.7512279
-5.9599314 -1.1013806 2.8294191
-7.55408 -1.0996386 2.225893
-7.5574541 -1.1589336 2.058176
-7.5685964 -1.1114259 2.4659796
-7.5695281 -1.1087432 2.426003
-7.4621649 -1.1112125 2.743885
-7.3689189 -1.0886223 2.8883119
-7.5704775 -1.1035587 2.3860378
-7.3696408 -1.0997579 2.4214826
-7.4704151 -1.1047045 2.3840055
-7.2932744 -1.1583474 2.2419224
-6.8490381 -1.0878987 2.8769398
-6.7290688 -1.087155 2.8743105
-5.6893888 -1.0732099 2.85147
-5.6845021 -1.1083831 2.6230469
-5.8889709 -1.1139503 2.4276342
-5.0909915 -1.1126422 2.3294058
-5.6081767 -1.1070535 2.4612679
-5.4909678 -1.1031122 2.3385777
-5.3291869 -1.102291 2.4149122
-4.1812716 -1.0721555 1.6555036
-4.4638472 -1.0714524 1.585095
-6.2134795 -1.1104078 2.2350025
-6.2144108 -1.1077241 2.195025
-6.2553301 -1.105338 2.1559591
-5.8145442 -1.1022549 2.1859241
-5.7709231 -1.1001925 2.3449807
-5.8153648 -1.1145695 2.145875
-5.9345274 -1.1006452 2.1886702
-6.0962892 -1.1039668 2.1123261
-6.0470819 -1.1180056 2.5112453
-6.1670651 -1.116396 2.5139918
-6.0837593 -1.1114794 2.6596522
-6.2100568 -1.1110966 2.3849621
-5.4937048 -1.102562 2.2186117
-5.6518526 -1.101617 2.302247
-4.4287181 -1.0851519 2.8164515
-4.1680918 -1.1539736 2.6161227
-3.1788502 -1.0723821 3.2274427
-3.2616558 -1.0673536 3.1093631
-3.5122287 -1.0602781 2.875175
-3.5855486 -1.0235265 2.957057
-5.1255755 -1.1040399 2.5702991
-5.9056005 -1.0831465 1.7079612
-5.8628564 -1.0858999 1.8270057
-5.8656673 -1.0753495 1.7070857
-5.9828777 -1.0792911 1.8297743
-6.3436475 -1.1491866 1.7776712
-5.7528758 -1.0904891 1.3843554
-5.0761595 -1.0746466 2.4064875
-5.0293741 -1.0707554 2.6049871
-5.1620421 -1.0875725 2.7312503
-5.1629548 -1.0873892 2.6912618
-5.757287 -1.0954463 2.9448533
-5.6400242 -1.0990047 2.8221297
-5.4894891 -1.0644705 2.8470311
-5.6494317 -1.0679623 2.8505549
-2.5019083 -1.0527494 0.91255355
-2.1049404 -1.0481951 0.81873572
-2.252315 -1.0580394 1.1840314
-1.9450371 -1.0475211 0.81318414
-1.619688 -1.0444175 0.96199596
-1.6624413 -1.0442139 0.88343263
-1.6638298 -1.044029 0.8434577
-1.4653201 -1.0480015 0.79651856
-1.7982686 -1.0377101 0.42865002
-1.8368332 -1.0430183 0.46999598
-1.8376083 -1.0453461 0.4492414
-1.6305192 -1.0433136 0.72222924
-1.6735401 -1.0452288 0.56361711
-1.6769426 -1.0398294 0.4644531
-1.7149138 -1.0427127 0.52504122
-1.7535021 -1.0430663 0.56640422
-1.7569034 -1.0376751 0.46723807
-2.0717006 -1.0415301 0.47815895
-1.8043647 -1.040379 0.46887767
-1.6407855 -1.039284 0.35313225
-1.678411 -1.0420787 0.42371452
-1.5127165 -1.1221364 0.57518363
-8.4377174 -1.1628844 0.45401216
-7.4091678 -1.0876433 -0.84471184
-7.5381823 -1.0886998 -0.44129798
-7.5390825 -1.0886049 -0.4812865
-7.5363626 -1.0913879 -0.36132407
-7.5569515 -1.0910944 -0.28137642
-7.6145172 -1.0946957 -0.2795518
-7.540885 -1.0884178 -0.56126666
-7.5417848 -1.0883235 -0.60125536
-7.6235628 -1.0887548 -0.67943519
-6.6329384 -1.0740062 -0.10135317
-6.6337667 -1.0788568 -0.14136446
-6.6729059 -1.0768476 -0.10049605
-6.5120392 -1.0806341 -0.063997567
-6.6746464 -1.0765492 -0.18047535
-6.6850796 -1.0747591 -0.66035843
-6.8458419 -1.0834714 -0.69690502
-7.5987005 -1.0886382 -0.36047873
-7.6377988 -1.0916265 -0.31963003
-7.6369085 -1.0942755 -0.27964848
-7.7204065 -1.1967318 0.20271599
-7.5309572 -1.091952 -0.12138551
-7.5291562 -1.0921409 -0.041406751
-7.7762737 -1.095747 -0.35593033
-5.9341121 -1.1541425 -1.1170903
-5.9714937 -1.1549306 -0.99625134
-5.702486 -1.1715429 -1.2822298
-5.9358521 -1.153844 -1.1970708
-6.3314157 -1.1554967 -0.98842692
-6.4720926 -1.0752937 -0.064846635
-6.471138 -1.0854419 -0.024895728
-6.2279415 -1.1613426 0.089563727
-6.1978331 -1.1218626 -0.35105103
-7.6325607 -1.0950216 -0.079698265
-6.6902332 -1.0813643 -0.90032965
-6.5763311 -1.0817969 -1.1828756
-6.4122171 -1.058682 -0.98630971
-10.37134 -1.1362677 2.3700714
-10.456905 -1.1208667 2.1320233
-8.7045441 -1.1200711 2.6521692
-8.506464 -1.1132269 2.5676575
-8.3864994 -1.1123202 2.5649223
-8.2674656 -1.1087469 2.5222111
-9.7360744 -1.0839268 3.1299362
-8.7056704 -1.0472013 3.1476917
-9.779892 -1.0990629 2.8768539
-10.110046 -1.1010382 2.7643623
-9.6201954 -1.1200938 2.927278
-9.8253937 -1.0933605 2.6378517
-9.9469433 -1.1264298 2.5604653
-9.9869328 -1.1353992 1.6811203
-9.9060612 -1.1324624 1.7192968
-10.008911 -1.1351784 1.5940846
-10.009671 -1.132543 1.5616037
-10.007809 -1.1378776 1.6415604
-10.001243 -1.1351528 1.6014115
-9.9887581 -1.1350629 1.6011423
-10.011992 -1.1346122 1.4591211
-9.5543957 -1.1170694 2.2314601
-9.5589209 -1.1212314 2.0314927
-10.001457 -1.1340498 1.9215056
-9.229887 -1.1204921 2.4240937
-9.3181343 -1.1120883 2.0660462
-9.2753334 -1.1222874 2.1850586
-9.1182108 -1.1080775 2.061501
-9.0400963 -1.1021383 1.9797219
-8.1966887 -1.0964668 2.1205397
-9.5463505 -1.0960784 2.5914617
-9.62994 -1.1010119 2.4333057
-9.5899143 -1.1057094 2.4323726
-8.8198891 -1.1293145 2.8548164
-10.616976 -1.1248269 -3.1044335
-10.576986 -1.1245757 -3.1053228
-9.9882488 -1.1714255 -0.88643515
-9.9899931 -1.1712427 -0.96391428
-10.819788 -1.1178285 -0.30645466
-10.857584 -1.0960956 -0.20295805
-10.640303 -1.0970573 0.32969177
-10.814384 -1.1039331 -0.066450477
-9.9950333 -1.1402227 2.2014089
-9.9759445 -1.1424091 2.1609688
-9.9532013 -1.1427561 2.2804651
-9.9541492 -1.1375885 2.2404981
-10.175905 -1.1414196 2.1655364
-10.252306 -1.1326936 2.3273582
-10.685305 -1.059624 1.457312
-10.361599 -1.0981125 2.8101263
-10.061434 -1.1370081 1.9228772
-10.665279 -1.0609127 1.7869376
-10.665545 -1.0558703 1.7769612
-10.202465 -1.1240599 1.005905
-2.7030339 -1.1466429 -0.77592063
-2.7016699 -1.1464013 -0.73594427
-2.7057624 -1.1471236 -0.85587263
-2.8615754 -1.147153 -0.73048443
-2.7003062 -1.1461614 -0.69596875
-2.7937412 -1.048316 -0.57744104
-2.9060714 -1.0605651 -0.84955865
-2.9015508 -1.1473405 -0.72911918
-2.9787757 -1.1472355 -0.6464361
-2.7905772 -1.1410861 -0.49781755
-2.9746823 -1.1465136 -0.52650797
-3.47312 -1.1286223 -0.46958286
-3.5457292 -1.05607 -0.82775778
-3.0573635 -1.1473699 -0.60372984
-5.5678091 -1.1896186 -0.84511888
-6.1356239 -1.0731999 -1.1524165
-5.500061 -1.0770038 -1.3662977
-6.0173101 -1.0818787 -1.2350396
-5.6506224 -1.1530617 -2.7149131
-5.6906652 -1.1534308 -2.7165666
-5.6866336 -1.0895683 -2.4995008
-6.1465459 -1.1162592 -1.672465
-6.1456566 -1.118907 -1.6324847
-6.7067523 -1.0785296 -1.6601435
-6.8250442 -1.0723491 -1.577529
-6.907567 -1.0800834 -1.6957927
-6.830409 -1.0988882 -1.8350739
-4.9338999 -1.0782205 -0.46006158
-5.0076356 -1.0963005 -0.4974604
-5.4842215 -1.1021881 -0.6465618
-5.0069599 -1.0974674 -0.69759727
-5.1788101 -1.1628069 -0.61129069
-5.0590038 -1.1372434 -0.61553329
-3.5324874 -1.1287981 -0.4500449
-3.4692578 -1.1283691 -0.4296917
-5.4603233 -1.1562124 0.43297994
-5.6439214 -1.1371495 0.27700388
-4.0310845 -1.160691 1.3532327
-3.9237261 -1.1589143 1.5671901
-3.8629947 -1.1584965 1.5876278
-3.8244667 -1.1585643 1.5437886
-3.7152715 -1.0573088 1.2392722
-3.8012986 -1.1583382 1.5630077
-3.6243453 -1.0675071 1.5564238
-3.7442737 -1.0680717 1.5605184
-3.3376775 -1.0674905 1.7467605
-3.3739846 -1.0753944 1.7080234
-3.4603348 -1.0685347 1.6709043
-3.4371893 -1.1554576 1.7506856
-3.6288867 -1.1549529 1.9973687
-3.5696044 -1.1547906 1.9753324
-3.8424087 -1.1582972 1.6044348
-4.0093651 -1.1607212 1.3299781
-4.0325336 -1.1609479 1.3107582
-5.1735101 -1.1543063 0.45059025
-3.8889127 -1.1630673 0.82808447
-4.0882955 -1.1439017 0.85228264
-3.9217968 -1.0699316 -4.5919065
-4.5229025 -1.0908687 -4.6621909
-4.5629139 -1.0886506 -4.6615081
-3.6418419 -1.0679662 -4.5965147
-3.8216057 -1.0659078 -4.2448683
-4.0463877 -1.0705621 -4.8699045
-4.0470295 -1.0726744 -4.9099216
-4.088398 -1.0646818 -4.9891753
-4.0525985 -1.0663902 -4.7897468
-2.3488083 -1.1053326 -5.1159105
-2.4259 -1.0967005 -5.0329509
-2.1902061 -1.1287613 -5.1619673
-2.5561368 -1.0823648 -5.308248
-9.4594288 -1.1119465 -2.2579703
-9.2266827 -1.112108 -2.5832934
-9.0304012 -1.1028196 -2.7477407
-9.5429897 -1.114825 -2.4161317
-9.1318703 -1.1097099 -1.9258392
-9.1394615 -1.1169709 -2.2651839
-9.1758471 -1.1175214 -2.1043243
-8.8074923 -1.2201029 -1.7733645
-8.4323921 -1.2369725 -2.0012188
-8.2270889 -1.1543355 -2.6283765
-8.84305 -1.1206782 -1.6522986
-8.8489475 -1.1206236 -1.6921749
-9.2558441 -1.1156397 -2.10252
-9.1412821 -1.1143507 -2.3451591
-8.9341516 -1.1107848 -2.0297377
-8.8142262 -1.1048563 -2.0324297
-8.8932438 -1.1130347 -1.9906524
-8.7760191 -1.1069269 -2.1133134
-8.9319267 -1.1081592 -1.930338
-8.8919201 -1.1103491 -1.9312446
-8.2436886 -1.1143657 -2.6854558
-8.2275972 -1.1393096 -2.6458457
-8.2099876 -1.1541736 -2.6462646
-7.8677778 -1.1265241 -2.6539316
-8.6981525 -1.1182863 -2.4351654
-8.7002811 -1.1185164 -2.3075862
-6.0062666 -1.1456336 1.5499281
-5.7733359 -1.1587631 0.46425974
-5.7342615 -1.1582816 0.42335963
-5.6933603 -1.1581683 0.46243787
-5.721674 -1.0896794 -0.52132291
-5.6975074 -1.094317 -0.56187582
-6.2123184 -1.1543256 -1.0310217
-8.5141115 -1.1035552 -2.9194107
-8.4731264 -1.1158047 -2.8803425
-8.0683393 -1.1522704 -3.1295743
-8.118556 -1.1226585 -3.1283989
-9.5102444 -1.1090343 -2.736943
-9.4375305 -1.1004331 -3.0586491
-9.5174694 -1.1060523 -3.0568566
-9.5565395 -1.1089218 -3.0159702
-9.4612503 -1.109327 -2.3379457
-9.4630127 -1.1142051 -2.417932
-9.0676498 -1.10831 -2.6268797
-10.228567 -1.1358188 -3.6332459
-10.058398 -1.1265289 -3.7648873
-10.131576 -1.1272293 -3.6832199
-10.070486 -1.1195865 -3.7167392
-10.029604 -1.1194525 -3.6776404
-9.9792805 -1.1159704 -2.2462668
-9.8993607 -1.107851 -2.2480555
-9.8174686 -1.1223518 -2.1699007
-10.096546 -1.1170795 -2.1235981
-10.101068 -1.1142778 -2.3235424
-9.9491997 -1.1149988 -2.6870546
-7.5651073 -1.098375 -1.6410197
-7.6255908 -1.091513 -1.6002054
-8.8854961 -1.1559778 -4.2051373
-8.8601027 -1.1092846 -4.0719199
-8.9256124 -1.1438863 -4.2042608
-8.8574009 -1.109465 -3.951951
-8.7262497 -1.1796253 -4.2488008
-8.5263968 -1.170083 -4.2536607
-8.5274067 -1.1653671 -4.2936816
-8.4854774 -1.1668911 -4.2146516
-8.7792053 -1.1112255 -4.0337348
-8.4502068 -1.1754004 -4.4154992
-5.367774 -1.0955694 -0.80910754
-5.3953085 -1.0908033 -0.80849051
-5.129725 -1.0757278 -0.89422756
-5.1487989 -1.0793047 -0.89298517
-5.6965499 -1.0768031 -1.201986
-5.3774214 -1.0839293 -1.2489613
-5.2930536 -1.0889926 -1.0507662
-5.21275 -1.0883675 -1.037505
-5.4165826 -1.0794189 -1.2080822
-5.4148445 -1.0797164 -1.1281018
-5.2953892 -1.121044 -1.170864
-5.3756194 -1.0917261 -1.1690092
-5.6397848 -1.1719493 -1.0435369
-5.0446758 -1.1966252 -1.3761212
-5.126018 -1.1922423 -1.4133949
-4.9447756 -1.0876437 -0.77982575
-5.8789783 -1.0890758 -2.1353536
-5.9929643 -1.1312758 -1.975934
-6.0798378 -1.0835981 -2.1711562
-5.9700356 -1.1311594 -1.9564259
-6.1257243 -1.0756828 -2.445303
-6.0040827 -1.084148 -2.3728011
-6.0432053 -1.0867503 -2.3319473
-5.9834495 -1.075495 -1.5158212
-5.9470434 -1.0620583 -1.6766005
-5.0109277 -1.0603107 -2.7626441
-4.9709425 -1.0626422 -2.7640443
-5.1389122 -1.0602542 -1.8376341
-4.9887209 -1.0607812 -2.1230254
-4.9445996 -1.05617 -2.004463
-5.3826389 -1.083033 -1.4889019
-3.9495485 -1.0767994 -2.5994673
-4.5709195 -1.0928358 -1.5530081
-4.5337453 -1.0781296 -1.6344132
-4.5282645 -1.082167 -1.4744799
-4.4896526 -1.0822206 -1.515821
-4.5668397 -1.0896153 -1.4330951
-6.1724601 -1.1532009 -1.9687128
-6.6782146 -1.0634097 -2.0786238
-6.4948745 -1.1560565 -1.9618843
-6.5552816 -1.1567132 -1.9806092
-6.4823251 -1.1756407 -2.322114
-5.9717426 -1.1161493 -2.7483728
-6.1674852 -1.0790708 -2.5294199
-6.2490878 -1.0877812 -2.6076608
-6.4233427 -1.1578618 -2.3634806
-5.7469301 -1.080353 -1.6810203
-5.7869606 -1.0756941 -1.6801322
-5.8270125 -1.068535 -1.679234
-5.8296213 -1.0680871 -1.7992053
-5.2134733 -1.0923294 -2.829555
-5.1743274 -1.0922264 -2.8703918
-5.17346 -1.0944747 -2.8303859
-7.8200979 -1.1511555 -2.6550422
-7.7924342 -1.2255405 -2.8958387
-7.6988177 -1.2300849 -2.7379122
-6.1375575 -1.1527489 -1.2727003
-6.2184048 -1.1532803 -1.3109534
-5.3543935 -1.1858337 -1.9657822
-5.3011389 -1.1479224 -2.3872466
-5.2628045 -1.147339 -2.3480506
-5.669497 -1.2090412 -1.8507247
-5.3836179 -1.1486536 -2.3855009
-5.6466441 -1.0892131 -2.5003476
-5.3777065 -1.0875224 -1.6090546
-5.3873234 -1.087222 -1.7063684
-5.2587261 -1.0924726 -1.7696826
-5.2630148 -1.0577018 -1.9533849
-5.3915014 -1.0615425 -1.8887267
-5.5998979 -1.0868483 -2.1812727
-5.7198877 -1.0854099 -2.1787472
-5.0217624 -1.0593787 -1.921748
-5.1541548 -1.0615518 -2.0139155
-5.3700061 -1.0977392 -2.6661754
-4.8590937 -1.0565757 -1.847337
-4.8191075 -1.058907 -1.8487357
-4.6192398 -1.0555667 -1.8556632
-4.7405548 -1.0558853 -1.8914756
-5.0074167 -1.1994183 -1.4574238
-5.0529103 -1.1880692 -1.6160352
-4.0360775 -1.0983123 -2.3564141
-4.7117877 -1.0777204 -0.98795527
-4.8634777 -1.1779648 -0.90212864
-4.7098856 -1.1874768 -0.94733697
-4.798377 -1.1167982 -1.1848865
-4.6783051 -1.0982646 -1.1090472
-4.8755903 -1.1191922 -1.1021883
-4.4168491 -1.0570428 -2.9433637
-4.5367866 -1.055048 -2.939189
-4.8055062 -1.0577114 -2.6096702
-5.1785507 -1.0934831 -3.0703435
-4.5054369 -1.1189485 -2.6203785
-4.6980972 -1.0505347 -2.9735894
-4.6595106 -1.0501816 -3.0149527
-4.5753722 -1.0554012 -2.8978248
-5.1829324 -1.0772419 -3.2704005
-5.0290399 -1.0428967 -3.2822542
-4.7905865 -1.0392013 -3.3305449
-5.1811533 -1.0867379 -3.1903591
-5.2611094 -1.0899463 -3.1886506
-5.260241 -1.0921944 -3.1486459
-4.7036915 -1.0397924 -3.1334429
-4.8951664 -1.059249 -2.886734
-4.9420962 -1.0559888 -3.0852118
-4.8979754 -1.0513771 -2.9666505
-5.056448 -1.0622365 -2.9211702
-4.9793248 -1.0490273 -3.0038376
-5.433579 -1.1126347 -3.7850094
-5.3936791 -1.10228 -3.7859173
-5.4702797 -1.1019825 -3.6242633
-5.4302678 -1.1041296 -3.6250954
-5.3240032 -1.0770317 -3.7124376
-5.4719024 -1.109985 -3.7041984
-5.513514 -1.1183417 -3.7832866
-5.4110756 -1.1181674 -3.9054804
-5.2753115 -1.1117212 -3.8683777
-5.3136787 -1.1040714 -3.7875967
-5.2113132 -1.0727367 -3.3098402
-5.3810549 -1.0935086 -3.1860952
-5.3102555 -1.1080666 -3.6276059
-5.8275261 -1.1595227 -3.5138302
-5.828424 -1.1597909 -3.5563202
-4.1849623 -1.0770237 -2.7513883
-4.0904541 -1.0765654 -2.7671778
-3.8163533 -1.0746213 -2.9417915
-3.8577178 -1.0746046 -2.9803796
-3.8612711 -1.0758522 -2.7226031
-3.9389715 -1.0747664 -3.0150795
-3.8185937 -1.0568322 -3.0041695
-3.5384183 -1.0766561 -1.7884589
-3.4543867 -1.0730586 -1.6712755
-3.4599187 -1.0581849 -1.895946
-3.4199429 -1.0580164 -1.8973343
-2.5280793 -1.1576613 -2.0790319
-2.5251672 -1.1577506 -1.9990849
-3.20906 -1.0734688 -1.5195488
-3.5634263 -1.0666984 -1.3474009
-3.6056166 -1.172364 -1.4253736
-3.0887384 -1.152904 -1.523177
-3.1246223 -1.1523697 -1.4018835
-3.1345644 -1.0740561 -1.6821842
-3.2749784 -1.151437 -1.1165904
-3.6301289 -1.174042 -1.264431
-3.5055962 -1.0934572 -1.269165
-3.1495934 -1.149911 -0.96078324
-3.2708869 -1.1507151 -0.9966619
-1.6087306 -1.1489805 -2.112515
-2.4324777 -1.1352922 -1.710966
-2.3267648 -1.1558183 -2.0463386
-2.1625097 -1.1544418 -1.9322412
-1.7195671 -1.1356221 -0.77514601
-1.7595439 -1.135794 -0.77375746
-1.8381062 -1.1362748 -0.73100603
-1.8528903 -1.1679176 -4.4251809
-1.8500714 -1.1580068 -4.3452187
-1.2758822 -1.1556664 -3.9658689
-1.2546263 -1.0938346 -3.3661766
-1.595679 -1.1561863 -3.9542184
-2.7911665 -1.0926449 -3.7905169
-2.8204706 -1.0977488 -3.9095349
-2.7947609 -1.0975344 -3.8904567
-3.0992672 -1.0632489 -4.189898
-2.8828838 -1.1380264 -4.1224475
-2.7439134 -1.0924896 -3.5921049
-3.0440781 -1.0501225 -3.7514849
-3.0054917 -1.0497689 -3.7928481
-3.0068696 -1.0520831 -3.8328342
-3.0096264 -1.0567123 -3.9128094
-2.9682429 -1.0617299 -3.8742461
-2.5899272 -1.0587541 -1.6251889
-2.5099757 -1.0584095 -1.627965
-2.5868349 -1.1340251 -1.5455027
-2.4974787 -1.0596303 -1.2681845
-2.5040965 -1.1364518 -1.4683367
-2.1762853 -1.0583895 -1.2393112
-2.1429284 -1.1350373 -1.4408524
-2.147094 -1.1346303 -1.5607793
-2.0713079 -1.1338781 -1.6834822
-2.1926239 -1.1342596 -1.7192934
-2.3855698 -1.1332984 -1.5124671
-8.2331486 -1.1123673 -1.1058731
-8.507452 -1.1426007 -0.85970527
-8.667387 -1.1463403 -0.85611171
-8.6676092 -1.1613039 -0.87114555
-8.5476999 -1.1603688 -0.87634486
-8.5876884 -1.1606792 -0.87544399
-9.1556358 -1.1641701 -1.2227526
-8.9147568 -1.1174473 -1.1705537
-9.0694094 -1.1642029 -0.94712424
-7.0641088 -1.0745432 -1.5323306
-7.6433411 -1.0916843 -1.5592221
-7.4222093 -1.0854057 -1.4445651
-7.1866636 -1.0776165 -1.6497056
-6.7007294 -1.0720733 -1.380183
-6.49403 -1.1558038 -1.9218955
-6.6632853 -1.0787848 -1.5010514
-6.9814796 -1.0793086 -1.4141148
-6.9797411 -1.0796069 -1.3341357
-7.7188144 -1.0927738 -1.3574727
-7.8379765 -1.0812991 -1.3147526
-7.7580566 -1.0731786 -1.3165324
-7.6551886 -1.0886444 -1.1194338
-7.4178185 -1.0911525 -1.2446338
-7.9152327 -1.0846997 -1.1929892
-7.6534486 -1.0889413 -1.0394539
-7.6134601 -1.0886018 -1.0403227
-7.6517525 -1.0842413 -0.95945376
-6.9318848 -1.085609 -0.97511053
-6.8285227 -1.0717536 -1.7374899
-10.322895 -1.1099237 -2.4707789
-8.1731215 -1.1127449 -3.3272057
-8.2445641 -1.2342415 -2.7656379
-7.8660378 -1.1916039 -2.5990548
-7.8269272 -1.1212749 -2.6148334
-8.7449989 -1.1110142 -2.5141203
-8.3100529 -1.2347103 -2.786669
-8.1104698 -1.1206999 -2.7684875
-8.2358789 -1.1162683 -3.0057163
-7.9894676 -1.1373323 -2.7312269
-8.3949499 -1.1150663 -2.962122
-8.2731638 -1.116758 -2.8848476
-8.1203957 -1.1175386 -3.2083693
-8.0868807 -1.2117443 -3.5293484
-9.2438927 -1.0984632 -3.3430781
-9.2802591 -1.1015136 -3.1822233
-9.0386419 -1.0847787 -3.1076193
-8.5285616 -1.0975919 -3.5592384
-8.4530506 -1.1016713 -3.7609954
-8.492157 -1.0995404 -3.7201014
-4.6999145 -1.071267 0.532511
-4.1668844 -1.1440377 0.89499021
-4.4956017 -1.0776968 1.8263587
-4.8222814 -1.0704017 1.6373426
-4.8154106 -1.0791988 1.8372816
-4.5487332 -1.0792751 2.0283017
-4.4887686 -1.0789928 2.0262547
-4.4805822 -1.0775509 2.2661104
-4.4365635 -1.066641 2.384614
-6.6676903 -1.0777417 0.13944608
-6.8908606 -1.0876337 0.61012483
-6.8857312 -1.1660492 0.80970192
-6.8545418 -1.0841024 0.44926929
-6.5078659 -1.1637264 0.095641017
-6.7189198 -1.0836431 -0.37958795
-6.7415819 -1.0794681 0.42111444
-6.7851338 -1.0692128 0.26206076
-6.3852425 -1.0658058 0.25337875
-6.3468652 -1.0801665 0.17247093
-6.5043621 -1.0644766 0.29598355
-6.3843942 -1.0634551 0.29337835
-6.2260919 -1.0717945 0.20988631
-7.231843 -1.0867656 -0.048370659
-7.2370801 -1.0833697 -0.28830212
-6.9727192 -1.0803615 0.53200483
-6.9806266 -1.0841613 0.46630323
-7.0944915 -1.0833856 0.45474768
-7.0188971 -1.0822996 0.54716134
-7.0544658 -1.0880883 0.45381296
-7.0632133 -1.0843939 0.34806955
-7.13448 -1.0836825 0.45565891
-6.59694 -1.0694827 3.4314327
-6.6033063 -1.1178983 2.6839848
-6.7651224 -1.1137199 2.6076741
-7.1168404 -1.1130449 2.9758024
-7.1628036 -1.0926673 3.1639132
-7.1967993 -1.1161391 2.9776134
-6.9568496 -1.1168573 2.9721332
-7.5911951 -1.1368349 1.4661092
-7.7288289 -1.118101 1.5746275
-6.968173 -1.078779 0.7319622
-6.718039 -1.1015162 1.1662682
-6.7980881 -1.0921102 1.168137
-6.8672667 -1.1097437 1.0896143
-8.1290703 -1.1466668 3.4149842
-8.3332424 -1.1649578 3.2193165
-8.3315611 -1.1651647 3.2967982
-8.2665234 -1.1647394 3.2978897
-8.6346989 -1.1051238 2.2105203
-7.66397 -1.1073873 2.6684852
-7.2867422 -1.1247144 2.5395083
-7.2105598 -1.158303 2.3600664
-2.6169772 -1.0995235 3.2942357
-6.6528111 -1.077985 0.52471364
-6.6219926 -1.0658993 0.40606201
-5.1294093 -1.0740283 0.84736681
-5.284915 -1.0795367 0.85358536
-5.1640005 -1.0838294 0.8908155
-5.2748208 -1.089057 1.293429
-5.3147912 -1.0918542 1.2943283
-5.1475477 -1.0728679 1.4883617
-10.062782 -1.1091779 -0.44383624
-9.81213 -1.1069298 -0.15006143
-10.010291 -1.1061679 -0.065575659
-10.014563 -1.1055393 -0.084828556
-10.052061 -1.1087899 -0.14466137
-10.014755 -1.1106963 -0.26553583
-10.026505 -1.1031486 -0.60468519
-10.197845 -1.1323977 1.2058166
-10.195089 -1.1353997 1.3257748
-10.488791 -1.1225009 0.7323699
-10.317865 -1.1212066 0.64226127
-10.477836 -1.1198852 0.64594305
-10.490616 -1.1221668 0.65239143
-10.482446 -1.1164664 0.44600987
-10.440603 -1.1190401 0.52505922
-9.9616222 -1.1224152 1.0404255
-10.603373 -1.1119128 0.97509468
-10.607881 -1.1185749 0.77511561
-10.518666 -1.1346467 1.1731185
-10.399632 -1.1310725 1.1304069
-6.9971676 -1.0788262 -0.29350162
-6.2191 -1.0707841 -1.3106312
-6.1799183 -1.0777944 -1.3515185
-6.0793447 -1.1227307 -4.5824289
-7.3948417 -1.1204925 -3.8235536
-7.2739387 -1.1291771 -3.7860427
-7.3123741 -1.11403 -3.705307
-7.3956857 -1.1207432 -3.8635445
-1.2046351 -1.0588691 -2.0735502
-1.2418342 -1.0593132 -1.99221
-1.2432227 -1.0591774 -2.0321865
-1.273499 -1.055299 -1.7509506
-1.3934269 -1.0558156 -1.7467867
-1.394804 -1.05818 -1.7867715
-0.12745667 -1.0661229 -1.5987396
-0.12684917 -1.0661982 -1.58125
-1.3533511 -1.1388801 0.55205929
-1.1923327 -1.0708945 0.58680725
-1.0351677 -1.0798494 0.50125706
-0.91522026 -1.0843449 0.49706888
-0.99720097 -1.0744013 0.44072652
-1.2364845 -1.0680056 0.4682802
-0.97996855 -1.069224 0.93965912
0.083946228 -1.0392392 -0.11755818
0.0054454803 -1.0547533 -0.074872196
-1.3933272 -1.1390486 0.5534476
-1.9041717 -1.137975 -0.32847428
-1.9844892 -1.0508207 -0.32538766
-0.67085028 -1.0445955 -0.531093
-0.59733629 -1.0316366 -0.57362688
-0.87900591 -1.0571425 -0.76405078
-0.262743 -1.0486867 -0.30513549
-0.12141323 -1.0569259 -0.27059764
-0.84083319 -1.0807654 0.3344028
-0.75731564 -1.0808686 0.43237185
-0.71733999 -1.0806954 0.43098414
-0.79392576 -1.0790249 0.53290534
-0.79807043 -1.0834681 0.41295457
-0.57494831 -1.0750823 0.42605686
-0.29811096 -0.94173634 0.99661541
-1.3423529 -1.0542301 -1.4283609
-1.2196279 -1.058984 -1.352592
-1.2968125 -1.0571004 -1.2698548
-1.4292569 -1.0513952 -1.6254547
-1.0832996 -1.0634874 -2.037755
-1.080533 -1.0612596 -1.9577951
-1.9503171 -1.0559983 -1.6473954
-1.8800752 -1.0572035 -1.9300095
-1.8290133 -1.0531169 -1.6115758
-1.8703554 -1.0581543 -1.6501808
-1.8717554 -1.055518 -1.6901476
-1.3604045 -1.0524651 -1.9480442
-1.2845869 -1.059213 -2.0707736
-1.3645377 -1.059558 -2.0679984
