ply
format ascii 1.0
comment PCL generated
element vertex 1489
property float x
property float y
property float z
element camera 0
property float view_px
property float view_py
property float view_pz
property float x_axisx
property float x_axisy
property float x_axisz
property float y_axisx
property float y_axisy
property float y_axisz
property float z_axisx
property float z_axisy
property float z_axisz
property float focal
property float scalex
property float scaley
property float centerx
property float centery
property int viewportx
property int viewporty
property float k1
property float k2
end_header
-1.4551892 1.3242072 -2.7775021
-1.1885567 1.3332353 -3.1474113
-1.3069682 1.326713 -3.103126
-1.3853669 1.3155501 -3.0603552
-1.4282808 1.3185844 -3.1388121
-1.3839688 1.322603 -3.0202999
-1.2640753 1.3261788 -3.024641
-1.3825073 1.322156 -2.9803286
-1.269474 1.3245485 -3.1045203
-1.2843795 1.314929 -3.5844331
-1.4841311 1.3006368 -3.5772915
-1.561367 1.3240254 -3.4941497
-1.7212758 1.3250904 -3.4882927
-1.6001737 1.3258038 -3.460187
-1.3186564 1.3302838 -3.4228926
-0.83746719 1.3261288 -2.9201484
-0.86848354 1.3253899 -2.878993
-1.3023748 1.3251724 -3.1833701
-0.27575064 1.3388946 -1.8743061
-0.50526237 1.335582 -1.9714853
-0.091656208 1.3711293 -2.1463249
-9.6860332 1.292492 -4.901628
-9.7645779 1.296575 -4.8396688
-9.9230709 1.2973664 -4.7757487
-9.8955545 1.2951375 -4.7764306
-9.8859367 1.2880148 -4.896719
-8.602354 1.290339 -4.7682462
-8.8022594 1.285861 -4.7633367
-1.9207335 1.3314923 -4.8269444
-7.0653205 1.2865677 -4.3456211
-7.1061792 1.2863427 -4.3847423
-7.0261593 1.2820244 -4.3864961
-6.905582 1.2879623 -4.3590927
-6.7823005 1.2885468 -4.2092342
-7.1427546 1.2930404 -4.2238908
-6.9436364 1.2898617 -4.2682385
-7.0552797 1.293743 -4.2376833
-7.133975 1.2818905 -3.8240175
-6.9775171 1.2862145 -3.9874454
-6.974082 1.2907544 -3.8274684
-7.3322444 1.2874537 -3.7396703
-7.2906852 1.3075643 -3.6604972
-8.2435169 1.2662246 -2.5254109
-8.4023991 1.289817 -4.7731676
-8.7279062 1.2804635 -2.709517
-8.8106623 1.2901268 -2.8276615
-3.8882427 1.2813476 -5.0200777
-3.9287658 1.286443 -5.0442023
-4.0467105 1.2802196 -4.9442925
-4.1568918 1.3293114 -4.3829103
-4.1564345 1.3229547 -4.4390244
-3.9003229 1.3158143 -3.9115849
-4.0244269 1.3183044 -4.0273366
-3.9044895 1.3163235 -4.0315118
-4.9693742 1.2860745 -5.0626974
-3.8505452 1.2948011 -3.6332316
-3.930516 1.2994545 -3.630435
-3.9712174 1.3068666 -3.6490016
-3.9760575 1.3024606 -3.788938
-4.0528178 1.3067216 -3.6936965
-4.237258 1.328056 -4.4773173
-4.3126183 1.3256106 -4.257443
-4.3911695 1.3225939 -4.2147026
-4.3939042 1.3129343 -4.2946973
-4.7554326 1.3057499 -4.3867784
-4.6837978 1.3138225 -4.4281988
-4.8779087 1.3139266 -4.5042052
-4.9978323 1.2960559 -4.5018811
-4.6379766 1.3196687 -4.5091157
-4.5155067 1.313991 -4.3916674
-4.6362047 1.3139265 -4.4241805
-4.7096004 1.3151516 -4.5876951
-4.7979422 1.3191744 -4.5058122
-4.8970776 1.3036697 -3.8019681
-4.9401774 1.3038784 -3.8905253
-5.2733254 1.2991272 -4.2642088
-5.3532348 1.2887808 -4.2614765
-4.722023 1.319338 -5.0675216
-4.8935909 1.3105687 -5.2641015
-5.7880573 1.3055568 -4.7879658
-5.7517567 1.2939963 -4.9489145
-6.1691246 1.3018872 -3.6048803
-6.5582833 1.2891802 -3.7965035
-2.7376497 1.3026659 1.33121
-0.52391195 1.3280089 -1.7674274
-0.4012394 1.3356887 -1.6916069
-0.40825224 1.3373699 -2.0550709
-0.33241796 1.3423915 -2.0141656
-0.54523516 1.3352231 -1.9700274
-0.58518553 1.3323647 -1.9685994
-0.91662598 1.3305664 -2.2767377
-1.2545595 1.3212503 -2.0622718
-0.84826422 1.3223553 -2.5995612
-0.39309597 1.3428161 -2.7360599
-0.40038013 1.3425481 -2.9359426
-0.8945365 1.3239214 -2.7704797
-0.8937149 1.3236706 -2.7479959
-0.99018002 1.3379736 -3.1946387
-1.0183349 1.3190461 -2.8735871
-0.97696686 1.3264576 -2.8349862
-2.0100625 1.3074752 -1.9210169
-1.594645 1.319024 -2.2120547
-1.7559292 1.3105356 -2.2462831
-1.7342563 1.3166741 -2.045629
-0.30306673 1.3216689 0.84392738
-0.29879141 1.326703 0.96384871
-0.26599884 1.3245112 0.76253808
-0.11299562 1.3430076 0.40148175
-0.33744478 1.3402381 -0.31127298
-0.54688025 1.3082086 -0.12570953
-0.8518343 1.3049517 1.4658366
-1.1455693 1.3104365 1.0758187
-0.90291882 1.306136 1.1474203
-1.4101982 1.3248587 1.5253402
-1.2019458 1.3147075 1.7582103
-0.054507732 1.3839339 1.0926189
-0.49168348 1.3190166 0.31268871
-0.53026009 1.3161737 0.3540405
-0.17171907 1.3895557 -0.13961995
-0.51800346 1.3072395 -0.44691306
-0.71790075 1.311373 -0.43995142
0.44758177 1.3485433 0.57671249
-0.1213522 1.376563 0.16142213
-0.15990353 1.3641163 0.20283616
-0.20265675 1.3734459 0.12419021
0.34072113 1.337551 0.94079983
0.15358829 1.3401276 -1.168533
-0.04491663 1.3369296 -1.1217159
0.036337852 1.3500451 -1.0845439
-0.39708424 1.3376789 -1.5716693
-0.31988955 1.3333652 -1.6544185
-0.20074177 1.3393992 -0.99634105
-0.8538332 1.3240577 -2.7519515
-0.77124166 1.3239659 -2.6824169
-0.81413603 1.3245003 -2.7609019
0.069577694 1.3725162 2.3114424
-0.33283091 1.3356602 2.3685017
-2.4648411 1.3598236 -1.179554
-2.6275215 1.3594695 -1.2539544
-2.5404463 1.3740562 -5.4843407
-1.935745 1.3277596 -3.8807154
-1.9728591 1.3340081 -3.7992291
-1.7920301 1.3207791 -3.1655211
-1.7524822 1.3220532 -3.2470107
-1.8694532 1.3175851 -3.1627259
-1.7110271 1.3194653 -3.2085252
-1.9820852 1.3167775 -2.9584718
-2.5461607 1.3230934 -3.0578713
-2.543195 1.3172028 -2.9779863
-2.3891521 1.3204215 -3.1436977
-2.5300033 1.3081858 -2.6183062
-1.893491 1.3274217 -3.8197184
-1.4899964 1.3049223 -3.7371459
-2.3192034 1.3215631 -3.6265917
-2.3262417 1.3213569 -3.6138282
-2.2853084 1.3264081 -3.5877481
-2.0692272 1.3057932 -3.1555552
-2.1863284 1.3163229 -3.0710998
-2.1072063 1.3172914 -3.0964975
-2.2635844 1.3179277 -3.268404
-2.030695 1.304098 -3.1970115
-2.5090897 1.3218454 -3.1392984
-2.7235374 1.3220161 -3.5317502
-2.808435 1.3162547 -3.5287113
-2.7620051 1.3162113 -3.4903784
-2.5319777 1.3205736 -3.698885
-2.4507627 1.3185449 -3.4617
-2.3833094 1.3191501 -3.4641585
-2.3237765 1.3206035 -3.5463781
-2.2068031 1.3250711 -3.6306615
-2.838639 1.2926017 -3.3081713
-2.8702114 1.3090656 -3.1662703
-1.947937 1.316422 -3.1198416
-1.7939148 1.3221418 -3.2855244
-1.9937735 1.3203484 -3.2782393
-1.4304237 1.3242258 -3.1962123
-2.3894722 1.3139268 -4.6498666
-2.2266259 1.3092781 -4.5758104
-2.3880274 1.3160204 -4.609869
-2.3412437 1.3184607 -4.026114
-2.5555196 1.2986325 -4.4187946
-2.5375988 1.2995254 -4.3243656
-0.21464825 1.3662144 -4.4235473
-0.29597139 1.3883576 -4.4528522
-0.29171228 1.3696039 -4.3406353
-0.20878315 1.3619299 -4.2636929
-0.63293457 1.3422056 -4.1683497
-0.41768599 1.3953117 -4.4958596
-0.29652119 1.3860854 -4.7019811
-0.62657785 1.3359033 -4.3938818
-1.3077331 1.3195704 -4.2239957
-1.4929624 1.3108147 -3.8170304
-1.2931662 1.3201064 -3.8242297
-0.47764683 1.3947747 -4.4936724
-1.6241326 1.4032866 -1.1685482
-1.6523197 1.3841829 -0.82994384
-1.6693063 1.3843627 -0.88688773
-1.407619 1.3046718 -0.70870072
-1.3125215 1.3053795 -0.77954304
-1.3671999 1.3022921 -0.69760817
-1.2490182 1.3055238 -0.75172985
-1.5372291 1.4002851 -0.97145736
-1.5091252 1.3847042 -0.81240106
-0.79924107 1.3111967 -0.47715154
-1.0943027 1.301851 -0.9072116
-0.5058403 1.3208039 -1.2477679
-0.46862078 1.3163159 -1.329128
-0.94493198 1.3291371 -1.9554859
-0.90786028 1.3278887 -2.0369129
-0.71822882 1.3328062 -2.3239939
-0.63536263 1.3326297 -2.2469664
-0.77488422 1.3308265 -2.0788937
-0.91078281 1.3287815 -2.1168551
-0.85482454 1.3279804 -2.0761292
-1.8817251 1.3294539 -1.6802329
-1.5964777 1.3624871 -1.5299023
-1.5963104 1.3224883 -1.5300775
-1.5907769 1.3268094 -1.3701541
-1.1593242 1.3172301 -1.6253284
-2.1378407 1.2974284 -4.3390055
-2.1426959 1.3032016 -4.0735698
-2.8828104 1.3004376 -3.4266772
-2.5651317 1.3263973 -3.5775194
-2.3616757 1.3874512 -4.9703684
-1.811414 1.4172713 -5.3104191
-2.8482749 1.2998708 -2.5667369
-0.37218189 1.3564779 -3.2570519
-0.65917635 1.3531666 -4.3925138
-0.46466541 1.3864714 -4.4141817
-0.43968582 1.3866961 -4.415091
-0.49311829 1.378256 -4.3732042
-0.41415262 1.386752 -4.4010148
-0.38550234 1.3319265 -4.1775088
-0.38868093 1.3628159 -4.2571058
-0.48394585 1.3280827 -4.1339264
-0.39161253 1.3861502 -4.3317933
-0.39671898 1.3290679 -3.9369574
-0.094668388 1.359791 -4.4280047
-0.064816952 1.3260375 -4.5903411
-0.057361603 1.331046 -4.509748
-0.044351101 1.3247637 -4.430954
-0.0457201 1.3250984 -4.4709291
-1.8720145 1.3307673 -1.4003928
-1.8476977 1.3028102 -0.70342922
-1.8855033 1.3023729 -0.63957942
-0.67750978 1.3407798 -4.8973317
-0.26382494 1.3461257 -3.5813608
-0.42796803 1.3310313 -3.6956182
-0.38651323 1.3284446 -3.6571321
-0.64512873 1.3556647 -3.6073446
-0.83888721 1.3220888 -3.4405212
-0.84032774 1.3200351 -3.4805202
-0.80183792 1.3233393 -3.5219188
-0.88758183 1.3194084 -3.6789465
-0.64936209 1.3395041 -3.7274585
-0.57231903 1.3386152 -3.8103423
-0.47378349 1.3324589 -3.854044
-0.57524109 1.3395077 -3.8902836
-0.475245 1.3329037 -3.8940144
-0.74526978 1.3311981 -4.1643662
-1.040463 1.3053281 -0.50882113
-1.5132575 1.3099028 -0.29225779
-1.5933444 1.3420575 -0.28933865
-0.34414816 1.39124 -1.1930476
-0.16617393 1.3286245 -1.157552
-0.18201923 1.3408427 -1.6198616
-0.38136625 1.3093283 -0.42966059
-0.31821918 1.3306047 -0.45375302
-0.28103161 1.3336167 -0.53508073
-0.34416676 1.3190353 -0.51103687
-0.24981737 1.3460419 -0.67451453
-1.2065763 1.3252094 2.7790413
-1.243103 1.3296114 2.8803897
-9.1449308 1.3642159 3.4535246
-7.568368 1.3080156 2.3948779
-7.4874415 1.3034855 2.4330268
-3.849349 1.3343413 2.1704497
-0.98402834 1.3158675 2.2709646
-0.91518593 1.3175699 1.9483837
-0.60094547 1.3221332 1.7773904
-0.52513838 1.3179889 1.6546663
-4.2574253 1.3311286 1.944465
-4.1760454 1.3213052 1.9816204
-3.8451529 1.3263321 2.2903447
-3.7161794 1.3207492 2.546
-1.6038525 1.3033618 -0.59682608
-1.4429965 1.3039372 -0.57489491
-1.4843695 1.3064333 -0.61347121
-1.4308119 1.3125013 -1.375771
-1.8581293 1.3290708 -1.0006366
-1.4532351 1.3051882 -0.86971337
-1.5537248 1.3623203 -1.4513385
-3.276459 1.3022068 0.34958255
-2.9634817 1.3050073 0.13876581
-2.8681371 1.3059648 0.45521927
-2.8281724 1.3086379 0.45384204
-2.7695756 1.3040669 0.41176105
-3.0280292 1.3027731 0.4607594
-2.6169145 1.3080555 1.9274069
-9.8623095 1.3640325 2.9275422
-4.9452753 1.2442147 -0.47364861
-4.8655195 1.2845893 -0.47661281
-4.5374212 1.3050095 0.79336965
-5.1340117 1.2759111 -1.3079025
-5.1605783 1.2698081 -1.3665311
-5.0554361 1.2785456 -1.3506234
-5.1631727 1.2703011 -1.4865007
-5.1012359 1.2741852 -0.34843516
-5.2173486 1.2821839 -0.28499055
-5.2211523 1.2711213 -0.34432453
-5.3830194 1.2848977 -0.081347048
-7.8651438 1.2655125 -0.68343353
-8.1525555 1.2849202 -0.99682957
-8.2342434 1.267199 -1.0750568
-8.1244354 1.2776066 -1.5176508
-8.0393524 1.2696847 -1.2995821
-8.3123817 1.2662421 -0.99324399
-8.1142769 1.2680833 -1.0778083
-7.9113231 1.2684344 -0.84240371
-7.9069328 1.2605863 -0.76251841
-7.9897928 1.278048 -0.88056815
-10.012152 1.2802891 2.2505016
-9.2345667 1.3433435 3.0331793
-9.3150005 1.3278238 3.0099564
-9.373559 1.3248782 2.9307022
-9.2846794 1.3283876 2.9142404
-9.4487171 1.3270088 2.9579906
-8.9062386 1.366002 3.3908401
-9.0143623 1.3654207 3.3631759
-8.986165 1.3654721 3.395072
-7.29426 1.2999372 2.7901535
-6.6179986 1.3260714 2.8742204
-6.6977553 1.3240943 2.8566632
-6.6520061 1.3442653 2.8957148
-6.5832672 1.3260055 2.6139936
-6.3752413 1.3435071 2.9694161
-6.7795572 1.3238255 2.7785077
-6.1430769 1.2720059 0.84325123
-6.343987 1.2781628 0.80785167
-6.3803253 1.2771902 0.96871972
-6.1886148 1.2827082 0.60427034
-5.9669003 1.297695 1.5595304
-5.9642363 1.3071932 1.6795417
-6.3704543 1.297846 1.4086975
-6.3798599 1.3518449 2.7695036
-6.418385 1.3462806 2.8328767
-6.217236 1.3332913 2.9052167
-6.1788568 1.3331867 2.8048491
-5.1135106 1.3082858 3.1929035
-5.3372917 1.3416939 2.8656993
-5.2576103 1.3488188 2.8811297
-5.0854859 1.2686867 3.397222
-7.0550842 1.3777803 3.2442627
-7.2567816 1.2973089 2.9285622
-9.4798603 1.3273368 2.7986593
-9.4407654 1.3252727 2.75775
-9.3589067 1.3181088 2.8358793
-9.6298771 1.3657848 2.9222436
-9.5187073 1.3268684 2.8495574
-9.9892139 1.289121 0.045648932
-8.8915796 1.2747842 0.50445485
-8.9594059 1.2946099 0.46214008
-8.771595 1.2731889 0.50171244
-8.9118652 1.3016951 -0.9518038
-6.7185769 1.3798027 3.1966767
-6.8076515 1.3792043 3.2386918
0.24639273 1.3033808 -1.971959
0.24913454 1.3013624 -1.8919924
-0.0059323311 1.3775599 -1.9892687
0.086205959 1.3601274 -1.9668342
-0.18068171 1.3609929 -1.9830663
-0.23009539 1.3392267 -1.8558539
0.011356831 1.3806677 -1.811812
0.1141758 1.3561387 -1.9938989
-0.60275984 1.3427193 -2.4481914
-1.0292163 1.3247583 -2.0725412
-1.1861591 1.3199321 -1.9867998
-1.133255 1.3241001 -2.0264487
-0.40434074 1.3424597 -2.4954758
-0.3828907 1.3421922 -2.4562361
-0.21576214 1.3488934 -2.2621245
-0.31567287 1.3454987 -2.2585082
0.11082411 1.3646411 -2.0837462
-0.37514973 1.337557 -2.0927503
-0.28840065 1.3459454 -2.0593553
-0.40971279 1.3378166 -2.0950418
-0.4137373 1.3372144 -2.0513868
-0.66515017 1.3341476 -1.9656559
-0.65356827 1.3311769 -2.0430813
-0.65495825 1.3313456 -2.0830579
-0.61499214 1.3340197 -2.0844336
-0.49506569 1.3345376 -2.0885973
-0.59397221 1.3375416 -2.208395
0.062867641 1.3428578 -1.4806421
-9.994957 1.2772062 2.3050852
-10.669773 1.2774972 1.1607631
-8.5357237 1.253664 -0.267977
-10.576279 1.2971233 0.61931098
-9.5165844 1.2950704 0.51878583
-10.42354 1.3010454 0.79492188
-9.9987955 1.2900012 -0.15419281
-10.12677 1.2902029 -0.39131755
-10.002981 1.2918775 -0.55419695
-7.5700369 1.2728363 -1.770472
-7.370451 1.2628328 -1.7988675
-7.4514008 1.2748073 -1.8370768
-7.5295944 1.2737789 -1.7528694
-7.6814351 1.2733402 -1.9521347
-7.5901337 1.2772597 -1.9349477
-8.1466293 1.2667609 -2.4425712
-7.9976177 1.2674601 -2.2658794
-8.015564 1.2673727 -2.285481
-7.914691 1.2680522 -2.2477403
-8.191803 1.2777983 -2.0014148
-8.4535275 1.2770894 -1.9102037
-8.268177 1.2768024 -1.8396566
-8.2282257 1.2821121 -1.8405437
-8.1680975 1.2780478 -1.6766894
-8.2398396 1.270836 -2.3604407
-8.2344942 1.2777705 -2.1204846
-8.1553783 1.2734861 -2.1622858
-8.1727085 1.2814677 -1.8766232
-8.038619 1.267256 -2.309968
-7.5949697 1.305262 -2.9337153
-8.4871216 1.2805067 -1.6293397
-8.4843483 1.277455 -1.5093843
-8.7996979 1.2791775 -1.3020781
-8.6280756 1.2740127 -1.8315561
-8.6889915 1.2919006 -1.7046716
-9.0279999 1.2759136 -1.8225443
-8.754384 1.2787427 -2.1087723
-8.6743689 1.2743618 -2.1105847
-8.7570858 1.2790245 -2.2287407
-8.4498711 1.2788535 -1.7502351
-8.5143757 1.2706017 -2.1141968
-9.4677954 1.3042768 -0.7664752
-9.3892565 1.2976652 -0.83332747
-9.4293613 1.2973942 -0.8374089
-9.4940567 1.2958204 -0.60586715
-9.5110016 1.2971377 -0.90805513
-9.3187551 1.2926638 -1.2500833
-9.5578785 1.2982224 -1.2070552
-9.3969326 1.2967058 -1.1682472
-9.6051025 1.2918885 -1.5235856
-9.2705193 1.2938015 -0.89108789
-3.3997576 1.3078481 -3.3286405
-2.9987879 1.30943 -3.307539
-2.8316822 1.309242 -3.1057172
-2.8707814 1.3117326 -3.1812305
-2.8856258 1.3091959 -3.1463704
-5.1475821 1.3020364 -3.6681967
-5.1753445 1.3022677 -3.7472806
-5.2136302 1.2981523 -3.8257132
-4.658155 1.3029265 -3.4050231
-4.6570616 1.3071877 -3.8052864
-4.6587 1.3048885 -3.8527689
-4.408855 1.3022091 -3.5737834
-4.6928806 1.3090049 -3.6839614
-4.8085899 1.295477 -3.559927
-4.3192043 1.3063678 -3.2967081
-4.4987111 1.3055706 -3.8558226
-4.4916043 1.3072011 -3.6509361
-4.2215056 1.3120996 -3.9404688
-4.2629023 1.3195959 -3.9790244
-4.1443739 1.3227855 -4.0231514
-4.1901155 1.3070605 -3.901557
-4.3456297 1.3195893 -4.0561991
-4.509697 1.3194054 -4.1705737
-4.4655776 1.3240701 -4.0520129
-4.5412893 1.3057159 -3.9293885
-4.5646129 1.306007 -3.4482827
-4.6748509 1.3118004 -3.1642575
-4.7148271 1.3116276 -3.1628704
-4.7575579 1.3067936 -3.241456
-4.6362643 1.3121437 -3.2056217
-3.6409683 1.299479 -3.3603215
-3.6406753 1.2943876 -2.1996436
-3.8008914 1.3037875 -3.3547478
-4.0448885 1.2982578 -3.4663696
-3.8724475 1.2874238 -3.112184
-3.9040821 1.2837328 -2.870955
-3.3695221 1.3142081 -3.6098342
-4.4004955 1.3164608 -4.6340837
-4.3605108 1.3190842 -4.6348877
-4.6421113 1.3214159 -4.7090654
-3.2381237 1.283806 -1.9730053
-3.1929457 1.2894874 -1.8945335
-3.4366734 1.3047445 -2.0866122
-3.3608775 1.3030999 -2.2093253
-3.4050188 1.3034357 -2.3278644
-2.8135862 1.3095011 -2.0081677
-2.8772392 1.2927685 -2.025399
-2.8293459 1.3015668 -2.0470304
-2.7908564 1.3048722 -2.0884295
-2.7722321 1.3120042 -1.96957
-2.7501783 1.314339 -1.9102948
-2.7545946 1.2963123 -1.9495575
-2.6695018 1.3080012 -2.0528007
-2.7566049 1.3410965 -2.1693344
-2.3199179 1.3068545 -2.3457966
-2.5640674 1.2985421 -2.4570527
-2.4856274 1.3047055 -2.4998801
-2.9197583 1.3048327 -2.1846151
-2.8352544 1.3108525 -2.2068276
-3.4394195 1.2975832 -2.1665959
-3.617641 1.2825679 -1.4397361
-3.780714 1.2837601 -1.5267329
-3.7016985 1.2839706 -1.5569475
-3.7032337 1.2836993 -1.6019199
-4.5525303 1.2848902 -0.68741494
-4.5198865 1.2837847 -0.90365195
-4.4298849 1.2884345 -0.61157393
-4.360858 1.2893851 -0.93412739
-4.442163 1.2862695 -0.9713577
-4.3222709 1.2943316 -0.97549742
-5.2465253 1.2608132 -2.3441269
-5.1294069 1.2691724 -2.4282088
-5.1838546 1.2692403 -2.4661169
-4.3976951 1.2883512 -3.2540336
-4.2767897 1.3037438 -3.2281499
-5.2411304 1.2998756 -3.2647119
-5.2812982 1.3000425 -3.3408637
-5.4388027 1.2966485 -3.1406579
-5.3587408 1.2873321 -3.142426
-5.3187733 1.2901733 -3.1432872
-4.7088752 1.2808588 -1.8423996
-5.7732997 1.2677416 -1.9731907
-5.8142691 1.2694248 -1.9925454
-5.2916493 1.2666049 -1.9036467
-5.1499844 1.2766236 -1.867121
-9.5082817 1.2825627 -4.1858039
-9.4410391 1.2786781 -4.1738367
-9.284687 1.2802936 -4.3373957
-9.3574591 1.2789216 -4.0156789
-9.5547581 1.2845889 -3.8911896
-9.5174332 1.2801808 -4.0120721
-9.5574226 1.2798721 -4.0111718
-9.5246563 1.2834352 -4.3319831
-9.5637455 1.2830311 -4.2910933
-9.551218 1.2824197 -4.3047848
-9.5237379 1.2808408 -4.2919998
-2.2425861 1.3477842 2.9151831
-1.9310281 1.3301874 2.6641397
-2.1660621 1.3385556 2.8124261
-1.691165 1.3287262 2.6558018
-1.6457293 1.3507206 2.8144155
-1.3078136 1.369596 2.8227706
-2.6774449 1.3427881 3.0703549
-2.6376882 1.315227 2.9850821
-2.6550424 1.3628846 3.0696611
-2.7556946 1.3616377 3.0830693
-2.5508392 1.3225024 3.2559867
-2.5379994 1.3225137 3.2655468
-2.5032468 1.2018082 3.4589472
-2.6230865 1.2012779 3.4656086
-2.5478861 1.3637 2.9858937
-2.7490776 1.3114711 2.732502
-2.4132304 1.2609503 2.6005478
-2.9202006 1.3616121 2.8918562
-2.7997274 1.3546911 2.909018
-3.0745094 1.3282646 2.5837793
-3.0345116 1.323438 2.5823693
-3.2385552 1.3230809 2.4693823
-2.9948845 1.3236532 2.5709877
-2.0846717 1.3262326 2.8495712
-2.126056 1.3312287 2.8110046
-2.285327 1.3454509 2.8366098
-2.9431829 1.3320668 -5.5601025
-3.2164388 1.3168143 -5.418756
-8.5663776 1.2985697 -4.929163
-8.5634012 1.2958182 -4.8092051
-2.1915233 1.3283828 -4.706995
-2.1726336 1.3288312 -4.7377028
-2.1201701 1.3292134 -4.7396164
-2.1156859 1.3425769 -4.8197036
-2.1986744 1.360304 -4.8965464
-1.9986565 1.3392568 -4.9040747
-1.0586925 1.3202653 -4.3782368
-0.98165369 1.3191557 -4.461123
-10.637596 1.32529 -4.2247539
-10.680576 1.3301905 -4.3437228
-10.646358 1.3006434 -4.584672
-10.64736 1.3031831 -4.6246562
-7.8871708 1.2674273 -1.6431811
-7.9271216 1.2621331 -1.642287
-7.9244394 1.2715801 -1.5222719
-7.8533916 1.2734379 -1.8039715
-7.8300648 1.2753999 -1.9295478
-7.8352346 1.2739536 -1.884408
-8.0927315 1.2820568 -1.878457
-7.5557966 1.2708172 -1.1146598
-7.5523167 1.2717836 -0.99817389
-7.5931892 1.2699791 -0.99382484
-7.3958178 1.2696939 -1.1181259
-7.5848279 1.2698791 -0.95399714
-7.5920005 1.2697527 -0.93883896
-7.5557642 1.2714363 -0.93057895
-7.3673859 1.2717519 -0.95869327
-7.5898361 1.2709938 -0.88978696
-7.5815697 1.2693392 -0.52988553
-7.5425186 1.2723179 -0.57078046
-7.5445709 1.2711802 -0.59477496
-7.7882848 1.2692225 -0.82021928
-7.7896876 1.2570214 -0.88526106
-7.7879601 1.2716529 -0.80521083
-7.670465 1.2687769 -0.86712807
-7.7124996 1.2706509 -1.0045024
-7.6327467 1.2695532 -0.97296596
-7.7043266 1.2740071 -0.64707744
-7.786067 1.2637854 -0.72526938
-7.8825774 1.2665069 -1.4432364
-7.6826849 1.2710968 -1.4319915
-7.719923 1.2746328 -1.3269012
-7.68009 1.2706041 -1.3120198
-7.678381 1.2727758 -1.2320285
-7.7148533 1.271122 -1.1069744
-7.8779669 1.2630877 -1.2433029
-7.8370781 1.2656974 -1.2042198
-7.756238 1.2736036 -1.1660285
-8.4788551 1.278851 -1.2694385
-9.1261082 1.2881078 -1.5746168
-9.1279631 1.290976 -1.654583
-9.114397 1.290953 -2.1006341
-8.8452339 1.2849869 -1.5410717
-8.9261284 1.284582 -1.5792261
-8.7987995 1.2814938 -1.2620784
-9.3555212 1.3248943 2.955317
-10.371935 1.2576282 -2.0861034
-10.544864 1.2656571 -2.562541
-10.409899 1.2665408 -2.5654688
-10.004859 1.2727638 -2.5607424
-10.424812 1.2481976 -0.42467621
-6.135026 1.289851 -2.8454742
-6.0690002 1.282423 -2.6868925
-6.349031 1.2925352 -2.6807737
-7.2766681 1.2932227 -3.0206895
-7.6018405 1.2961836 -3.2536697
-7.5974922 1.2956076 -3.0537171
-7.5992737 1.3008384 -3.1336832
-7.2854476 1.3043734 -3.4205637
-7.088089 1.303924 -3.5448842
-7.7269182 1.2833514 -3.491044
-7.8661127 1.281665 -3.529129
-7.6869078 1.2811924 -3.49192
-7.7295275 1.2836953 -3.6110158
-7.6244955 1.2983352 -3.4545126
-7.6469831 1.2890335 -3.4927654
-7.5678744 1.2898307 -3.534493
-7.6261997 1.286025 -3.534524
-7.5704403 1.2851757 -3.65448
-5.8310862 1.2922301 -2.782058
-6.696064 1.2827669 -2.0831151
-6.7357516 1.2723966 -2.0722809
-6.1071882 1.2743529 -2.6060653
-6.1445465 1.2711667 -2.4852335
-6.1063395 1.2767373 -2.5660677
-6.0663285 1.2745783 -2.5669446
-6.3605065 1.2869469 -2.520503
-7.5167084 1.3036751 -3.0154405
-7.0419722 1.2984601 -3.2658362
-6.9184837 1.2940243 -3.1084948
-7.0801802 1.2928885 -3.1850014
-7.0776348 1.3000431 -3.0650077
-6.5513935 1.2686746 -2.7964716
-6.5674081 1.2861618 -2.8360829
-6.632453 1.2931069 -2.8346496
-6.7150817 1.2977695 -2.9528685
-6.6548834 1.2854147 -2.8341837
-6.8732777 1.2936751 -2.8694205
-5.8657122 1.3043048 -4.3716526
-6.0265594 1.3055545 -4.4081602
-5.7803922 1.2994636 -4.4680758
-5.9105864 1.2974575 -4.2649255
-5.7796688 1.3066804 -4.0934491
-5.6621614 1.2905499 -4.2160783
-6.1421576 1.3014549 -4.2056117
-5.2354264 1.2619561 -2.024312
-5.6976056 1.2614996 -2.1749029
-5.2014565 1.296541 -3.2658472
-5.2033248 1.2992865 -3.3508191
-5.2841063 1.3037041 -3.3840594
-5.3658032 1.3007512 -3.4623103
-5.233078 1.2992077 -3.104897
-5.1586919 1.3027325 -3.2675638
-5.0059962 1.3005426 -3.1928272
-5.3147655 1.2990737 -3.1520901
-5.3157849 1.2942008 -3.1820946
-5.2758312 1.2993748 -3.1834602
-6.0636578 1.2667335 -2.4469957
-10.594025 1.3182051 -4.3858862
-9.3530903 1.2959508 -3.8156843
-9.273016 1.2840705 -3.8175159
-9.0820227 1.2790616 -4.2219324
-3.2310376 1.3058568 0.50810742
-2.7481997 1.3039843 0.45104468
-5.3387399 1.280288 1.4651004
-5.3716407 1.2805957 1.3383185
-5.3314433 1.2758665 1.3448831
-5.7216573 1.277248 0.44607425
-5.7922888 1.2738997 0.4351455
-5.7123113 1.2745024 0.43332362
-5.2109828 1.2854244 -0.044576585
-3.3336422 1.2696037 -1.3292761
-4.6466389 1.396809 2.5586305
-2.4121499 1.3059709 -0.82139301
-2.2136183 1.2970057 -0.86835152
-1.9780252 1.321052 -0.99650657
-0.14325285 1.3877127 -0.47828183
-0.40056229 1.3259606 -0.98944104
-0.7649622 1.3094498 1.6629599
-0.64640188 1.3051383 1.6187998
-0.48496866 1.3378105 1.7334038
-0.57340479 1.3088334 1.4161566
-0.96621704 1.306255 1.629913
-6.8990464 1.2719936 0.70046103
-6.9213753 1.2719131 0.47200656
-6.9120202 1.2729431 0.46069682
-6.9510965 1.2724737 0.50159657
-7.0270948 1.2681586 0.55429828
-6.8431487 1.2754301 0.39030969
-6.9919977 1.2723397 0.46251845
-7.1519327 1.2686318 0.46615434
-7.4518638 1.2688663 0.47300017
-7.5118656 1.2709136 0.47437716
-6.4318981 1.2854789 -2.2388878
-5.534193 1.2649039 -2.0184073
-5.4142041 1.2634271 -2.0210209
-5.3743024 1.2632153 -2.0020888
-5.4534369 1.2648615 -1.9603611
-7.3863025 1.2678869 -0.67823279
-7.4262915 1.2675427 -0.677369
-7.5470734 1.2682378 -0.77074897
-7.5462799 1.2690098 -0.67476648
-7.5480103 1.2709205 -0.81072575
-7.5504217 1.2714044 -0.9156965
-7.5506048 1.2698303 -0.87471777
-5.0862422 1.3041719 1.5794696
-5.0898557 1.299843 1.4194916
-4.1871214 1.3151613 1.6617831
-3.9431129 1.3181914 1.7733952
-5.6970806 1.2791951 1.1031744
-5.6995902 1.2796568 0.99320364
-4.968708 1.3394947 2.2093549
-5.591434 1.2752407 0.47057796
-6.0931516 1.2788436 -0.081011772
-6.2985606 1.2824594 1.0468962
-4.1016474 1.3223292 1.8189439
-4.2312422 1.3104981 1.543224
-3.5489116 1.3206005 1.5996133
-3.2068703 1.3142712 2.2280979
-2.7313395 1.3193568 2.091527
-2.9677529 1.3253945 2.1998258
-3.5876763 1.2978504 0.48017824
-3.3877983 1.298715 0.47323906
-3.5848989 1.297511 0.56012928
-3.5763583 1.311402 1.9607483
-3.5681326 1.3353827 2.2007108
-2.7210288 1.3106312 1.8109592
-2.6824524 1.3134729 1.7696072
-2.650219 1.3071247 0.9679718
-5.8942471 1.2687356 -1.9908179
-6.0975809 1.2680869 -2.1661875
-6.5715947 1.277386 -1.856099
-5.9328918 1.2826602 -0.069459498
-5.8963418 1.2811626 -0.23029524
-5.8537574 1.2810148 -0.11118811
-6.1273971 1.3019989 -3.5257678
-7.3562975 1.2857773 -4.9107385
-7.1316624 1.3165426 -3.703939
-6.1480675 1.2970575 -4.7869253
-6.1969213 1.2964053 -4.7382503
-6.0888615 1.2977556 -4.8208404
-5.9990416 1.3393681 -5.0228944
-6.075017 1.34377 -5.0610828
-6.0350308 1.3441617 -5.0620327
-5.9928484 1.3142819 -4.9831161
-6.1458879 1.2867596 -4.6994867
-6.2649932 1.2954457 -4.6566091
-6.6981916 1.2886823 -4.021018
-6.1413221 1.3060734 -4.4994707
-7.179286 1.2947384 -4.0630527
-7.3418293 1.2912195 -4.1795573
-7.4599953 1.2824659 -4.0969934
-7.6369324 1.2771543 -4.0144243
-7.3861237 1.2864536 -4.3786569
-9.2762852 1.2906088 -4.511591
-8.0368376 1.2765545 -4.0054183
-8.1613264 1.2785962 -4.202661
-7.626482 1.3344051 -4.3732915
-8.9289036 1.2990084 -2.7449565
-8.8470316 1.3019274 -2.6617715
-8.8874722 1.3016641 -2.680867
-9.0780115 1.291638 -2.261493
-9.9542751 1.299444 -2.0816965
-9.5923824 1.2770454 -2.009881
-9.4714966 1.2753817 -1.9725971
-9.4115553 1.2896496 -1.8081179
-9.5324192 1.2864491 -1.8453679
-9.5724087 1.2861553 -1.8444505
-9.3079777 1.2812437 -1.8162251
-9.3106804 1.2815269 -1.9361951
-9.3879356 1.2781245 -1.8144313
-9.4279442 1.280315 -1.8135257
-9.4297066 1.2755027 -1.8935173
-9.6124153 1.2883604 -1.8435204
-9.8728371 1.2979873 -1.6374406
-10.052185 1.2847202 -2.0932169
-10.094687 1.2711061 -2.2122312
-10.11648 1.2909451 -2.1805902
-9.6884956 1.2681203 -2.7279198
-4.8323164 1.3205705 1.52412
-4.7141247 1.3213019 1.469988
-4.7551517 1.3237561 1.4414047
-4.8750796 1.3232374 1.4455684
-6.6295338 1.2745857 0.566787
-6.5606933 1.2848488 0.5042671
-6.6000347 1.2719016 0.53007054
-5.6104689 1.2760842 1.3912624
-5.7296147 1.2875115 1.4340397
-5.7522807 1.2717005 0.43422282
-6.3497787 1.273993 0.53966808
-5.8713522 1.2731278 0.4769578
-9.8374214 1.3027608 0.56236768
-9.9316893 1.3219419 0.52835011
-10.097301 1.2958437 0.56829214
-6.5672283 1.2715653 -1.65617
-6.761096 1.2661932 -1.3719292
-6.3341498 1.2674459 -1.9813055
-6.4124832 1.2764282 -1.8995546
-6.3281155 1.2687958 -1.7013638
-6.1733065 1.2661608 -1.9447808
-6.2514935 1.2709157 -1.8827654
-6.3699079 1.2837692 -1.7779169
-6.1715765 1.2658321 -1.8648008
-5.9427786 1.2626423 -2.409626
-6.352571 1.3004944 -2.8407125
-5.8024797 1.2742234 0.40780008
-5.2971277 1.3029296 -3.9839225
-5.3435884 1.3050931 -3.9815717
-5.2153201 1.3020951 -3.7458935
-5.2154326 1.3058833 -3.9056706
-5.2536392 1.3003117 -3.8248363
-5.2137585 1.3006662 -3.8307042
-5.2492714 1.2972354 -3.6248927
-5.4979434 1.3013389 -4.0195708
-5.337204 1.3001044 -3.9880605
-5.2640738 1.3016927 -4.3047209
-5.0386438 1.293782 -4.5410676
-5.3448796 1.2961248 -4.3429899
-5.7578468 1.2938032 -3.0937214
-5.6382055 1.2948713 -3.1113219
-5.4804478 1.2865386 -3.2198019
-5.6046276 1.2953568 -3.1770668
-5.0828652 1.2935884 -3.3903098
-5.0029135 1.293934 -3.393086
-4.9643264 1.2942768 -3.4344482
-4.798933 1.309291 -3.2800322
-4.8829865 1.2944537 -3.3972487
-4.8773899 1.2837747 -3.237391
-4.8388243 1.2891179 -3.2787328
-5.2069669 1.2997671 -3.5182796
-5.5262814 1.2969592 -3.4838386
-5.4892688 1.3026876 -3.6196589
-5.4862385 1.2972929 -3.4822068
-5.3302131 1.3009609 -3.5968184
-5.8518 1.3024631 -3.7318063
-6.0161462 1.3066738 -3.9282684
-6.1326351 1.3051887 -3.7657027
-6.1300058 1.3023447 -3.6457386
-5.5353017 1.2981529 -3.8987389
-5.9519229 1.2913213 -2.8194425
-5.5065966 1.2974901 -4.4194894
-5.8179193 1.3061099 -4.0125999
-5.571835 1.2998507 -3.7379012
-6.5829077 1.2978177 -4.2360487
-5.6265616 1.2964673 -4.4168835
-5.8622699 1.2989533 -4.5461516
-5.8794389 1.3409783 -5.1457715
-5.8773565 1.3410617 -5.1633258
-7.8696766 1.2770419 -3.6891017
-7.6829758 1.2795827 -3.772078
-7.6904287 1.2866529 -3.651866
-7.7931509 1.2730259 -3.8458743
-7.7346597 1.2743863 -3.8509884
-7.7114849 1.2734694 -3.7726932
-7.5750585 1.2836521 -4.2253408
-7.6778212 1.2769384 -4.053515
-7.7039499 1.2798936 -3.9316597
-7.6982112 1.2826883 -4.011795
-7.379837 1.2812945 -4.4300556
-7.2188435 1.2852064 -4.3888626
-7.1780233 1.2854792 -4.3548226
-7.1860495 1.2856456 -4.3780074
-6.3092637 1.2941364 -4.4154906
-2.7503343 1.3406421 3.3079143
-2.8722064 1.3478293 3.2307696
-3.5498617 1.280679 2.7201629
-3.6312819 1.3204921 2.6856365
-6.7313786 1.2809674 -1.8426261
-6.695684 1.2827159 -2.0656199
-6.3730216 1.2764225 -0.072465956
-7.7390494 1.2799618 -4.0509238
-7.6405921 1.28503 -4.174365
-7.3872995 1.2848622 -4.742456
-8.9612436 1.2866937 -4.7194118
-7.6357536 1.2676281 -1.1129425
-7.8755531 1.270093 -1.1357969
-7.5652065 1.2601238 -1.554606
-7.4069796 1.26183 -1.6380417
-7.7336097 1.2648935 -1.926796
-7.6912508 1.262741 -1.8319373
-7.811841 1.2764359 -1.8449233
-8.7588482 1.2742134 -2.3087335
-8.8361626 1.2783113 -2.1869516
-8.9179602 1.2803788 -2.2651238
-8.9143391 1.2775021 -2.1051726
-8.7943535 1.2759318 -2.1078789
-8.9943361 1.2793832 -2.1033664
-8.9934731 1.2842884 -2.0633631
-8.9543839 1.2846916 -2.1042533
-9.053443 1.2851698 -1.8963869
-8.9151258 1.2848746 -1.0993475
-9.0024672 1.2882558 -1.4174113
-1.5934029 1.3213457 -4.3736501
-0.069067001 1.3593453 -2.6276312
-0.23850298 1.3386019 -1.9556241
-0.021007538 1.3398858 -3.5102477
0.12501574 1.3306273 -2.5950177
0.092324257 1.3553334 -2.5935459
-0.014656067 1.3752382 -2.2291515
-2.6609333 1.3055912 -4.0145712
-2.5821204 1.3115364 -2.9491062
-2.7848604 1.3110784 -2.9097157
-2.7594628 1.3107209 -3.0101833
-3.0791805 1.3373446 -4.5812025
-2.4057264 1.3729558 -5.2891345
-2.2916183 1.340871 -5.2536035
-3.612246 1.3238289 -5.2104602
-4.250474 1.3286496 -5.1172004
-3.5488763 1.3268428 -5.5318251
-3.0632112 1.3248236 -5.1417842
-3.1299064 1.3367649 -5.1002908
-4.161272 1.2825534 -4.6793375
-3.7589879 1.3202406 -4.5672956
-3.6814713 1.3165373 -4.6889625
-3.6471949 1.2941095 -4.9699364
-3.806556 1.280875 -4.9392509
-3.6513517 1.3033559 -5.1698213
-2.9385021 1.3407507 -5.4300938
-2.9805894 1.2893279 -5.6264234
-6.1195707 1.3240628 -5.2601452
0.013554573 1.3845221 1.8706702
-0.38727283 1.3435313 -2.576148
-0.41852188 1.3454934 -2.3348088
-0.39997864 1.3436211 -2.375535
-4.2569723 1.291448 -5.4374728
-5.2258663 1.3072637 -4.3855562
-5.277771 1.295189 -4.4960999
-5.2769585 1.2998399 -4.4560661
0.058580399 1.3471056 -1.6055964
0.06252718 1.342797 -1.4906366
0.018603802 1.3469173 -1.6042311
0.29843807 1.3482324 -1.6137886
-2.6628711 1.3136981 0.027862847
-2.752944 1.3095316 0.89150095
-2.674361 1.3050468 0.84872735
-9.0292454 1.3657726 3.2534738
-9.1025009 1.3640336 3.5651302
-9.2243633 1.3255221 3.0074863
0.31744337 1.3623663 0.30121648
0.16684961 1.3418218 0.39193916
-0.98488235 1.3262789 -1.9540576
-1.5285015 1.3042685 -0.73202091
-1.6526458 1.3167584 -0.84772855
-1.7809131 1.3197569 -1.0834079
-1.4652429 1.3141496 -1.2144704
-1.6665719 1.3284547 -1.24744
-0.50168562 1.3227944 -1.1278298
-2.1875606 1.3063747 -1.2694621
-2.3238552 1.3034595 -1.304765
-1.8264651 1.3252625 -1.2419
-1.9105911 1.3279246 -1.3590407
-1.1190042 1.2998123 -0.46609285
-1.9247844 1.3021142 -0.6182031
-1.9654441 1.2995262 -0.63681418
-1.2320304 1.3084453 -0.26200777
-1.6405039 1.4002302 -0.48757631
-1.4489567 1.4021136 -0.73436916
-1.3447785 1.3845375 -0.61798877
-1.3668499 1.3847063 -0.67725736
-3.9671102 1.2881193 -4.9633741
-2.8774173 1.2847668 -4.505815
-2.7847586 1.3023088 -4.5154428
-2.7876985 1.3056189 -4.5953593
-2.7033701 1.3049847 -4.478363
-2.7077029 1.2987002 -4.5983543
-2.852658 1.3322122 -5.2732029
-2.6012855 1.3532115 -4.9619522
-2.8825381 1.3418607 -4.7452693
-2.8501866 1.280587 -4.3931832
-2.5953693 1.3415928 -4.8021717
-1.9367602 1.3309599 -4.7863355
-2.1123095 1.3291659 -4.7298985
-2.2001877 1.368209 -4.93644
-2.2386808 1.3650131 -4.8950357
-2.3846512 1.3685381 -4.8496327
-2.8746154 1.3129046 -3.2861538
-2.9436467 1.3096477 -3.304451
-2.8731539 1.3124582 -3.2461834
-3.1240532 1.2995682 -3.458324
-3.1640697 1.3093959 -3.4568934
-2.7952452 1.2839824 -4.4101963
-2.8842103 1.3031075 -3.4666409
-3.4027956 1.3082187 -3.4160852
-2.5078757 1.3051504 -4.6055961
-2.4716961 1.3264519 -4.7067766
-2.3421059 1.2996923 -4.4515982
-2.2251985 1.3138725 -4.5357871
-2.3513203 1.3040856 -4.3061094
-2.3377378 1.3009768 -4.3316603
-2.2299235 1.3022157 -4.2705393
-4.5305457 1.3203493 -5.1189837
-4.4895806 1.3225572 -5.0723
-4.6511402 1.3027629 -5.1491532
-3.8728762 1.3250141 -4.2727203
-4.4095974 1.3228058 -5.0739517
-4.4887609 1.3247074 -5.0322876
-4.6528158 1.3109611 -5.2290664
-3.5565958 1.3173337 -4.4539766
-3.5631227 1.3076091 -4.7715063
-4.4814587 1.3166271 -4.6799207
-4.4804554 1.3087124 -4.6324983
-0.19432545 1.3448906 0.36422253
-0.19292402 1.3376318 0.40424144
0.07914114 1.3501856 0.34983349
0.28942442 1.3471032 0.42230773
0.28343821 1.3395468 0.46255183
0.28671789 1.3548851 0.3877703
0.25537157 1.3545035 0.34881854
0.23900747 1.3541471 0.34407187
0.19160318 1.3102531 -2.0772996
0.13990593 1.3284364 -2.3929391
0.17502403 1.3255637 -2.1165516
0.10699606 1.3681679 -2.3937945
-0.17583275 1.3542522 -2.2635236
-0.77890301 1.3247973 -4.388423
-0.87678719 1.3236946 -4.479876
-0.93874121 1.3161362 -4.3826656
-2.5120111 1.3227383 -3.2192392
-2.7162316 1.3197851 -3.3318958
-2.5992177 1.3192542 -3.4162378
-2.1443477 1.3160678 -3.0175967
-2.2633719 1.3172129 -2.988215
-1.6855731 1.314182 -2.5115056
-1.7086964 1.3141766 -2.5281734
-1.7667038 1.3138276 -2.5410681
-1.6870344 1.3146296 -2.5514755
-1.5707219 1.3217921 -2.6532187
-1.2857618 1.3177413 -2.5235782
-1.4937217 1.3259026 -2.7360468
-1.6667159 1.323485 -3.090013
-1.5438776 1.3236687 -3.014442
-1.5053663 1.324474 -3.0558691
-1.5780277 1.3240238 -2.8530731
-1.2982454 1.3290336 -2.8632445
-1.416657 1.322512 -2.8189592
-1.2255645 1.3269832 -3.0660701
-1.3228474 1.3091255 -3.5430622
-1.6398704 1.325361 -3.4512358
-1.5199549 1.3264376 -3.455606
-1.4814231 1.3247416 -3.4970632
-1.2284436 1.3228763 -3.1460686
-0.44953585 1.3340327 -1.9300827
-0.40535212 1.3389776 -1.9750996
0.15722132 1.2895395 -2.4765656
0.13837624 1.3264108 -2.4354358
0.17910147 1.2492489 -2.4352851
-9.7575722 1.2966913 -4.8598471
-9.9659348 1.289722 -4.8947468
-7.0171237 1.2869093 -4.3186378
-6.8652115 1.2882533 -4.3424649
-6.7445178 1.2866824 -4.3125854
-6.6971583 1.2825434 -4.3262711
-6.7410402 1.2862223 -4.1526246
-7.1752152 1.2900681 -4.2348404
-6.9752584 1.289528 -4.2396026
-6.9352708 1.2899191 -4.2405543
-6.9186211 1.2875744 -4.2687888
-6.8561764 1.2833396 -4.2824702
-6.8008261 1.287478 -3.9112644
-8.1621885 1.2667035 -2.4672263
-8.8088608 1.2899382 -2.7476816
-8.8115635 1.2902209 -2.8676505
-3.9556518 1.3232237 -4.4031634
-4.0375757 1.3163066 -4.4965534
-3.981673 1.318138 -3.9487748
-4.0671887 1.3209703 -4.1058893
-4.0513425 1.3065416 -3.6512227
-4.4771414 1.3048148 -4.4725604
-4.3830967 1.3575689 -4.7541151
-4.7564206 1.3017166 -4.3622007
-4.5954752 1.308745 -4.3900599
-4.6754508 1.3059975 -4.3884296
-4.7984953 1.3144144 -4.5333495
-4.8944058 1.3036598 -3.7970572
-4.899159 1.303925 -3.8619313
-4.9610319 1.3038979 -3.9148154
-6.4176917 1.2934911 -3.9995952
-6.205678 1.3060862 -3.4440351
-0.36828089 1.3377286 -2.0565269
-0.53227425 1.3365254 -2.0072479
-0.9551158 1.3272616 -2.2353387
-0.79376745 1.3282499 -2.2011962
-0.37311268 1.3429973 -2.7367878
-0.89700174 1.3246744 -2.8379297
-0.95876122 1.3160124 -3.4362073
-0.9799099 1.3298507 -2.9148998
-1.0508561 1.3237543 -2.872345
-1.7145174 1.3129479 -2.2077401
-1.7515879 1.3141967 -2.1263127
-1.78866 1.3154447 -2.0448852
-0.37734747 1.3250495 -0.30982018
-0.4669919 1.3235557 -0.1284197
0.40655136 1.3481658 0.61821699
-0.97732592 1.3076104 1.3101093
-0.47802734 1.3074121 -0.44830129
-0.55521154 1.3092262 -0.3655633
0.44897509 1.3535537 0.6166867
0.073610306 1.3447517 -1.1658311
-0.80268192 1.3241434 -2.7212951
-0.34050035 1.3356494 2.3637652
-1.9065256 1.3188329 -3.0812984
-1.9221272 1.3173158 -2.9606576
-1.9030552 1.3177739 -2.9863677
-2.5300043 1.3081851 -2.6183062
-1.8943121 1.3276722 -3.8422017
-2.4008191 1.3214933 -3.4634929
-2.1609879 1.3236449 -3.4722352
-2.237988 1.3195344 -3.3894081
-2.0769134 1.3206072 -3.3627605
-2.1524339 1.3216813 -3.5125999
-2.2482362 1.3251597 -3.6691756
-2.1224985 1.3269498 -3.5136342
-2.0869093 1.3286475 -3.6350045
-2.8038027 1.3164113 -3.5388846
-2.8056996 1.3161223 -3.5093374
-2.7191105 1.3156779 -3.4118943
-2.5178339 1.3220241 -3.3791523
-2.3535202 1.3171208 -3.2651253
-2.4036558 1.3123873 -3.5435491
-2.6718552 1.3163037 -3.2134686
-2.7959697 1.3124348 -3.2295198
-2.7973475 1.3101043 -3.2695065
-2.7546997 1.3139803 -3.2905254
-1.9892418 1.3015101 -3.1585269
-2.1093066 1.3179325 -3.153954
-1.961149 1.3279372 -3.4794927
-1.4740968 1.3200099 -3.2972379
-2.2666147 1.3114871 -4.574326
-2.4981658 1.3111329 -3.9404006
-2.4625776 1.3128303 -4.0617714
-2.5010455 1.3070261 -4.0203996
-2.3840301 1.3064948 -4.1047411
-2.3026049 1.304267 -4.0677137
-2.581939 1.2979506 -4.4428458
-2.5954916 1.2982734 -4.4173365
-2.5775373 1.2942367 -4.3229589
-2.5390429 1.2974306 -4.3643618
-2.4741154 1.2989029 -4.3817372
-2.5111861 1.3001517 -4.3003106
-2.2192824 1.3022525 -4.3760061
-0.17764187 1.3724655 -4.504889
-0.25760603 1.3742485 -4.5019464
-0.31519461 1.3887316 -4.49968
-0.045631886 1.3224763 -4.1900387
0.0069594383 1.3079486 -4.1921229
0.01979208 1.2680649 -4.193037
-0.0084533691 1.3087291 -4.2716088
-0.0074481964 1.3084217 -4.2441292
-0.16713095 1.3468156 -4.2228532
-0.2534914 1.3649068 -4.5435324
-0.62543964 1.3422731 -4.1686225
-0.41378546 1.3279976 -3.8562851
0.034250736 1.3058957 -3.9929972
-1.5230112 1.3863999 -1.2121576
-1.2458844 1.3026412 -0.66179639
-1.1342993 1.3066777 -0.90580082
-0.89341259 1.3276383 -2.0347662
-0.3726635 1.3390675 -2.1764402
-0.77349567 1.3306576 -2.038918
-0.89480019 1.3278069 -2.0747402
-1.9630854 1.334278 -1.7174094
-1.1979008 1.3143876 -1.5839765
-2.0579138 1.3005093 -4.3418975
-2.5280173 1.3201489 -3.6590056
-2.5621886 1.3230046 -3.4976077
-2.8122971 1.2993798 -2.5485921
-0.35217714 1.3541572 -3.2578077
-0.17171192 1.360682 -4.3451204
-0.39624262 1.3950455 -4.4566154
-0.54394913 1.332546 -4.1316814
-0.37021637 1.3709404 -4.29772
-0.039703846 1.3112042 -4.5106149
-1.7520876 1.3312868 -1.4045554
-0.29791117 1.3389812 -3.4200778
-0.36424112 1.3378977 -3.592792
-0.36655092 1.3311237 -3.6578307
-0.68365049 1.3349173 -3.5711427
-0.88175964 1.3201228 -3.5190339
-0.85199261 1.3211061 -3.8003154
-0.53682089 1.3403413 -3.9342108
-1.0679455 1.3052102 -0.50786841
-0.27963257 1.3309468 -0.49511716
-0.23619127 1.3458718 -0.71500278
-1.2444596 1.3222823 2.8403811
-6.0953403 1.3481201 2.963047
-3.1264029 1.3239179 2.3854403
-0.95515108 1.3148971 1.949762
-0.64228868 1.3171295 1.7387816
-0.48654127 1.3158308 1.6132916
-4.3332314 1.3352735 2.0671897
-4.05475 1.326654 2.0174556
-1.4619281 1.3836788 -0.53387475
-1.3822565 1.3843752 -0.6166876
-1.3927517 1.3053844 -0.85680568
-1.4927018 1.3074505 -0.85332388
-1.4954779 1.3077894 -0.93327606
-1.4169374 1.3133063 -0.97600526
-4.9053488 1.2544034 -0.47507244
-5.2206988 1.2568327 -1.5049491
-4.9798307 1.2781549 -1.4807777
-5.219347 1.259573 -1.4649876
-5.1381717 1.2755362 -0.3267408
-5.2185102 1.2891024 -0.26447475
-7.7844963 1.2684637 -0.65526462
-7.7979374 1.2690793 -0.80499363
-7.9460034 1.2601078 -0.72161275
-8.154211 1.2602892 -1.0769262
-8.0434856 1.270512 -1.479532
-7.8988285 1.2685269 -0.84269011
-8.0308256 1.2954367 -0.91955572
-8.165308 1.2830912 2.5284491
-6.662003 1.3441899 2.8959417
-6.581459 1.3281701 2.693984
-6.3552661 1.3461577 2.9689722
-6.1467457 1.275176 0.68330491
-9.4880323 1.3269933 2.8788657
-9.4025097 1.313342 2.676816
-9.4016533 1.3207077 2.7168317
-7.9407601 1.3237575 3.6197886
-8.91152 1.3016255 -0.93680775
-9.1133204 1.2955331 -1.0147228
-8.9124413 1.2943215 -0.97933292
-6.7370086 1.3153006 2.9168897
-7.6178679 1.2928363 3.7401943
-7.5584469 1.2138678 3.72539
0.21030092 1.3464133 -1.850913
0.25299597 1.3016133 -1.852101
-0.17053175 1.3626053 -2.1160161
-0.35564566 1.3451394 -2.257051
-0.18963718 1.3613722 -2.0227649
-0.15091133 1.3569812 -1.8786745
-1.0147176 1.3247889 -2.0705879
-1.1704531 1.3235874 -1.94511
-1.1346436 1.3242689 -2.0664253
-1.1876426 1.3228778 -2.026742
-1.0932798 1.3242732 -2.027838
-0.3229146 1.3402313 -2.4584491
-0.42286205 1.3418342 -2.4547782
-0.30876923 1.342195 -2.6190615
-0.40679073 1.336924 -2.0151
-0.36540127 1.3418356 -1.9765283
-0.6508131 1.3358375 -1.9631082
0.062696934 1.3428264 -1.4856395
-0.49446821 1.3398678 -2.7724152
-9.9774628 1.2773404 2.3046718
-10.011238 1.2801567 2.2904911
-8.4957895 1.261458 -0.2688579
-10.103357 1.2901855 -0.3518452
-10.119289 1.2927577 -0.39147896
-10.002981 1.2918779 -0.55419791
-10.043852 1.2867672 -0.59329277
-7.132309 1.272727 -1.8839973
-7.4913898 1.2744621 -1.8362124
-7.5038862 1.2743549 -1.8359425
-7.5321484 1.2737677 -1.7553139
-7.4905457 1.2767975 -1.7962117
-7.6138883 1.2664214 -1.9536242
-8.5099287 1.2776313 -1.9142302
-7.6723223 1.2767649 -2.8220887
-8.3662558 1.2837071 -1.5920899
-8.5243721 1.2821602 -1.5084434
-8.8015709 1.2845452 -1.3820326
-8.608942 1.2824901 -1.7065539
-8.7280245 1.2864228 -1.663789
-9.0897751 1.2866381 -1.7355014
-8.9297676 1.2803167 -1.7392051
-8.9325218 1.2808685 -1.8591727
-8.9080334 1.276843 -1.8252447
-8.9480038 1.274034 -1.8243511
-8.811657 1.2840691 -1.8219229
-8.8280373 1.274963 -1.8270504
-8.8525457 1.2814578 -1.8610071
-8.9916325 1.2791004 -1.9833969
-9.4668407 1.2990938 -0.7265107
-9.4687138 1.3044604 -0.80646497
-9.5495548 1.2965556 -0.84465569
-9.5563908 1.2968868 -0.92451745
-9.7251225 1.2985044 -1.5207987
-9.2313948 1.2867817 -0.93202925
-4.7370334 1.3118417 -3.8024902
-4.6248484 1.3051788 -3.8864632
-4.9285164 1.2949589 -3.5557632
-4.4926357 1.3048286 -3.6809292
-4.3000898 1.3165842 -3.8976955
-4.1429753 1.320116 -3.9831867
-4.4710903 1.3147488 -4.2119598
-4.4242029 1.3215743 -4.0134377
-4.5454855 1.3137246 -4.0492826
-4.6145716 1.3032902 -3.446559
-4.7175193 1.2919672 -3.242909
-3.6437654 1.3048178 -3.4402494
-3.8050046 1.2917958 -3.4747291
-3.8980639 1.3055142 -3.2713165
-4.1137671 1.3056351 -3.5039692
-4.0062819 1.2936 -3.5077538
-3.959425 1.3079253 -3.3091989
-4.3622303 1.3422827 -4.7146707
-4.3987904 1.2982626 -4.5542583
-4.3171473 1.2953097 -4.4759517
-4.3601933 1.3164526 -4.6199141
-4.3196921 1.3188573 -4.5957251
-4.3580089 1.3105357 -4.5149846
-3.4768472 1.2824504 -2.0048752
-3.5138271 1.2990584 -2.0039079
-2.8122082 1.3118315 -1.9681818
-2.7967014 1.3066579 -2.2483125
-2.798527 1.3251833 -2.1487164
-2.325762 1.3086398 -2.5056801
-2.8381126 1.3042446 -2.2868555
-3.714191 1.2839105 -1.5565212
-4.5925064 1.2847022 -0.68604946
-4.3991146 1.2960215 -3.2939768
-4.4320841 1.2800008 -3.0927773
-4.3962965 1.285683 -3.2140694
-4.3107901 1.2853494 -3.0569425
-5.3060908 1.2995943 -3.2624569
-5.3227277 1.2950501 -3.3819714
-5.3220544 1.2999648 -3.3619614
-5.3239641 1.3001977 -3.4169273
-5.3213711 1.3023795 -3.3419633
-5.4049001 1.2977953 -3.4214592
-5.9332986 1.2713757 -1.9697009
-9.4801464 1.2807738 -4.1329417
-9.3482876 1.2791455 -4.1897469
-9.3210726 1.2796073 -4.1765366
-9.5973911 1.2770625 -4.0102777
-9.5183334 1.2802757 -4.0520611
-1.8580201 1.3313811 2.4614868
-2.2460344 1.3432089 2.8152237
-2.2467303 1.3432933 2.7952356
-2.1281404 1.3314832 2.7510409
-1.7297521 1.3283824 2.6971655
-2.676487 1.3626609 3.1004233
-2.5975046 1.3456347 3.0675893
-2.8608007 1.3333937 -5.633153
-2.8657796 1.3308572 -5.6329956
-2.2086461 1.3281542 -4.6963639
-2.1134984 1.3294951 -4.7623739
-10.68839 1.313006 -4.6636453
-7.8536472 1.2740096 -1.9239964
-8.0536442 1.2800347 -1.9193748
-7.4824505 1.2712761 -1.0762348
-7.5966501 1.2706358 -1.1537864
-7.5540657 1.2704872 -1.0346787
-7.5516844 1.2716566 -0.97068167
-7.5925732 1.2690463 -1.0097655
-7.6011581 1.2701473 -0.72948766
-7.9525962 1.2838931 -1.0014284
-7.9961486 1.2693355 -1.1605383
-7.9960346 1.2693127 -1.1555387
-7.6808348 1.2726115 -1.3678191
-7.7180872 1.2742651 -1.2469242
-7.6389551 1.2650399 -1.2887952
-7.7534456 1.2680519 -1.0460865
-9.1697693 1.2885486 -1.7336552
-9.1316175 1.2892122 -1.8145499
-9.1325378 1.2893958 -1.8545392
-9.2334442 1.2874291 -2.057951
-9.3753262 1.327422 2.9963279
-9.5954456 1.363284 2.9731755
-6.1528463 1.289744 -2.8600907
-7.1975374 1.2915196 -3.0624247
-7.6392622 1.3004969 -3.1328135
-7.2880979 1.3097183 -3.5405192
-7.0854392 1.2985795 -3.4249287
-7.2099018 1.3156303 -3.6222219
-7.4862423 1.3002825 -3.4562187
-7.6062298 1.3017579 -3.4536066
-7.6271005 1.286118 -3.5745125
-6.3044615 1.2648013 -2.4817758
-6.104579 1.2740074 -2.4860942
-7.3967204 1.3021992 -3.0180545
-7.5966868 1.3029928 -3.0137043
-7.0393205 1.2931149 -3.1458797
-6.4689341 1.2840115 -2.6781917
-6.5559959 1.2992494 -2.9963317
-5.7856913 1.2999868 -4.373404
-5.9065914 1.3065783 -4.4107661
-5.9457121 1.3061215 -4.3699079
-5.2934799 1.266239 -1.9638153
-5.1742692 1.2654743 -2.0262306
-5.2041078 1.301887 -3.3858037
-5.3242249 1.300229 -3.4244237
-5.3841467 1.2982184 -3.5019288
-5.3279567 1.300686 -3.531858
-5.198678 1.3050592 -3.2661653
-5.1486874 1.3002756 -3.2679219
-6.0211434 1.2767296 -2.3278627
-10.599545 1.3180861 -4.3057256
-5.2102995 1.2855457 -0.024590015
-2.2936013 1.3041593 -0.86554265
-0.40330219 1.3279792 -1.0694079
-0.3790226 1.3329747 -1.0519985
-6.8814077 1.2747576 0.47115409
-6.9605422 1.2764041 0.51288259
-6.9996028 1.2683948 0.55370438
-6.9520082 1.2726417 0.46160769
-7.1595592 1.2670165 0.5571593
-7.1919203 1.2683295 0.46706557
-7.1604462 1.2696818 0.51717973
-7.2316999 1.2704847 0.47798491
-7.1501074 1.2682965 0.54613256
-7.1110129 1.2662657 0.50522006
-7.1899996 1.2704726 0.55205309
-6.1810799 1.2728649 -2.3243971
-5.4142919 1.2628706 -2.001225
-5.3750634 1.2613839 -2.0618868
-7.550766 1.2714723 -0.93069315
-4.1884995 1.3128324 1.6217972
-5.0872355 1.3363067 2.2534823
-6.0128498 1.2794716 -0.067743659
-6.1319089 1.2732738 -0.025183022
-4.1452322 1.3219661 1.8604797
-3.1655476 1.3242745 2.2667294
-2.9712238 1.3258178 2.0998874
-2.973165 1.3251077 2.2600508
-3.195255 1.3253753 1.9875947
-3.3891873 1.2988845 0.43326294
-3.5363932 1.314075 1.9593719
-3.6594141 1.3226641 2.1638041
-6.145081 1.3016217 -4.6594429
-6.1059008 1.2871509 -4.7004366
-6.3059564 1.2976913 -4.6956382
-6.7792473 1.2806523 -4.0717912
-6.7367134 1.2881466 -3.9526653
-6.1403694 1.3059374 -4.4594822
-7.1384282 1.2949653 -4.0239301
-7.335186 1.2910016 -4.2310281
-7.2951994 1.2913934 -4.2319794
-7.4218082 1.2905364 -4.1778207
-7.4598598 1.285511 -4.4281363
-11.374046 1.3537463 -4.1665087
-7.877615 1.2895417 -4.5860181
-8.9679337 1.291104 -2.7040858
-9.1180191 1.293829 -2.2605867
-9.4725122 1.2904742 -2.012548
-9.3514919 1.2713112 -1.9753098
-9.31252 1.2867141 -2.016161
-9.2724915 1.2820249 -2.0170746
-9.4923954 1.281744 -1.8463086
-9.3333969 1.2881072 -1.8899417
-9.4105997 1.2844652 -1.7681526
-4.7212729 1.3212283 1.4802414
-4.9144378 1.3204904 1.4644338
-5.9104095 1.2701579 0.51784694
-9.9184265 1.3173538 0.52428424
-10.108291 1.2918714 0.58734226
-6.485477 1.2669252 -1.5779376
-6.4929571 1.2833205 -1.9177914
-6.1723638 1.2692131 -1.9245002
-6.2907424 1.2721335 -1.8221877
-6.2941608 1.2677909 -1.9821697
-6.4088163 1.2832191 -1.727065
-6.0245376 1.2671893 -2.487855
-5.1781211 1.3026075 -3.8272314
-5.305264 1.3017057 -3.7427697
-5.3163681 1.3014812 -3.7023616
-5.3294172 1.3021274 -3.8620019
