ply
format ascii 1.0
comment PCL generated
element vertex 1455
property float x
property float y
property float z
element camera 0
property float view_px
property float view_py
property float view_pz
property float x_axisx
property float x_axisy
property float x_axisz
property float y_axisx
property float y_axisy
property float y_axisz
property float z_axisx
property float z_axisy
property float z_axisz
property float focal
property float scalex
property float scaley
property float centerx
property float centery
property int viewportx
property int viewporty
property float k1
property float k2
end_header
-0.21868992 1.137127 -5.9675093
-0.095659256 0.85715079 -5.9152756
-11.667008 1.2721988 -4.1993594
-11.564831 1.2506111 -4.5220037
-11.676357 1.3121095 -4.1640782
0.88629818 0.99244362 2.8024554
0.88666391 0.95244533 2.8024538
0.88877916 0.9524681 2.7223256
0.88235903 0.99240941 2.7625716
0.7966013 1.2933245 2.9352896
0.87872505 1.2323878 2.7226076
0.95078516 1.113061 2.2622485
0.028086662 0.94163644 -5.7974806
0.87480354 1.272352 2.7627635
0.73583508 -1.0922172 2.2529209
-0.84385586 -1.2288119 2.5351722
-0.80804586 -1.2280865 2.4138579
-0.92936134 -1.2284057 2.378046
-9.7746782 -1.2705748 -4.6231384
-9.8908014 -1.2706658 -4.4603033
-9.9157972 -1.2522895 -4.6598964
-10.139816 -1.2306725 -4.8147278
0.79302549 1.3116695 1.2672286
0.8919735 1.2725505 1.7815094
0.88056087 1.1124547 1.4242349
0.8064394 1.3117999 1.0841269
-0.21890116 1.2570591 -5.9589944
-0.21871519 1.2969738 -5.9486609
0.88013124 1.1524024 2.6025021
0.026241302 -0.89618385 -5.7689767
0.029778004 -0.81594419 -5.8086514
0.047228336 -0.77592432 -5.8090196
0.017324448 -0.85595816 -5.8084564
-0.13644838 0.85718173 -5.9376435
-9.7281666 0.51830858 3.9804754
-9.7681322 0.43813956 3.9585214
-9.7347479 0.35828426 3.9749875
-9.7671995 0.31811363 3.9655309
-9.8068933 0.23789543 3.9560742
0.77288103 1.3331318 2.9774714
0.80773926 1.386742 2.8051734
0.84789467 1.3671082 2.8037319
0.87088203 1.3123161 2.8029194
0.80085754 1.1732306 2.9748578
0.69544125 1.2526866 3.0461788
0.014556885 0.85692203 -5.8377504
0.78896618 1.3915926 2.2855115
0.859272 1.4322479 2.0252993
0.9216671 1.3928143 2.0805993
0.78608513 1.3915696 2.2055635
0.5710597 -1.0594383 2.7463081
0.57556534 -1.0450506 2.8932559
0.65600252 -1.012166 2.910712
0.27851105 -1.0943089 2.9030092
0.25731659 -1.0933619 2.9424968
0.57814741 -1.027902 2.9732902
0.76906157 -1.0505202 2.132241
0.34307909 -1.1916447 1.8241351
0.41588449 -1.1684307 1.6044383
0.42345953 -1.1709841 1.8418038
-11.022852 0.5515973 3.4089479
-10.886021 0.52962029 3.4859242
-10.870438 0.59159833 3.6458564
-10.971745 0.097321399 3.3045678
-10.486961 -0.27770659 3.4207587
-10.486207 -0.26534411 3.4607944
-10.36533 -0.45957136 3.4451194
-10.523126 -0.22028229 3.3816967
-11.031882 0.67212605 1.7268023
-10.997692 0.6525718 1.6858916
-10.986597 0.63246906 1.7255499
-9.8223238 0.23787662 3.9364038
-9.843955 0.35790038 3.8973355
-9.889843 -1.2703822 -4.4203162
-7.7007465 -1.3748217 -3.2603593
-7.9976044 -1.3666617 -3.1715007
-7.6715622 -1.3762405 -3.5360334
0.634727 1.362722 1.330456
0.74367857 1.3912319 1.0288286
0.74692535 1.3512565 1.1087749
-0.18946552 1.2167374 -5.9078069
-0.18150187 1.096774 -5.9090824
-0.1288929 -0.85547864 -5.9134631
-0.28889227 -0.93563575 -5.9134035
-0.089379311 -0.73537499 -5.9241295
-0.24670744 -0.81555861 -5.9191594
-0.12884569 -0.81549406 -5.910728
-11.020335 0.6724003 1.686518
0.88624191 1.0724516 2.6823568
0.87949514 1.0323849 2.7626631
0.80539656 1.3917412 2.3249452
0.65502739 1.3325616 3.0427537
0.18253708 1.1704049 3.2559786
0.69466496 1.3327247 3.0314035
0.6941824 1.3502569 3.0189579
0.69604778 1.1726614 3.0559571
-9.8129396 1.1978474 3.964982
-9.7722206 1.1180702 3.9737873
-9.6926155 1.2784674 4.0026984
0.65416384 1.3626195 3.0203476
0.65274906 1.3802227 2.980418
0.72752047 1.4160099 2.8080561
0.80474424 1.3992184 2.7252259
-3.0797157 1.3591769 3.2356653
-2.9368432 1.4003356 3.1524892
-3.1545291 1.3592169 3.1373842
-3.1138988 1.3593173 3.1639438
0.023359299 -0.77571553 -5.8482175
0.036464691 -0.77623314 -5.7586184
-0.081770897 -1.1770167 -5.6468196
-0.039320469 -1.1519673 -5.6481404
-0.035113811 -1.2126719 -5.5285692
0.001159668 -1.1370088 -5.6344433
-0.3687191 -0.97574371 -5.9083767
-0.36842108 -1.0157871 -5.9011183
-0.44850731 -1.055851 -5.9035869
-11.875615 0.11127337 -4.3954058
-11.777159 0.10991723 -4.643239
-11.879037 0.028241679 -4.4385142
-11.763869 0.59214121 -4.6252642
-11.799989 0.04746446 -3.7948768
-11.792088 0.067736924 -4.1403875
-11.801538 0.010196611 -3.87497
-11.763034 0.070590086 -3.9256654
-11.760695 0.070286579 -3.8206921
-9.7675648 0.35813209 3.9606953
-10.284964 -0.61898971 3.4154
-10.217592 -0.73844177 3.3735847
-10.245333 -0.83596826 3.3338165
-10.252823 -0.69865417 3.3744516
0.69140339 1.3704635 2.9390581
0.86761761 1.3122931 2.6429331
0.94800854 1.1705407 2.1997914
0.57498884 1.3322934 3.0429668
0.53518152 1.3321432 3.04932
0.9505229 1.0530571 2.2397606
0.95018005 1.0905554 2.2397621
0.63898039 1.3702562 1.4503784
0.64203882 1.3902812 1.5403209
0.60287237 1.4199231 1.5717432
0.19080782 0.64730144 -2.2623034
0.18953037 0.80725724 -2.2579687
0.0019445419 0.84631974 -2.3157229
0.31120443 0.15078139 -3.2155445
0.29667282 0.16916189 -3.0547619
0.29498053 0.30044946 -3.3332598
0.31559992 0.10965776 -3.0960054
0.3172121 0.069284834 -3.0564146
0.85090399 1.3921801 1.7829552
0.81056595 1.4318129 1.7843976
0.89089823 1.2325407 1.7415338
0.79235792 1.4316473 1.7650409
-10.364132 -1.1251087 2.6900394
-10.323231 -1.1249743 2.7291172
-10.127666 -1.1476256 2.5245054
-10.167691 -1.1429276 2.5254385
-10.442678 0.15459955 3.5299468
-10.604496 0.55352336 3.5599413
-10.644962 0.018415295 3.5450768
-10.232602 -0.45881379 3.4548731
-10.322607 -0.45935321 3.4554868
-10.003529 -0.41774908 3.5402846
-5.2371283 0.76728368 3.6421828
-4.9819031 0.92714673 3.5982575
-5.2773314 0.80455285 3.6431642
0.52600574 -1.0830735 2.5798967
0.60574818 -1.062198 2.5775764
-0.23911095 -1.2447006 -5.6417751
-0.63573074 -1.315686 -5.3807454
-0.35429716 -1.256862 -5.7179117
0.80986261 -0.77748275 2.8017547
0.69583225 -0.97194153 2.9120533
0.82232904 -0.73748463 2.8142943
0.73186445 -0.85162431 2.888859
0.50639105 -1.1511838 1.9394269
0.46766281 -1.1495531 1.9807031
-10.370995 1.3402593 3.4778023
-10.531955 1.3619354 3.4413567
-10.370025 1.3226107 3.517725
-10.285523 -0.66385138 3.3752489
-10.326416 -0.53907049 3.3690233
-9.8092308 0.51798546 3.9322205
-10.843289 0.64926392 3.645484
-0.67701006 -1.229067 2.7294984
-0.72531748 -1.2281212 2.4910333
-0.63564587 -1.2290844 2.768086
-0.7169857 -1.2292353 2.7308862
-0.76390457 -1.2284752 2.5323966
-0.70263338 -1.2084088 2.5703862
-0.48863888 -0.89590091 -5.9012575
-0.48830175 -0.97594357 -5.8942356
-11.067245 -0.12305371 -4.9415183
-11.131134 -0.0035091601 -4.9570026
-11.129115 -0.12366928 -4.9150062
-10.931891 0.015736327 -4.9842863
-11.02693 -0.16272025 -4.9426541
-9.7074165 -1.2126241 -5.0252867
-9.4629259 -1.2245795 -4.9510398
-11.225157 -1.0996698 -4.2612658
-11.203698 -1.0998641 -4.291595
-11.123518 -1.1318625 -4.2934732
-0.36858511 -0.93577385 -5.9031434
0.63223028 1.3502018 1.2580028
-3.0299251 -1.0602008 3.5040922
-2.7726445 -0.97923815 3.6184444
-2.6524367 -1.0755569 3.4952164
-2.6920562 -1.058365 3.5162163
-2.773294 -1.0835769 3.4579945
-2.813338 -1.0738044 3.4589691
-2.7750218 -1.1082542 3.3779135
-2.7317312 -1.0311733 3.5372577
-0.18712282 1.2567461 -5.9075527
-0.17552137 1.2557749 -5.7878833
-0.18704033 1.2960654 -5.827177
-0.2170701 0.89697033 -5.9495602
-0.22191095 0.85695118 -5.949729
-0.17666578 0.89703339 -5.9384351
-0.21722603 0.93696862 -5.9492202
-0.28916264 -0.83560818 -5.9178085
-10.332524 1.3957059 3.4221635
-10.512251 1.3950185 3.3210249
-10.943921 1.272393 3.3299079
-10.508886 1.3948846 3.360961
-9.4412365 1.3339972 0.9848209
-9.4093733 1.3343341 0.95658761
-9.3169813 1.2868271 1.1543732
-9.2370043 1.2874302 1.1525502
-9.3569698 1.2865255 1.1552849
-9.3997145 1.289125 1.0362372
-9.395133 1.2859566 1.2361751
-9.4750519 1.2928365 1.2430232
-9.3542318 1.2861245 1.2752528
0.74458075 1.4011923 2.1670306
-3.0622208 1.359274 3.2352571
-8.1644678 1.2766421 0.80795306
-8.1262865 1.274711 0.72705406
-8.0844727 1.2747452 0.80612105
0.0023722649 -0.89597505 -5.8081746
-0.01404047 -0.85575813 -5.8473949
-0.050441265 -0.81556475 -5.8859239
-0.036488056 -0.89578384 -5.8468537
-0.048711777 -0.73544562 -5.9055243
-11.212876 0.51768309 -2.3427203
-11.391763 0.69984257 -2.5802035
-11.378898 0.64492697 -2.580092
0.75926399 1.311377 0.88569742
-0.45833635 -0.78924263 -5.8974786
-0.41882753 -0.74890196 -5.9035344
-0.084429741 -0.73750114 -5.5640917
-0.49849796 -0.74956489 -5.8931222
-0.095460415 0.81714207 -5.9143662
-0.051617146 0.81698579 -5.875844
-0.24642801 0.73685169 -5.949894
-0.21844864 1.0971079 -5.9653506
-0.25852537 1.0570048 -5.9718184
-0.52446461 -1.2540883 -5.7920585
-0.77239275 -1.2173002 -5.8151054
-0.61414051 -1.1907332 -5.8606625
-0.44829559 -1.0958797 -5.8988266
-0.48449612 -1.2465415 -5.7933965
-0.45118761 -1.2103294 -5.7867546
-0.52798843 -1.0960177 -5.8885665
-0.69631672 -0.95119518 -5.8703375
-0.52827787 -0.97599053 -5.8928528
-11.762107 0.57457507 -4.5578046
-11.761118 0.57453573 -4.517817
-11.875893 0.07129366 -4.4154444
-11.878695 0.068133034 -4.4108591
-11.131462 0.036489129 -4.9568391
-10.894625 0.47736299 -5.097002
-10.957396 0.078026302 -4.9834232
-10.957067 0.038028017 -4.9835868
-9.8482141 0.1579721 3.8716354
-9.8767338 0.19691202 3.8104286
-9.87644 0.15690374 3.8127737
-10.161382 0.036192738 3.5534258
-9.8863668 0.036957964 3.7825341
-9.9042616 -0.057820749 3.7295032
0.85293722 1.3521656 2.5233731
0.92383862 1.312829 2.1205699
0.93465853 1.0329095 2.280364
0.68057585 1.350634 1.4889109
0.57273579 0.58979398 -0.71804512
0.57165289 0.54956955 -0.7552886
0.52691984 0.8062579 -0.85786819
0.52710342 0.76875895 -0.85764879
0.57330799 0.61241359 -0.69818872
0.48459864 0.58797491 -0.95517045
0.2327795 1.0249271 -3.763217
0.18823957 0.70683289 -3.965287
0.16189671 0.7684328 -4.1237531
0.20742941 1.0662781 -3.8994288
0.2332139 1.1444685 -3.7218688
0.20820713 1.3053888 -3.8192306
0.95441914 0.87308252 2.3022122
-9.2246914 -1.0988222 0.90365893
-9.303793 -1.0945939 0.94549257
-9.3019857 -1.0924292 1.0254817
-10.328913 -0.65853584 3.2136312
-10.37021 -0.57864231 3.1747527
-10.412508 -0.93813753 2.9593489
-10.287863 -0.81830734 3.2172332
-10.48853 -1.1426761 2.4927511
-0.79477978 -1.0862308 3.3154106
-0.74322844 -1.1653714 3.1332417
-0.78381491 -1.1854755 3.1145711
-3.1520584 1.3337748 3.2372417
-10.242321 0.19570228 3.5557718
-10.246659 0.14076123 3.5547428
-10.765201 0.53270048 3.5233312
-10.724411 0.55278468 3.5650334
-9.8503046 0.51792216 3.8830991
-9.8780584 0.51680106 3.8391566
-9.8508577 0.63787925 3.8935852
-9.837739 0.55794322 3.8979874
-10.564656 0.57876581 3.5591731
-10.484254 0.27450234 3.4912839
-10.642308 0.045942746 3.5188575
-10.483047 0.15442166 3.5133152
-9.972105 -0.36160985 3.5370874
-10.003819 -0.37774149 3.5379272
-9.9717426 -0.41660839 3.536932
-9.9316216 -0.43634248 3.5360088
-9.9314899 -0.45634195 3.5359521
-2.5834451 1.28145 3.464572
-2.180387 1.1778327 3.5326824
-2.0826094 1.3634317 3.4900489
0.65499592 -1.0120345 2.8807292
0.56946516 -1.0589008 2.6963365
-0.15919018 -1.2121072 -5.6443481
-0.28046703 -1.2470123 -5.6803827
0.65799379 -0.89252013 2.9912159
0.66255093 -0.93240178 2.9708767
0.69595814 -0.8920204 2.9299097
0.78998852 1.0930851 3.0150423
0.69626617 1.1326553 3.0583477
0.73630524 1.0128194 3.0466735
0.80125856 1.0532317 2.9745338
0.80362368 1.0932399 2.9745572
0.50103378 0.55176687 3.1435151
0.26436281 0.6106841 3.2517548
0.2642293 0.65068382 3.251863
0.34208155 0.67111331 3.18924
0.59555101 -1.0127989 2.9727724
0.61841536 -0.93277758 2.9973705
0.53917456 -1.0132815 3.0071809
0.27014303 -1.1680049 1.4264901
0.5728178 -1.1258196 1.5198433
0.62791967 -1.0854089 1.5360296
0.65125799 -1.0497086 1.495646
0.17218637 -0.92309821 -3.9412572
0.14468908 -0.82134438 -4.1394744
0.14741516 -0.92192483 -4.0779734
-1.669997 -1.1722913 -1.6575276
-1.7184711 -1.1316499 -1.8958519
-1.5156488 -1.1710595 -1.822982
-0.22397041 -1.1372141 2.904676
-0.74522781 -1.1851676 3.0732074
-0.62868261 -1.1643288 2.9741724
-0.56141138 -1.1880057 2.6055999
0.48910475 -1.0796458 2.6958914
-0.071077347 -1.145323 2.6608162
0.53089619 -1.0647961 2.7400279
0.95770979 0.51309752 2.302197
0.97146702 0.63323438 2.1590743
0.95734406 0.55309588 2.3021986
0.69655991 0.89269602 3.0427084
-11.243733 -1.0926147 -4.2906823
-11.227227 -1.0843594 -4.3411798
-11.149335 -1.1214632 -3.6527078
-11.192042 -1.1138668 -3.7717648
-10.907537 -1.2051321 -3.5983198
-11.470263 -1.1033512 -3.685518
-11.764967 0.11006952 -4.6560392
-11.724192 0.59237063 -4.6387486
-11.643785 0.51280618 -4.6408148
-10.528229 -0.20281294 3.3818626
-10.647027 0.016045004 3.5051026
-10.687152 0.038302787 3.506011
-10.852415 0.47263271 3.4049654
-10.931569 0.092537455 3.3112202
-10.847363 0.47265375 3.4073567
-10.245193 -0.33899519 3.4855518
-10.364229 -0.45932475 3.3775826
-9.9067602 -0.41617712 3.5355234
-9.8920269 -0.37607867 3.5353112
-9.8917637 -0.41607761 3.5351987
-9.9238377 -0.37725818 3.5362711
-10.368356 -0.49903017 3.2875123
-10.26591 -0.73859149 3.3345771
-10.256854 -0.85825372 3.2539616
-10.246131 -0.85831332 3.2887464
-10.727733 0.31461471 1.6779697
-10.873299 0.56776798 1.8426058
-10.949064 0.47150332 1.9915144
-9.8777103 0.47678351 3.8440008
-10.299038 1.1555406 3.5155663
-10.207554 1.0759127 3.5608015
-10.328574 1.1153221 3.5260582
-10.24808 1.1381959 3.5544086
-10.286892 0.99540073 3.5697198
-9.9230375 -0.53722847 3.528204
-9.8056116 0.037901334 3.9552598
-9.7764568 0.3597441 3.5507951
-9.8833714 0.35788605 3.5486097
-9.9107332 0.31773859 3.5440507
-9.1170387 1.2883348 1.1498156
-9.2351789 1.2871628 1.2325287
-10.245106 -0.31902999 3.4956207
-10.32529 -0.25954053 3.5049887
-10.440418 -0.26020956 3.4998713
-10.64502 0.63328743 3.5586147
-10.438964 0.31468162 3.5154595
-10.444412 0.43460146 3.5285273
-10.404391 0.47479695 3.5403142
-10.549397 -0.25160655 -0.66877902
-10.567555 -0.25212175 -0.58834255
-10.708882 -0.41367802 -0.47831023
-10.566636 -0.25230569 -0.54835367
-10.886753 -0.53524071 -0.42226946
-10.864149 -0.51564598 -0.30266583
-10.907811 -0.51520485 -0.46170449
-8.916481 -1.3664107 0.38929754
-8.9202309 -1.3664398 0.38938195
-8.7533598 -1.4056089 0.56807774
-8.9211655 -1.3660616 0.23686498
-8.6738892 -1.4049361 0.54378361
-11.035114 -1.0213622 -0.94123942
-11.07496 -0.89281887 -1.2198091
-11.082685 -0.93276912 -1.2423216
-10.998057 -0.93311101 -1.0417119
-7.0711288 -0.35162792 0.27095586
-7.0303335 -0.34393677 0.31010729
-7.0739059 -0.33118126 0.1510635
-7.07026 -0.35177708 0.31094617
-7.3385973 -0.39037791 0.50351244
-9.2405987 1.2804651 0.99256641
-9.7266893 -1.2477396 -4.2818446
-9.8246946 -1.2488947 -4.3019934
-8.6814022 -1.3641844 0.22396713
-8.7277727 -1.3538358 -0.055035532
-7.579793 -1.372744 -3.0978873
-1.0837092 -1.2298218 2.5434992
-0.99681473 -1.2304136 2.7406011
-1.0781646 -1.2280645 2.7034132
-1.3925667 -1.1926545 2.8745973
-0.87549973 -1.2300942 2.776413
-0.94232845 -1.1863 3.1600986
-0.82656717 -1.1853763 3.0360076
-4.4287291 -1.1066785 -5.0239658
-4.6897202 -1.107899 -5.0821757
-4.6500158 -1.1074486 -5.1003308
-1.0030704 -1.2763995 -5.5670729
-1.1999106 -1.3186007 -5.4852319
-0.79681873 -1.3539743 -5.4152555
-1.1897349 -1.3185755 -5.4806004
-6.0930338 -1.1157032 -5.1522422
-6.0141106 -1.1048086 -5.1941047
-5.9376659 -1.1196949 -5.0359411
-6.0571098 -1.0897589 -5.3130565
-9.4610863 -1.2165128 -4.8711162
-9.5790491 -1.2246704 -4.7882051
-11.323958 -0.34584355 -4.7760849
-11.326622 -0.32586515 -4.7759423
-11.486136 -0.4475188 -4.6925068
-11.091147 -0.0031774119 -4.9579749
-10.52706 -0.63835001 -5.0141945
-10.726414 -0.54023659 -4.9514408
-10.528044 -0.51835513 -5.0137038
0.94401312 0.59299093 1.9424343
0.9620924 0.71316218 1.9192338
0.95846272 0.27309608 2.2622125
-9.7989264 -1.2132851 -4.9830751
-9.8988876 -1.2329377 -4.7804766
-10.081911 -1.2156281 -4.8962479
-11.156475 -1.1180382 -3.9726191
-11.198277 -1.1130575 -4.0516934
-11.160038 -1.1175758 -4.1325784
-11.1831 -1.1146486 -4.1823239
-11.240094 -1.1055769 -4.1307607
-11.238375 -1.0958083 -4.0507507
-0.65736914 -0.8308605 -5.8755946
-0.49756479 -0.86958027 -5.8918223
-0.035162449 -1.1626729 -5.5282736
-0.079274654 -1.1745138 -5.6468911
-0.41686964 -0.98895705 -5.8984365
-0.20824909 -0.93565941 -5.8961811
-0.12132835 1.2530911 -5.4470487
-0.1397438 1.2932041 -5.4685969
-0.13579369 1.3321997 -5.3483315
0.30658817 0.2319026 -3.3347001
0.24145317 0.86271173 -3.5651996
0.24222994 0.94225723 -3.5243104
0.23818874 0.90360034 -3.6446819
0.24515152 0.94136453 -3.4443688
0.2375865 1.022673 -3.5632718
0.13610554 1.1293542 -2.4775829
0.23828125 1.0631377 -3.6028745
0.25037622 0.50096309 -3.4094486
0.24247932 0.742724 -3.566577
0.23155546 0.62010199 -3.3473864
-0.33930302 1.1367917 -5.9833951
-0.33935833 1.2167255 -5.9752202
-0.091409206 1.132731 -5.3915439
-0.078731537 1.0852854 -5.3923745
-0.095432281 1.173053 -5.4310937
0.020040512 0.97422212 -5.5167589
0.03759861 0.95679623 -5.5175061
0.54453802 1.3893987 1.3336987
0.59745312 1.3823788 1.4118457
0.56217861 1.4295522 1.5556958
0.51727962 1.4066468 1.4147279
-6.5977678 -1.0772982 3.3915019
-6.596941 -1.0694821 3.4314327
-6.5169783 -1.0664865 3.4296608
-6.3978195 -1.0760586 3.3871207
-6.7568512 -1.0779734 3.4349961
-0.41799212 -0.82896894 -5.8968387
-0.17544842 1.1764572 -5.8685989
-9.6899223 -1.2124454 -5.0257077
-9.7009783 -1.2214633 -4.8653288
-8.5820646 -1.2002045 -4.9173183
-8.5116272 -1.1495504 -5.2944837
-8.065815 -1.2561306 -5.1043558
-11.393744 0.95417017 -4.6465616
-11.368081 0.92689854 -4.7272468
-11.386803 0.87425143 -4.6868238
-11.684451 0.5925976 -4.649734
-11.488708 1.2324531 -4.6839523
-11.52722 1.2334268 -4.6229811
-11.680467 0.63242978 -4.4797416
-11.682363 0.61750871 -4.5597339
-11.393062 0.91403919 -4.5265813
-11.396981 0.99406379 -4.5664177
-10.497343 1.3943222 3.2006707
-10.479087 1.3959918 3.1202629
-10.402375 1.3961494 3.1986227
-10.524172 1.3961806 3.0012105
-10.77182 1.3576984 -4.7915778
-10.973825 1.2367227 -4.8967366
-11.052228 1.3112086 -4.8147011
-10.569689 1.3555949 3.0820632
-10.578876 1.3553944 3.1197701
-10.698506 1.3071569 3.1246793
-10.799166 0.9105376 2.4425583
-10.798816 0.99035507 2.4829197
-10.833563 0.66952604 2.6023395
-10.799765 0.99053448 2.4429314
-9.4423199 1.334156 0.93733352
-9.2806063 1.2826635 0.99348682
-9.3223448 1.2726296 0.91438466
-8.5019493 -1.3211082 0.94124752
-8.0486174 -1.4575645 1.4754755
-8.1689367 -1.4109722 1.4784169
-8.0476303 -1.4677317 1.5154212
-9.3933077 1.2856892 1.3161538
-10.296283 -1.112234 -0.15841037
-10.298101 -1.1143661 -0.23840022
-10.216325 -1.1091449 -0.16023284
-10.16577 -1.1303192 -0.36154592
-10.659615 -0.51509249 -0.10730696
-10.659301 -0.49518523 -0.087217152
-10.460632 -0.25506312 -0.070670485
-10.863487 -0.53574866 -0.28026742
-10.220917 -1.1082252 -0.36017758
-10.303667 -1.1057627 -0.47829816
-10.379951 -1.1095877 -0.31651992
-10.389966 -1.1031523 2.7707424
-10.647895 -1.0241609 2.5619023
-10.367533 -1.0635055 2.8904285
-10.318817 -1.1058129 2.9291503
-10.361599 -1.0981125 2.8101268
-11.37603 0.84728521 -1.68502
-11.370112 0.84713811 -1.6451457
-11.369485 0.88695264 -1.604966
-11.348863 0.92691451 -1.565245
0.88553238 0.9924435 2.6423793
0.8773284 0.91236675 2.6026721
0.88480091 1.07244 2.6423826
0.91592646 1.2327635 1.8807225
0.89126396 1.1925423 1.7415321
-9.8513308 0.67791742 3.8837509
-9.8792105 0.63687241 3.8196244
-9.8315239 0.75798601 3.8986397
-9.8805218 0.72950041 3.7849894
-10.246716 0.9556542 3.5662017
-10.326456 0.915169 3.5677762
-10.322447 1.0352428 3.555634
-9.9034662 1.0770187 3.7467718
0.26145077 1.0507903 3.2104673
-10.367676 1.0749682 3.5567608
-10.288384 1.2354037 3.5681462
-10.328428 1.2351699 3.5665112
-10.408175 1.1147707 3.5452824
0.53692961 1.0120941 3.0684445
0.79596758 1.0136455 2.8145182
0.79966164 0.93398201 2.6941173
0.80202627 0.97399038 2.6941407
0.79811811 1.0538691 2.734503
0.80115175 0.893879 2.7339864
0.7302556 1.4710804 1.7872806
-0.27707911 1.4530007 3.0283012
-0.33651543 1.4525714 3.0695548
-0.2125349 1.4129325 3.1051044
-0.39221907 1.4293034 3.1914644
-0.28822041 1.3817896 1.2711518
0.030562878 1.4247063 1.2421398
0.064142704 1.4250208 1.0633144
-0.78960562 0.6474936 -3.0095344
-0.79028988 0.72748548 -3.008616
-0.70466805 0.67305243 -3.2124994
-0.70511484 0.65074998 -3.2302449
-0.70036983 0.17060366 -3.2182674
-0.65749693 0.44931579 -3.0716164
-0.66238737 0.13224781 -3.2609472
-11.344442 0.99457258 -4.767777
-11.344874 1.0745714 -4.7676873
-10.735572 0.51825804 -5.1284022
-10.695848 0.49849027 -5.1444082
-10.438416 0.9598946 -5.1503177
-0.25911903 1.2969108 -5.9597859
-4.7068567 1.3254119 1.6798809
-4.8695364 1.3250588 1.6054811
-4.7110119 1.3234208 1.5599434
-4.8323164 1.3205712 1.5241203
-3.0720427 1.3591853 3.2429881
-2.9093947 1.3470764 3.3516684
-10.801414 0.83107895 2.3222203
-11.016453 0.50944144 2.3258801
-10.825954 0.85126626 2.2428701
-10.510002 -1.1109481 -0.75365877
-10.390038 -1.1100643 -0.75641024
-10.430963 -1.1076751 -0.79547012
-10.748003 -0.61260009 -0.50333345
-10.877964 -0.41302866 -0.87203169
-10.843697 -0.37320465 -0.78261107
-10.879716 -0.39270753 -0.941917
-10.899566 -0.41285408 -0.94155377
-10.912833 -0.53416944 -0.68673766
-10.918918 -0.53295088 -0.95166439
-10.833187 -0.69327521 -0.75431669
-10.783762 -0.49257421 -0.82454777
-10.883971 -0.31197482 -1.1014915
-10.897985 -0.41265172 -0.98160005
0.036101818 -0.75867462 -5.7685084
-0.0019741058 -1.0169256 -5.6486373
0.00057792664 -1.0719217 -5.6490493
-4.1484833e-05 -1.0568191 -5.66645
-0.023035526 -0.73553389 -5.8864007
-0.048241138 -0.77551842 -5.8932686
0.0019702911 -1.0821568 -5.6091332
-0.041377068 -1.0579188 -5.4874172
-0.035601616 -0.97763211 -5.5346737
-0.092239857 -0.73916847 -5.283659
-0.083283901 -0.81939346 -5.2444162
-0.075598717 -0.73985958 -5.1641645
-0.079786301 -0.6991545 -5.283854
-0.088625431 -0.73892736 -5.3238072
-0.073750973 -0.61891192 -5.3236151
-0.066642761 -0.82008457 -5.1249218
-0.48916197 -0.71334541 -5.910171
-0.52928019 -0.65587872 -5.9109468
-0.52913046 -0.72089225 -5.908833
0.219769 -1.0812234 -2.0231493
0.059024811 -1.118593 -1.9981797
0.14108276 -1.103512 -1.9384279
0.093054295 -1.1227883 -4.0204296
0.17825842 -0.96536249 -3.7017093
0.12215185 -1.085879 -3.6808746
0.0094285011 0.72593045 -2.2773118
-0.11391449 0.22434288 -5.8776078
-0.12279129 0.13704607 -5.919117
-0.13290215 0.16700289 -5.91852
-0.1329565 0.13704598 -5.9237719
-0.26313782 0.53678715 -5.9509945
-6.2098131 -1.0008903 -5.3891077
-6.2574158 -1.0516428 -5.3081255
-6.2199497 -0.9859851 -5.3888121
-5.9741478 -1.1019324 -5.1950512
-0.81373453 -1.152357 -5.8379793
-0.73378992 -1.1517669 -5.8408971
-0.65252829 -1.2089157 -5.819407
-9.8412457 -1.1742638 -5.0623622
-0.52411652 -1.2566471 -5.7820792
-0.44312716 -1.2567295 -5.7548628
-0.52307224 -1.2643234 -5.7521424
-0.85435915 -1.0726336 -5.8382201
-0.85473108 -1.0326122 -5.8403187
-1.2560401 -0.83552849 -5.8287296
-0.97410011 -1.0336431 -5.8209529
-0.8462801 -1.2494435 -5.6526017
-11.583494 -0.090818033 -3.0949216
-11.624922 -0.37064973 -3.2373438
-11.631757 -0.37044257 -3.3197117
-11.625033 -0.37063527 -3.2423427
-11.25537 0.40816745 -1.6898115
-11.244164 0.36805871 -1.6502424
-11.341668 0.62446284 -1.5668015
-11.250081 0.36820582 -1.6901168
-11.219206 0.40767109 -1.5306009
-11.230412 0.44777989 -1.5701698
-11.040665 -0.63582504 -1.0593711
-10.959706 -0.57302552 -0.99842477
-10.912422 -0.51178527 -0.66163731
-10.8659 -0.41336885 -0.78228587
-11.222063 0.14706689 -1.4117011
-11.195666 0.20688793 -1.3320107
-11.190958 0.24692324 -1.3319347
-11.419802 0.68591136 -1.464697
-11.226913 0.12703785 -1.411682
-11.376449 0.68708897 -1.6457363
-11.343576 0.92689389 -1.5528631
-11.325741 0.96689481 -1.5255814
-11.219253 0.28785959 -1.5711619
-11.683324 0.61254811 -4.5997272
-11.78095 0.03056822 -3.9553897
-11.0475 0.27625895 -4.8508472
-10.932568 0.098232783 -4.9839492
-11.365298 0.87441295 -4.7273674
-11.676192 1.3046046 -4.1590881
-11.667531 1.2721065 -4.1193218
-11.724794 0.50653785 -3.8119416
-11.723046 0.50460589 -3.731945
-9.849309 0.27802753 3.8571281
-6.2458563 1.3920056 3.4261136
-6.2858458 1.3917754 3.4270139
-6.2850561 1.3817097 3.4594841
-2.2569816 0.60238004 3.5604181
-2.455282 0.16155425 3.5579314
-2.1744854 0.24260533 3.5860443
-10.246421 0.10076224 3.5546007
-10.201612 0.075948559 3.5544448
-9.8762846 0.076961778 3.7974687
-10.44628 -0.020340115 3.5283222
-10.445823 -0.14029422 3.515398
0.6474843 1.4252785 2.8109376
0.79459143 1.4066379 2.4454083
0.82326746 1.3919011 2.4043531
0.86473656 1.31227 2.5629852
0.86444473 1.312259 2.7631254
0.83758211 1.3920269 2.5239151
0.94835138 1.1330422 2.19979
0.85019493 1.3121719 1.7429779
0.6666441 1.3505082 1.4493871
0.6819706 1.3556452 1.5288851
0.33235645 0.13956821 -2.0331166
0.37464571 0.16195795 -1.8894186
0.33198309 0.19526502 -2.0421109
0.13235569 0.50068587 -1.9057024
0.21721792 0.22169355 -1.803107
0.03580904 0.37942797 -2.0392604
0.089931965 0.46003306 -1.9815564
0.27684402 0.33959654 -3.2721159
0.26265574 0.25786316 -3.1324079
0.1673584 0.56720299 -2.9253242
0.31420803 0.1100331 -3.1359797
0.31604099 0.029662609 -3.096772
0.30402565 0.19265571 -3.4150314
0.30864191 0.11153451 -3.2958758
0.30541706 0.19228035 -3.3750572
0.21467543 0.80477029 -3.7650137
0.29386187 0.26089987 -3.3736897
0.2685113 0.3022508 -3.5099018
0.18858194 0.66683698 -3.9657462
0.18789768 0.74682879 -3.9648278
0.21035147 1.0653853 -3.8194873
0.94817924 1.0730391 2.1798003
0.9548068 0.67307937 2.2622297
0.95347071 0.7305705 2.2397468
0.95407534 0.75307602 2.262233
0.87923002 0.67236567 2.8028018
0.8831296 0.79240632 2.8026271
0.79233456 0.73320001 2.9740088
-10.695198 1.314079 3.2796707
-10.935114 1.2726587 3.2747049
-10.932954 1.2548052 3.3696146
-10.575793 1.3548633 3.2622356
-10.522297 -1.1364757 1.0131514
-10.283317 -1.1294965 0.96771592
-10.571356 -1.1426016 0.61413831
-9.6129055 -1.1314462 1.4150167
-9.2537842 -1.0936354 1.3844731
-9.5919752 -1.1718886 1.5519063
-8.5284281 -0.76467824 1.7193916
-9.0197649 -0.84703803 1.4201765
-8.730135 -1.1103791 1.532495
-8.888319 -1.1044226 1.6161516
-8.0380764 -1.4396356 1.3952887
-9.8803644 -1.1344147 1.6386664
-9.5840006 -1.1728752 1.7917845
-9.9078503 -1.137127 1.6392972
-9.8460674 -1.1320046 1.7179153
-9.9060621 -1.1324624 1.7192974
-10.247297 -0.92305446 3.213532
-10.130404 -1.1471227 2.4045379
-10.291307 -1.1431633 2.368216
-10.051265 -1.1563509 2.3626823
-10.052177 -1.1561832 2.3226931
-9.9911957 -1.1658926 2.3612566
0.45828915 -1.0411114 2.9772549
0.41723442 -1.0552878 3.0185933
0.41834974 -1.0550921 2.9772832
0.17841816 -1.0952221 2.9764044
-5.1581707 0.86778253 3.6206031
-5.3621798 1.1843287 3.525816
-5.2422209 1.107561 3.5029526
-5.3218017 1.0670863 3.5121651
-5.3234053 1.2396388 3.4850445
-5.3244491 1.2647195 3.4451089
-5.3634801 1.2544085 3.4859772
-5.4033718 1.2666628 3.4944024
-5.0663166 1.2272257 3.481524
-6.2053595 1.3821952 3.4451866
-9.8773756 0.27693784 3.8032393
-9.877244 0.23695755 3.7980862
-9.8765793 0.11697004 3.7951236
-9.8819246 0.14213866 3.779737
-10.603588 0.11383314 3.4782634
-10.319353 -0.57891268 3.3362331
-2.4245777 1.3222475 3.4342113
0.61029339 -1.0188967 2.7354865
0.69356298 -0.94166827 2.8497264
0.76815748 -0.81513536 2.7751651
0.74809074 -0.84280652 2.0951221
0.89851475 -0.30732313 1.9760144
0.77608252 -0.6714468 1.7758908
-0.19222307 -1.2433299 -5.4432659
0.41565752 -1.0459969 2.8986185
0.69822645 -0.85200673 2.9300091
0.78472376 1.1730672 3.0154278
0.81431866 0.35176226 2.7251813
0.70986319 0.33302352 2.9357486
0.77460814 0.39824608 2.9337208
0.82562637 -0.57744861 2.8159108
0.65758228 -0.93743122 2.9710212
0.52207232 -1.0717845 2.4600756
0.53159189 -1.0842462 1.3390026
0.68924236 -0.9813475 1.4551468
0.15598536 -0.96417451 -3.8385122
0.17664623 -0.92498958 -3.7413001
0.17357826 -0.92347354 -3.901283
0.73222208 -1.0078162 1.8537173
0.71590185 -1.0066632 1.7341824
0.75072384 -0.88406068 1.5342767
-0.46786356 -1.2893639 -5.3139286
-0.26940012 -1.2538942 -5.3606091
-0.4100194 -1.1464378 -1.8212774
-0.33350992 -1.1461923 -1.7795362
-0.35288334 -1.146413 -1.7607238
-0.36977196 -1.146503 -1.7432566
-1.5644131 -1.1462364 -1.9940469
-1.6043613 -1.1491138 -1.992595
-7.6307287 -1.3756349 -3.4968901
-1.2197137 -1.3187968 -5.479506
-1.6429002 -1.1470356 -1.9511621
-6.3322649 -1.1578468 -1.0284272
-6.2940149 -1.1572078 -1.1092759
-6.3731232 -1.1580383 -1.0675492
-1.003768 -1.2269852 2.5407357
-1.0093126 -1.2287424 2.3808217
-1.802861 0.089119561 2.4543002
-1.8477898 0.027916119 2.3757606
-1.8136358 0.089171685 2.4321609
-0.12415934 -1.1474323 2.8000655
-0.10850334 -1.1466222 2.7420421
-0.22918129 -1.1225986 2.957936
-0.42157745 -1.1674169 2.6008382
-0.30803299 -1.1371499 2.7849274
0.33652353 1.4274902 1.5413139
0.40019798 1.4105734 1.4989982
0.38045216 1.4678885 1.659797
0.88092613 1.0724562 1.4242332
0.80717039 1.2318032 1.0841234
0.81329823 1.1918508 1.2440178
0.58549547 -1.1300932 1.9171181
0.64987373 -1.1300524 1.9750981
0.95661259 0.63309252 2.302202
0.88061428 0.75238502 2.7226772
-10.578767 1.3553756 3.124769
-10.496307 1.2755194 3.215209
-10.295386 1.3489907 3.2761512
-10.393147 1.3958969 3.2784414
-10.373596 1.3956492 3.3730402
-10.313936 1.3960698 3.3567472
-10.134892 1.4048127 3.3128963
-11.532893 -0.17271179 -2.642005
-11.535625 -0.13189751 -2.6409926
-11.511351 -0.1319879 -2.5615134
-11.576425 -0.09173578 -2.7775023
-11.242843 -1.0927303 -4.2506924
-11.55499 -1.055775 -3.8835435
-11.345875 -1.0081691 -4.2579699
-11.311309 -1.0073915 -4.3788452
-11.550273 -1.0988522 -3.683723
-11.513049 -1.0832553 -3.8045371
-11.509377 -1.1012173 -3.6446307
-11.000113 -1.2063783 -3.3762066
-11.481794 -0.36748075 -4.6923008
-11.4425 -0.32709241 -4.7081051
-11.482 -0.32750192 -4.687139
-11.605301 0.071495436 -4.6850848
-11.564984 0.51328719 -4.6902766
-10.932249 0.067675278 3.2711401
-10.908614 0.018101953 3.1904626
-10.968418 0.067540735 3.2459273
-10.973455 0.46825099 2.6497691
-11.053942 0.52016437 2.6469102
-11.052081 0.52480543 2.7269101
-10.969506 0.073614486 2.9659064
-10.952631 0.46824574 2.6842849
-10.98452 0.46837693 2.6050191
-10.822475 0.1896019 2.5999234
-10.836471 0.30912456 2.6808147
-10.168641 -1.1377603 2.4854712
-9.7787132 -0.022256013 3.3337541
-9.9226418 0.23764613 3.5490112
-10.369732 -0.51128978 3.217483
-10.278646 -0.698668 3.3349781
-10.286248 -0.6812138 3.3351955
-10.298151 -0.77836019 3.2150831
-10.734031 0.23493877 1.5977385
-10.75497 0.315341 1.4785614
-10.879541 -0.023751978 1.5073469
-10.199671 -1.1320627 1.125839
-10.98281 0.054660216 2.2689855
-10.987826 -0.065205425 2.2285869
-10.95351 -0.065295212 2.3078249
-10.990067 0.070007317 2.2432592
-10.993915 0.46867883 2.5252202
-11.022655 0.50864798 2.4860699
-11.389861 0.65957689 -2.6199691
-11.375463 0.61939293 -2.6600056
-11.412292 0.77970803 -2.5803263
-11.098685 -0.48880312 -2.771786
-11.127366 -0.52946812 -2.6112247
-11.102621 -0.48931256 -2.6116595
-11.24542 0.28842962 -1.7306017
-11.371707 0.68769604 -1.7658752
-9.8942442 0.51691484 3.7844939
-9.8915052 0.47693115 3.7842855
-10.205712 0.79589224 3.5672197
-10.285582 0.72296381 3.5536723
-10.206487 0.91589832 3.5651832
-10.126987 0.99638253 3.5637631
-10.166496 0.91614145 3.5643187
-10.126746 0.95638353 3.5636086
-10.328975 1.2902056 3.556726
-10.19045 -0.81813639 3.3327398
-10.165588 -0.97780126 3.2791653
-10.20647 -0.57851499 3.4139118
-10.187838 -0.6982615 3.373106
-10.208058 -0.93810189 3.2926846
-10.223294 -0.89819354 3.2931376
-9.7654085 0.063527219 3.9738474
-9.7651882 0.038082577 3.9743881
-8.4824409 -1.0886637 3.7428813
-8.443964 -1.1219331 3.6619387
-8.4431295 -1.1170404 3.7019429
-8.5692034 -1.1120867 3.4246244
-8.4015522 -1.0944899 3.7811208
-8.5929947 -0.0076771267 3.5881386
-8.5438499 -0.12746595 3.626761
-8.5721445 -0.137541 3.5873384
-9.8777533 0.41185975 3.8237553
-10.245434 -0.099198438 3.5438919
-10.125836 -0.018492643 3.5466905
-10.244946 -0.25911725 3.5208282
-10.365395 -0.17984422 3.5235972
-9.9640474 0.43743497 3.5406494
-9.8848953 0.55793667 3.5343847
-9.8841991 0.47790152 3.5440741
-9.8838511 0.43788394 3.5489182
-10.620936 0.82890326 3.0781484
-10.617839 0.74892539 3.0777159
-10.62223 0.83449864 3.2813053
-8.8847513 -1.1061027 -1.6113145
-8.5667162 -1.1589427 -1.4985718
-8.5710163 -1.1587738 -1.5784949
-9.0759001 -0.37918243 -0.9651345
-9.0769424 -0.32411954 -0.99248838
-9.0744448 -0.36406648 -1.0063922
-9.0767651 -0.26668614 -0.96485013
-9.1464691 -0.3158398 -0.5232836
-9.1439981 -0.28612319 -0.40323871
-9.1279964 -0.325798 -0.48371294
-9.0731239 -0.27206248 -0.80490398
-9.186554 -0.30365014 -0.5223521
-9.1388941 -0.32578138 -0.52347767
-8.5535212 -1.1586381 -1.5788887
-10.070927 -1.1717633 -1.004604
-9.9858418 -1.1916605 -0.78651106
-9.910368 -1.19057 -0.98825949
-10.047082 -1.1717302 -0.94512564
-9.9899931 -1.1712434 -0.96391481
-9.2277889 -0.8050676 -1.0827466
-10.726205 -0.053859688 -0.46375373
-10.727123 -0.053675748 -0.50374269
-10.751633 0.0059538856 -0.46289453
-10.813855 -0.37451044 -0.46321544
-9.1067181 -0.0061089396 1.065589
-8.9761953 -0.32478026 0.98125321
-9.0639963 -0.28803083 0.59521002
-6.1978331 -1.1218625 -0.35105103
-6.0787144 -1.1231914 -0.39365563
-6.1163902 -1.088981 -0.27267969
-7.8707018 -1.089861 -0.99395335
-8.1009321 -1.1962438 -1.1490589
-7.8334532 -1.0842689 -1.1148098
-7.9872541 -1.1835701 -0.87151814
-8.0071516 -1.1962247 -0.87109977
-10.036274 -1.1728597 -0.4652493
-10.215405 -1.1093289 -0.12024385
-6.5078659 -1.1637269 0.095640361
-6.6389408 -1.0829622 -0.38132477
-6.2378225 -1.1222031 -0.35018283
-9.2329111 -1.1650727 -1.1009833
-9.1700344 -1.1646296 -1.0848941
-8.877924 -1.2916614 -1.3718439
-10.776196 -1.1686116 -2.1807837
-10.715213 -1.1858512 -2.1421816
-10.872962 -1.1122016 -2.0184255
-10.913873 -1.1073364 -2.0575101
-10.922283 -1.1861783 -2.4576511
-10.676114 -1.1854852 -2.1830614
-10.962257 -1.1889286 -2.4567688
-10.996604 -1.0899944 -2.1743975
-8.151988 -1.1318264 0.55895358
-8.1951637 -1.13632 0.57364339
-8.1510754 -1.1319939 0.5989427
-6.9801521 1.2726605 0.98238927
-6.8993187 1.2805966 1.0205884
-7.0210533 1.2725261 0.94331151
-6.9829082 1.2756631 0.86243266
-6.8620119 1.2739016 0.89967686
-6.8229361 1.2743711 0.85877639
-6.9921045 -0.3407979 0.22926837
-6.5909681 -0.10545175 0.36896056
-7.0199499 -0.34031978 0.45645911
-6.948617 -0.34355387 0.38835138
-9.1152134 1.2880675 1.229794
-9.1924524 1.2870634 1.3515851
-9.1124201 1.2801666 1.3497357
-9.143055 0.17589614 1.0666687
-9.1487837 0.183072 1.1468449
-9.1905985 0.17554641 1.0652518
-0.43920469 -1.2351282 -4.0940022
-0.37615061 -1.2434196 -4.2253709
-0.20592308 -1.2253009 -3.9309316
0.0051178932 -0.28102544 -4.24962
-0.026319027 -0.32005769 -4.3689699
-0.012655735 -0.2803624 -4.3290472
-7.9694109 -1.3993999 1.4589078
-7.9682703 -1.3996093 1.5088942
-8.7202873 -1.3648902 0.38488215
-9.844162 -0.52626562 -2.9285944
-9.9017849 -0.80692106 -2.807689
-9.8958435 -0.56633073 -3.1275415
-6.0599298 -1.0792723 -1.3541329
-5.9791241 -1.0737404 -1.3158596
-6.0590811 -1.0769215 -1.3141329
-6.217041 -0.59434932 -1.0288301
-6.2174606 -0.57680345 -1.0412586
-5.9340248 -0.6948427 -0.93283367
-5.8790426 -1.0889896 -0.39786938
-5.8072596 -1.0961915 -0.31943756
-5.9465284 -0.85831046 -0.075463831
-5.9634743 -0.49728978 -0.36881995
-5.9627676 -0.49741098 -0.33632785
-7.2480927 -1.0808586 0.73834103
-7.1672401 -1.0754483 0.7765314
-7.128109 -1.0824673 0.73559529
-0.96765852 -1.2499396 -5.6881962
-8.3907614 -1.1430418 -5.2574158
-8.0537682 -0.91654569 -5.187078
-8.1093798 -1.0971187 -5.184464
-8.1124983 -0.83726317 -5.2037373
-7.9205008 -1.3508587 -3.2957447
-8.7195539 -0.10332394 -5.1768799
-8.7367201 -0.28323048 -5.13518
-9.1600904 -0.087960362 -5.1864309
-8.5387058 -0.28175536 -5.2199636
-6.1340475 -1.1084377 -5.191246
-6.2557602 -1.0818458 -5.2507558
-9.3373957 -1.2041538 -4.7141204
-9.4215374 -1.2087113 -4.8871245
-9.4212036 -1.2061051 -4.8721466
-9.1762743 -0.167991 -5.1654692
-9.2395277 -0.1287387 -5.1792355
-9.2769547 -0.28886876 -5.1396909
-9.3918228 -0.73993486 -5.1162319
-9.409421 -0.73011434 -5.1158795
-10.895189 -0.92131919 -5.0288372
-11.002827 -0.84271127 -4.9033732
-10.913985 -0.88131052 -5.0682364
-11.006208 -0.52239382 -4.98457
-10.889321 -0.84110487 -5.0686803
-11.350611 -0.90505129 -4.4175019
-11.325331 -1.0076714 -4.3384924
0.9261198 0.4328199 1.9606364
-9.6589966 -1.2279872 -4.7862644
-9.7799139 -1.2294961 -4.8233666
-9.7823133 -1.2126533 -4.915957
-9.7835121 -1.2130078 -4.9659414
-9.5010729 -1.2169212 -4.8701549
-11.187707 -1.0864497 -4.3621564
-11.147902 -1.0860889 -4.3706264
-11.071107 -1.125731 -3.7344823
-11.201886 -1.1050951 -4.2116303
-11.241 -1.1029613 -4.170743
-11.594072 -1.0586411 -3.8426714
-0.48901463 -0.77585894 -5.9080424
-0.52856731 -0.85596329 -5.8971395
-0.32944727 -0.69562829 -5.9205947
-0.52852821 -0.8959626 -5.8973765
-0.6159091 -0.99065077 -5.8686581
-0.49626637 -0.98969287 -5.8805294
-0.52881765 -0.77593535 -5.9016628
-0.44085073 -1.2280506 -5.5071049
-0.41762018 -0.8689903 -5.8947401
-0.087966442 -0.8177408 -5.5244169
-0.08189249 -0.77749747 -5.5644145
-0.076605797 -0.89751881 -5.5603008
-1.7499483 -1.1726357 -1.6547517
-0.040338993 -0.97768205 -5.5270057
-0.036736965 -0.96494114 -5.56708
-0.038154125 -0.92970651 -5.6068482
-0.81680822 -0.79223788 -5.8493738
-0.69725657 -0.79125565 -5.8637433
-0.81631708 -0.86223269 -5.8500729
-0.77525711 -1.0169262 -5.8530793
-0.5176506 -1.2324183 -5.6244249
-0.60355806 -1.2434517 -5.5813622
-0.60582066 -1.2328691 -5.6412191
-0.73480797 -1.0716513 -5.8525896
-0.7351799 -1.03163 -5.8546882
-0.73592377 -0.95158738 -5.8588858
0.00026702881 -0.7519275 -5.6471553
0.00021362305 -0.6969285 -5.6468301
-0.58418989 -0.51732993 -3.4925292
-0.66485023 -0.55804974 -3.5196557
-0.24133921 -0.79243779 -3.7255039
-0.18067455 1.2957522 -5.7873726
-0.21332121 1.3381143 -5.7859011
-0.17543888 1.2950941 -5.7075076
-0.16528893 1.2551378 -5.7081895
-0.21742678 1.3391168 -5.9058266
-0.17648602 1.3340689 -5.5870719
-10.832422 0.51770413 -5.1010008
-0.073194027 1.2494045 -4.9909434
-0.12669086 1.3312179 -5.2285771
-0.07198143 1.2890686 -4.9506288
0.30842113 0.15153208 -3.2954924
0.23535919 1.0640304 -3.6828163
0.42141247 0.8273254 -1.0144905
0.45324898 0.99529082 -1.8170674
0.45458841 1.0005312 -1.7771207
0.46371126 0.53174758 -1.5744911
0.47424269 1.169135 -1.1784462
0.34262896 1.3241425 -1.4950795
0.47464275 1.2267537 -1.1587945
0.057564259 1.1289941 -2.5047381
0.060399055 1.0957164 -2.4351623
0.34693336 1.1813536 -1.9746552
0.34556913 1.181113 -2.014631
0.22758484 1.3410261 -1.9315193
0.24764776 1.3021364 -1.9719937
0.23467493 1.1440222 -3.6818979
0.23682022 1.063584 -3.6428454
0.23690224 1.1026648 -3.5623536
0.17315626 1.3259656 -3.6776173
-0.15892315 1.2548245 -5.668385
-0.14619207 1.254198 -5.5887766
-0.25902367 1.0970865 -5.9814725
-0.33825159 0.97669417 -5.9722619
-0.4187727 1.0564184 -5.9763432
-0.37871075 1.056565 -5.9752121
-0.49917793 1.2160347 -5.9672527
-0.45917177 1.2961152 -5.9579468
-0.37949085 1.2565563 -5.9735131
0.099589348 0.89659727 -5.7602806
0.074069977 0.93534195 -5.6239991
-0.11809921 1.2797751 -5.3493757
-0.11281395 0.97628576 -5.2320194
-0.15321922 1.0861135 -5.2297177
-0.128263 0.97258097 -5.3916211
-0.12318325 1.0119213 -5.3114161
0.18765116 -0.10303099 -3.9340949
0.20936155 -0.16328582 -3.8953905
0.2075963 0.15669477 -3.8923244
0.12388515 0.36856133 -4.1668582
0.16527939 0.077216558 -3.9716496
0.030109882 0.11987635 -4.3267775
0.070639133 0.47198647 -4.504005
0.5200696 1.4166694 1.4946764
0.48553944 1.4513484 1.6560144
0.70379639 1.3908672 1.0327675
0.5503006 1.379456 1.2134161
0.59041023 1.3648221 1.2119749
0.51318645 1.3816135 1.2948048
0.066236019 1.4250345 1.1908219
0.081900597 1.4251828 1.0701795
-0.98285913 1.3032895 1.1501851
-0.98562574 1.3011289 1.0702229
-1.0670176 1.313452 1.033078
-0.90291834 1.3061357 1.1474204
0.88132334 0.83239317 2.7626548
-0.75295734 -1.1899614 2.852392
-0.75078154 -1.1846247 2.9133048
-0.70941782 -1.1845882 2.9518926
-1.1821818 -1.1873335 3.168426
-1.1795721 -1.1476054 3.2485189
-1.2994986 -1.1481221 3.2526832
-1.3196812 -1.1679257 3.1732683
-6.638731 -1.1191134 2.8848412
-6.6414509 -1.1210625 2.7648618
-6.5996552 -1.1186328 2.8439407
-6.5178347 -1.1209058 2.9220846
-6.5569286 -1.1188866 2.9629967
-6.4456139 -1.0891541 3.0281727
-6.5629597 -1.0889485 3.1507688
-6.5664568 -1.0902143 2.9908123
-7.0748758 -1.311991 1.2409635
-7.0595951 -1.3119369 1.2531183
-7.1691284 -1.3117986 1.0555646
-7.0742483 -1.3121171 1.268456
-7.3149776 -1.3137388 1.2389333
-7.4813557 -1.1073012 2.7840943
-7.5194817 -1.1129653 2.86496
-7.5622082 -1.1127115 2.745904
-7.4612703 -1.1088799 2.783886
-6.3586884 -1.0786271 3.3462749
-6.2787094 -1.0781312 3.3445225
-2.8149493 -1.0985017 3.3838863
-6.7185783 -1.083358 3.3541808
-6.7602854 -1.0892386 3.2751174
-6.8776464 -1.0865331 3.3976941
-6.8767881 -1.0837168 3.4376636
-0.33448792 0.29645225 -5.9455581
-0.49389505 0.2557005 -5.9304347
-0.45369244 0.17589235 -5.9349799
-0.41501141 0.39865461 -5.9469495
-0.3348856 0.37646967 -5.9473767
-0.37551594 0.45638227 -5.9553237
-0.089391708 -0.72287524 -5.9240556
-0.089323044 -0.61540657 -5.9184222
-0.08957386 -0.53537863 -5.9229455
-0.2575593 0.89692819 -5.9631834
-6.2668076 -0.28135294 -5.397686
-6.4266634 -0.20298702 -5.3585701
-6.5039558 -0.34393719 -5.2997046
-6.1469669 -0.28020602 -5.4055524
-6.0711012 -0.10159767 -5.509263
-5.9587879 -0.51820719 -5.473423
-6.2671804 -0.24135497 -5.3975348
-6.1524496 0.0002066195 -5.5244584
-6.151844 -0.01985462 -5.5070391
-10.075306 -0.33675125 -5.0801945
-9.8355169 -0.41457781 -5.1254048
-9.7628593 0.1056312 -5.2108612
-10.095877 -0.91419691 -5.1683111
-10.805865 -0.96041554 -5.071177
-9.8376207 -1.1344994 -5.1027436
-9.8677416 -1.0295304 -5.0627532
-9.7979212 -1.0138168 -5.064539
-9.7877159 -1.1264895 -5.1039968
-9.7114067 -0.81332111 -5.1255531
-9.6299763 -0.91237229 -5.1092982
-9.6629877 -1.2141227 -4.9463167
-9.5430288 -1.2128973 -4.9492021
-6.2655373 -0.3214843 -5.3603482
-6.207325 -0.36099458 -5.3468785
-6.3049793 -0.34191301 -5.3444724
-0.53864336 1.3368716 -5.9361234
-0.51492214 1.352559 -5.923892
-0.47504091 1.3528746 -5.9278493
-11.378875 1.074342 -4.7268353
-11.526686 1.2259073 -4.6029954
-11.526752 1.2384071 -4.6029816
-11.368984 1.2768538 -4.6868682
-11.368023 1.2818145 -4.6468749
-11.357463 1.274461 -4.7271676
-9.6775513 -0.69357282 1.7959282
-9.7059565 -0.69361287 1.7565656
-9.6077995 -0.69300246 1.7843361
-9.3970871 -1.1278586 2.1077929
-9.3543606 -1.1280594 2.2268491
-9.3153038 -1.1250899 2.1859596
-9.4352684 -1.1259959 2.1886935
-9.3525724 -1.1233947 2.3068492
-9.2698765 -1.1207936 2.425005
-9.2308006 -1.120324 2.3841045
-9.2734709 -1.127623 2.2650156
-9.4542532 -0.81044936 1.460254
-9.4515018 -0.85089821 1.5675504
-9.0296869 1.2778687 1.4678717
-9.0670681 1.2946656 1.5888126
-9.1497269 1.2869638 1.4706416
-9.2260342 1.283326 1.6324131
-9.273324 1.284094 1.3134103
-9.3915386 1.2929217 1.3961587
-9.229722 1.2888607 1.4724734
-10.075824 1.398289 3.1515555
-9.8562412 1.4007654 3.18153
-9.8978634 1.4003321 3.2224407
-9.9616222 1.3986746 3.229105
-10.095782 1.4077048 3.2720513
-10.134468 1.3972477 3.3303633
-10.21607 1.397041 3.2571101
-10.77907 1.3576479 -4.7813954
-10.971138 1.3565881 -4.7616444
-10.983016 1.3564956 -4.7363429
-11.289077 1.2897879 -4.6888309
-10.511482 1.3953319 3.2409902
-10.539772 1.3682768 3.0814631
-11.012021 1.3164158 -4.805687
-11.011388 1.336386 -4.7756739
-9.852088 1.1548549 -2.9245534
-9.8856792 1.1331539 -2.6837864
-9.8772345 1.1746604 -2.9239404
-10.204805 1.1845424 -3.0494492
-10.591423 0.81416506 1.9970691
-10.635458 0.59494662 1.757061
-10.636426 0.59762597 1.7170844
-10.709383 0.83382994 1.8799217
-10.508377 0.55456924 2.0414476
-10.546467 0.55390698 2.1223717
-10.688997 0.7924912 2.1993451
-10.820561 1.2218771 3.0069737
-10.821412 1.2195262 2.9669738
-10.780214 1.2345454 3.0261528
-10.825253 1.0109011 2.3235929
-10.800363 1.0705312 2.4433045
-9.5178547 1.2879529 1.1189504
-9.2287788 0.1849688 1.1486766
-9.5753613 -0.050622672 0.067149043
-9.6158581 -0.043385774 0.048073113
-9.5358229 -0.050265688 0.046254218
-9.4432411 1.2743586 0.87713879
-9.482317 1.2739234 0.91803962
-9.4023962 1.2820262 0.9162429
-8.8101301 -1.1084832 1.5343287
-9.0082655 -1.1078284 1.6188748
-8.7292404 -1.1080468 1.5724952
-8.7719669 -1.107846 1.453439
-8.4893532 -0.76420867 1.6784909
-9.0551281 -0.67497641 1.4617155
-9.0563412 -0.84748876 1.4610202
-8.5397844 -0.76498204 1.7696629
-9.0935011 -0.80788857 1.4895415
-9.0941544 -0.72788113 1.4873912
-9.778553 0.55988562 3.5141187
-8.9226608 -0.60896099 2.0291216
-9.1230593 -0.61038709 2.0136838
-9.4222517 1.271284 1.7968931
-9.4622583 1.2734823 1.7978134
-9.4595022 1.2705814 1.9177725
-8.8425074 -1.332831 0.18765944
-8.9214096 -1.363538 0.22687382
-9.0911932 -1.2863156 -0.17922479
-8.9363909 -1.3245039 -0.4253633
-9.0951338 -1.2859038 -0.35417968
-8.5836496 -1.2810003 -0.73745018
-8.5045929 -1.2802843 -0.78007293
-8.338419 -1.319661 -0.52134156
-8.7043819 -1.3018333 -0.77562368
-8.9348602 -1.3238223 -0.69046378
-10.218162 -1.108777 -0.24021071
-10.597601 -0.014246468 -0.18644923
-10.601357 -0.09389396 -0.26675117
-10.603518 -0.01409936 -0.22632354
-9.7504816 -0.52987576 -0.76774853
-9.7066851 -0.62238634 -0.63141769
-9.6314344 -0.92851508 -0.94891375
-9.7739925 -0.48969668 -0.90966076
-9.9087019 -0.47134683 -0.66652215
-9.4967346 -0.049861647 0.0053645968
-9.4301548 -0.04924453 -0.036143839
-9.4279985 -0.34282017 -0.59702647
-9.4688492 -0.34803578 -0.63612878
-9.352047 -0.28682563 -0.75864613
-10.721183 -0.5372628 0.25410324
-10.454931 -0.28241578 0.16913813
-10.4021 -0.29509881 0.28789884
-10.203375 -1.1242195 0.39955288
-9.8803015 -1.1212727 0.37157339
-9.9615889 -1.1253195 0.47401589
-10.466494 -1.134442 0.045451641
-10.419414 -1.1350486 0.2444219
-10.251739 -1.1078593 0.04064101
-10.289907 -1.1060219 0.121548
-10.409855 -1.1094058 0.12428761
-9.9702063 -0.41644523 0.17520672
-10.396729 -0.25467721 0.20793968
-10.051464 -0.29453379 0.1623202
-10.209013 -1.1056166 0.1597026
-10.286234 -1.1067576 0.28150374
-10.166359 -1.0933743 0.27881187
-10.532183 -1.0374244 0.047406793
-10.531246 -1.0401083 0.087383807
-10.418472 -0.25395539 0.023392081
-9.9329395 -0.413353 0.054343998
-10.012939 -0.29407093 0.096436977
-10.586139 -0.054925453 -0.026856065
-10.051142 -1.1113832 -0.1046778
-10.170843 -1.1074539 0.078795612
-10.208076 -1.1083004 0.19967967
-10.207139 -1.1109843 0.23965663
-9.6631508 1.2771081 1.7623994
-9.6658506 1.2725093 1.6424141
-9.7012949 1.2740393 1.843281
-9.7003822 1.2739056 1.8832703
-9.7794466 1.2731688 1.9250827
-10.321003 -1.102915 2.8341868
-10.298167 -1.102808 2.8486702
-11.36608 0.72754741 -1.7258102
-11.348876 0.7676748 -1.7260208
-10.582721 -0.055090979 0.013075531
-10.786513 -0.37583461 -0.14376241
-10.808716 -0.41599882 -0.14343721
-10.856463 -0.43730447 0.057615995
-10.782177 -0.37618408 -0.063841879
-10.82055 -0.41570461 -0.22318578
-10.824141 -0.4155046 -0.27061534
-10.682077 -0.17525277 -0.10522771
-10.682996 -0.17506883 -0.14521664
0.85531569 1.3922151 1.9053757
0.89199495 1.1125457 1.7415287
0.89253283 1.1325506 1.7615166
0.89272642 1.032549 1.7415252
-0.30994511 1.3718961 3.2483997
-0.2906518 1.3720676 3.2277184
0.054585457 1.3704523 3.0807328
0.53427553 1.3497077 3.0243816
-6.3636942 1.333654 3.5086699
-6.4019775 1.3007877 3.576983
-6.4037113 1.3384238 3.5095811
-9.8254662 1.1178669 3.9399333
-9.7697248 0.67814231 3.9569993
-9.8098917 0.63796222 3.9377079
-9.7695227 0.63815331 3.9543371
-9.7946396 0.59806085 3.9372201
-9.8111486 0.75804716 3.9157019
-9.8542356 1.0380149 3.8577232
-9.854146 0.83823705 3.8019223
0.49720716 1.0119375 3.077296
0.57629967 1.0922567 3.0573103
0.57753944 0.77224636 3.0614436
0.49783993 0.77195239 3.071651
-9.8515835 1.1578605 3.9006476
-4.791647 1.3896071 3.2882771
-4.6737823 1.3906722 3.1955047
-4.6638441 1.3907388 3.1927719
-4.8013935 1.2286978 3.4753447
-4.8665781 1.2658358 3.4770312
-9.661746 1.4002374 3.617415
