ply
format ascii 1.0
comment PCL generated
element vertex 1459
property float x
property float y
property float z
element camera 0
property float view_px
property float view_py
property float view_pz
property float x_axisx
property float x_axisy
property float x_axisz
property float y_axisx
property float y_axisy
property float y_axisz
property float z_axisx
property float z_axisy
property float z_axisz
property float focal
property float scalex
property float scaley
property float centerx
property float centery
property int viewportx
property int viewporty
property float k1
property float k2
end_header
-4.8979754 -1.0513771 -2.9666505
-5.056448 -1.0622365 -2.9211702
-4.9793248 -1.0490273 -3.0038376
-5.433579 -1.1126347 -3.7850094
-5.3936791 -1.10228 -3.7859173
-5.4702797 -1.1019825 -3.6242633
-5.4302678 -1.1041296 -3.6250954
-5.3240032 -1.0770317 -3.7124376
-5.4719024 -1.109985 -3.7041984
-5.513514 -1.1183417 -3.7832866
-5.4110756 -1.1181674 -3.9054804
-5.2753115 -1.1117212 -3.8683777
-5.3136787 -1.1040714 -3.7875967
-5.2113132 -1.0727367 -3.3098402
-5.3810549 -1.0935086 -3.1860952
-5.3102555 -1.1080666 -3.6276059
-5.8275261 -1.1595227 -3.5138302
-5.828424 -1.1597909 -3.5563202
-4.1849623 -1.0770237 -2.7513883
-4.0904541 -1.0765654 -2.7671778
-3.8163533 -1.0746213 -2.9417915
-3.8577178 -1.0746046 -2.9803796
-3.8612711 -1.0758522 -2.7226031
-3.9389715 -1.0747664 -3.0150795
-3.8185937 -1.0568322 -3.0041695
-3.5384183 -1.0766561 -1.7884589
-3.4543867 -1.0730586 -1.6712755
-3.4599187 -1.0581849 -1.895946
-3.4199429 -1.0580164 -1.8973343
-2.5280793 -1.1576613 -2.0790319
-2.5251672 -1.1577506 -1.9990849
-3.20906 -1.0734688 -1.5195488
-3.5634263 -1.0666984 -1.3474009
-3.6056166 -1.172364 -1.4253736
-3.6454573 -1.2000504 -1.4238471
-3.701436 -1.2781235 -1.9017552
-3.78005 -1.2732584 -1.8590773
-3.0887384 -1.152904 -1.523177
-3.1246223 -1.1523697 -1.4018835
-3.1345644 -1.0740561 -1.6821842
-3.596138 -1.2566925 -1.7453821
-3.2749784 -1.151437 -1.1165904
-3.6301289 -1.174042 -1.264431
-3.5055962 -1.0934572 -1.269165
-3.1495934 -1.149911 -0.96078324
-3.2708869 -1.1507151 -0.9966619
-1.6087306 -1.1489805 -2.112515
-2.4324777 -1.1352922 -1.710966
-2.3267648 -1.1558183 -2.0463386
-2.1625097 -1.1544418 -1.9322412
-1.7195671 -1.1356221 -0.77514601
-1.7595439 -1.135794 -0.77375746
-1.8381062 -1.1362748 -0.73100603
-4.359098 -0.3046748 -2.3415065
-4.3737502 -0.32011867 -2.2610207
-1.5211 -1.1768161 -4.3863306
-1.4027028 -1.1965749 -4.1614265
-1.7727838 -1.1846619 -4.4281168
-1.8528903 -1.1679176 -4.4251809
-1.8500714 -1.1580068 -4.3452187
-1.3297276 -1.2130053 -4.633853
-1.2758822 -1.1556664 -3.9658689
-1.2546263 -1.0938346 -3.3661766
-1.595679 -1.1561863 -3.9542184
-2.7911665 -1.0926449 -3.7905169
-2.8204706 -1.0977488 -3.9095349
-2.7947609 -1.0975344 -3.8904567
-3.0992672 -1.0632489 -4.189898
-2.8828838 -1.1380264 -4.1224475
-2.7439134 -1.0924896 -3.5921049
-3.0440781 -1.0501225 -3.7514849
-3.0054917 -1.0497689 -3.7928481
-3.0068696 -1.0520831 -3.8328342
-3.0096264 -1.0567123 -3.9128094
-2.9682429 -1.0617299 -3.8742461
-2.5899272 -1.0587541 -1.6251889
-2.5099757 -1.0584095 -1.627965
-3.0337059 -0.39489514 -2.2203624
-2.5868349 -1.1340251 -1.5455027
-2.4974787 -1.0596303 -1.2681845
-2.5040965 -1.1364518 -1.4683367
-2.1762853 -1.0583895 -1.2393112
-2.1429284 -1.1350373 -1.4408524
-2.147094 -1.1346303 -1.5607793
-2.0713079 -1.1338781 -1.6834822
-2.1926239 -1.1342596 -1.7192934
-2.3855698 -1.1332984 -1.5124671
-8.2331486 -1.1123673 -1.1058731
-9.2508192 -0.42382109 -1.6414737
-9.2854271 -0.60454267 -1.4635732
-8.507452 -1.1426007 -0.85970527
-8.667387 -1.1463403 -0.85611171
-8.6676092 -1.1613039 -0.87114555
-8.5476999 -1.1603688 -0.87634486
-8.5876884 -1.1606792 -0.87544399
-9.1556358 -1.1641701 -1.2227526
-8.9147568 -1.1174473 -1.1705537
-9.1604862 -0.80676979 -0.20404148
-9.1645842 -0.80690265 -0.16393948
-9.0694094 -1.1642029 -0.94712424
-8.5160341 1.2705047 -1.1485915
-9.0767651 -0.26668608 -0.96484983
-9.140913 -0.28448209 -1.043468
-9.1553688 -0.28493416 -0.90810913
-9.0880222 -0.28467798 -0.80459791
-9.1865997 -0.7657581 -0.68348008
-9.2021885 -0.8057785 -0.72323263
-9.2162447 -0.48598057 -0.68215257
-9.2041149 -0.64599282 -0.64279354
-9.1603823 -0.36574692 -0.60310769
-9.1894827 -0.39077067 -0.68253261
-9.209445 -0.48613054 -0.60228598
-9.1901951 -0.29827338 -0.68229836
-7.0641088 -1.0745432 -1.5323306
-7.6433411 -1.0916843 -1.5592221
-7.4222093 -1.0854057 -1.4445651
-7.4668026 -0.9451651 -1.6006103
-7.1866636 -1.0776165 -1.6497056
-6.7007294 -1.0720733 -1.380183
-6.49403 -1.1558038 -1.9218955
-6.6632853 -1.0787848 -1.5010514
-7.0964499 -1.2879732 -3.0286112
-6.9681396 -0.60231352 -0.61243188
-6.9684548 -0.5648154 -0.61228526
-6.6702318 -0.33869684 -1.5306475
-6.5105448 -0.32480597 -1.5415686
-6.3976693 -0.055466153 -1.7655716
-5.9204154 1.2682629 -1.3500986
-6.3165812 -0.13485596 -1.7476271
-7.0035844 1.2596189 -1.4867399
-6.9814796 -1.0793086 -1.4141148
-7.0602512 -0.86122155 -1.7316668
-6.9797411 -1.0796069 -1.3341357
-6.9077435 -0.33865923 -1.4129555
-6.8693624 -0.34053844 -1.4888147
-7.2714319 -0.61316943 -1.6861393
-6.9891648 -0.37404084 -1.4913372
-6.9561872 -0.3409453 -1.5719497
-7.591198 -0.46614385 -1.6136224
-7.6703153 -0.62673378 -1.6350083
-9.2785292 -0.56529725 -1.1435556
-9.253705 -0.68526554 -1.0818813
-9.205143 -0.3441714 -1.3622425
-9.2039757 -0.26186323 -1.2820545
-7.7188144 -1.0927738 -1.3574727
-7.8379765 -1.0812991 -1.3147526
-7.7580566 -1.0731786 -1.3165324
-7.6551886 -1.0886444 -1.1194338
-7.4178185 -1.0911525 -1.2446338
-7.9152327 -1.0846997 -1.1929892
-7.6684227 -0.78681993 -1.6106408
-7.6534486 -1.0889413 -1.0394539
-7.6134601 -1.0886018 -1.0403227
-7.6517525 -1.0842413 -0.95945376
-6.9318848 -1.085609 -0.97511053
-9.5975475 -0.13186611 -5.0931044
-9.5567303 -0.21145082 -5.0935187
-9.7559252 -0.05279633 -4.9898362
-9.8086967 0.096411183 -4.9811468
-9.7558842 0.056938164 -4.9850292
-9.7958698 0.056543045 -4.9840469
-7.1960664 0.84870881 -5.2936578
-7.1501341 0.24911539 -5.2917995
-6.6704125 0.25383389 -5.3082066
-6.0673523 1.3376757 -4.7411942
-6.309104 1.3280998 -4.8154941
-6.1900954 1.3294123 -4.8583331
-6.5100384 1.3312774 -4.850709
-6.6608143 1.2917151 -4.6872087
-6.7506819 0.93210679 -5.0388999
-6.7077522 1.2965474 -4.7660975
-6.5784097 0.77213526 -4.5909195
-6.5489268 1.3157507 -4.8098254
-6.7733297 1.2998443 -3.7917962
-6.7349744 1.2879164 -3.8726845
-6.692524 1.3054129 -3.7535291
-6.7341266 1.2903024 -3.8326859
-9.2415524 0.18244319 -5.1724734
-9.4020872 0.3407675 -5.1281786
-9.4384146 0.11024627 -5.0286145
-9.3966866 0.060556658 -5.021368
-8.2410173 -0.19910525 -5.2852063
-8.6001415 0.11839806 -5.1087928
-10.132521 0.32143283 -5.0559769
-10.839039 -0.5211699 -4.9486241
-10.412448 1.3171829 -4.8305111
-10.411499 1.3246437 -4.7905149
-10.331525 1.3250775 -4.792491
-10.232519 1.32066 -4.8349547
-10.33338 1.3026564 -4.8724914
-10.400545 1.3092102 -4.3506656
-10.48251 1.3113549 -4.4286628
-9.84412 0.8961041 -4.9810963
-10.075857 1.2676964 -4.4919667
-10.198656 0.72035539 -4.4062524
-10.157742 0.72053528 -4.3697519
-10.289689 0.96030623 -4.7988868
-10.536963 1.249577 -4.1630096
-10.561124 1.2546974 -4.1225128
-10.496091 1.2476223 -4.1238708
-10.626108 1.2542728 -4.1211033
-10.538711 1.2515095 -4.2430072
-10.483471 1.3063954 -4.4686565
-10.562456 1.3059214 -4.426692
-11.271856 0.41116625 -3.9410992
-11.594669 0.41545093 -3.3739986
-11.524437 0.49285263 -3.456089
-11.482031 0.53158182 -3.6798382
-11.260975 0.81318295 -3.6641164
-11.240778 0.77409881 -3.5517483
-11.263207 0.7731685 -3.663784
-11.069471 1.2149911 -3.591095
-11.263412 0.93344593 -3.6249075
-11.269868 0.53368241 -3.5819197
-11.04285 1.2557734 -3.504437
-11.053875 1.2553718 -3.5517087
-11.07003 1.2524818 -3.9514408
-11.291288 1.2038132 -3.9062958
-10.699726 1.2654791 -2.439157
-10.61883 1.2587876 -2.4008512
-10.621445 1.260435 -2.5208359
-10.582319 1.2604126 -2.5616937
-7.6847258 -0.4125542 -2.1014657
-6.8285227 -1.0717536 -1.7374899
-6.9211679 -0.60021639 -2.0213909
-6.7218027 -0.38054997 -1.9619675
-6.68366 -0.36319935 -2.0429015
-6.9905486 -0.80190247 -2.1937003
-6.6847563 -0.99517405 -2.3589821
-7.0610318 -0.3665747 -2.8601089
-7.1363287 -0.3673324 -2.8735185
-7.1814222 -0.36776215 -2.877563
-7.0273838 -0.35557538 -3.155961
-8.3477211 1.2706348 -3.5983286
-8.3497276 1.2683461 -3.6883121
-8.3903913 1.2681072 -3.7174044
-8.510396 1.2721767 -3.7146907
-8.5130978 1.2724597 -3.8346601
-8.5094948 1.2720824 -3.6747012
-8.833065 1.2774796 -3.8274417
-8.8295012 1.2821034 -3.6674705
-8.6760082 1.2656909 -3.6309552
-8.5504036 1.2743675 -3.7137847
-8.4448891 1.281803 -4.3563066
-8.3630905 1.2797344 -4.2781339
-8.3976755 1.2788591 -4.0372968
-8.4758692 1.2805508 -3.9555111
-8.1965666 1.2912911 -4.5381546
-8.1536055 1.2889359 -4.4191809
-8.0755749 1.2873942 -4.5011292
-8.078454 1.2801473 -4.6211085
-8.4596176 1.2738574 -3.2357087
-8.3946247 0.90856975 -3.9182057
-10.322895 -1.1099237 -2.4707789
-9.3223505 1.2777506 -2.4560735
-9.3632593 1.2800338 -2.4951568
-9.3604097 1.2972214 -2.3626466
-9.168643 1.2721488 -2.7396197
-9.285965 1.278437 -2.6169324
-9.3650608 1.280223 -2.5751359
-9.483263 1.2841052 -2.4924445
-9.3659611 1.2803175 -2.6151249
-9.3268347 1.2757205 -2.6560276
-9.3286171 1.2734088 -2.7360134
-9.2868843 1.2810303 -2.6569161
-9.4649448 0.035294026 -2.1085789
-9.4787788 1.2861342 -2.29249
-9.5206261 1.2935113 -2.3715491
-9.8332138 1.2752795 -2.0444708
-10.13203 1.2641971 -2.0913429
-10.21196 1.2561742 -2.0895557
-10.832943 1.3405212 -3.0244589
-10.462486 1.2925695 -1.3988729
-10.613655 1.2629913 -2.1609309
-10.593037 1.2813241 -1.8610524
-10.570235 1.2693881 -2.0018749
-9.5232534 1.2871107 -1.4454658
-9.4478512 1.2861196 -1.6472573
-9.9260197 1.3022144 -1.5561776
-9.6540737 1.3003622 -1.8024976
-9.7240543 1.2998468 -1.8008922
-9.6515179 1.3003689 -1.8000555
-10.025944 1.2964768 -1.5539212
-10.005672 1.2965684 -1.5418708
-10.033407 1.3062296 -2.0398879
-9.8868046 1.2826939 -1.5971794
-10.027637 1.2768447 -1.6339942
-9.6706161 1.2837363 -1.9280815
-9.6287298 1.2713584 -1.849035
-9.6505842 1.2901978 -1.7626141
-9.627924 1.2837641 -1.8090137
-10.793236 0.74904525 -1.8333123
-10.829092 0.74853188 -1.8725425
-10.215405 1.2525384 -2.2494969
-9.6303062 -0.045537185 -2.3725443
-10.189241 -0.27904555 -4.1632638
-10.403217 1.1821308 -3.2051792
-10.44484 1.1821378 -3.1642675
-10.514604 1.2218375 -3.1405334
-10.64196 1.2611262 -3.1205516
-10.636075 1.2431089 -3.2005715
-10.756363 1.2898216 -3.1982999
-11.06131 0.02204404 -2.9711914
-10.35713 1.2621547 -3.2467546
-10.258924 1.2611411 -2.4086573
-10.204805 1.1845429 -3.0494499
-10.504904 1.2550846 -2.6833618
-10.394367 1.1826243 -3.1428585
-8.1731215 -1.1127449 -3.3272057
-7.9924879 -1.3295245 -2.931499
-8.2445641 -1.2342415 -2.7656379
-8.0076189 -1.3121405 -2.9311318
-7.8660378 -1.1916039 -2.5990548
-7.8269272 -1.1212749 -2.6148334
-7.641901 -0.87017095 -2.4185712
-7.6537008 -1.2996776 -2.8967366
-8.7449989 -1.1110142 -2.5141203
-7.6848164 -0.4025557 -2.1015267
-8.3100529 -1.2347103 -2.786669
-8.1104698 -1.1206999 -2.7684875
-8.2358789 -1.1162683 -3.0057163
-7.9894676 -1.1373323 -2.7312269
-8.3949499 -1.1150663 -2.962122
-8.2731638 -1.116758 -2.8848476
-8.1203957 -1.1175386 -3.2083693
-8.2060795 1.2618051 -2.641294
-9.0919237 -0.28057194 -2.8651471
-9.1290207 -0.24072284 -2.9442706
-7.8553638 0.79375792 -4.3307247
-7.7998991 0.73168516 -4.3321204
-7.8263397 0.55462891 -4.4237733
-7.8878183 0.79394948 -4.3867478
-7.8957086 0.83387333 -4.3864703
-7.7392702 0.6007809 -4.3279409
-8.0868807 -1.2117443 -3.5293484
-8.1247759 -1.2721598 -3.4560671
-9.2438927 -1.0984632 -3.3430781
-9.2802591 -1.1015136 -3.1822233
-9.0386419 -1.0847787 -3.1076193
-8.5285616 -1.0975919 -3.5592384
-8.4530506 -1.1016713 -3.7609954
-8.492157 -1.0995404 -3.7201014
-5.646956 1.2951121 1.5522181
-5.7269692 1.2995069 1.5540625
-4.5952401 1.3219485 1.4358424
-4.667696 1.3216354 1.4383577
-4.3967505 1.3229839 1.3889271
-4.2872009 -0.22890608 1.0136611
-4.2260289 -0.24385272 0.97163892
-4.556664 1.3247914 1.3944889
-4.8558483 1.3059553 0.84445941
-5.3606858 1.3010519 1.8257846
-4.6999145 -1.071267 0.532511
-4.1668844 -1.1440377 0.89499021
-5.191226 1.2939138 0.53504527
-5.1797457 1.2875788 0.73555923
-5.1079216 1.2781942 0.61959863
-4.4271846 1.2992151 0.50934505
-4.5870962 1.3010232 0.51490784
-4.5902677 1.3069712 0.55448353
-5.0570831 1.2977589 0.81138968
-5.138413 1.295083 0.77417898
-4.9527569 1.2997994 0.48684847
-5.5234208 1.2767997 0.36176419
-5.3226733 1.2858571 0.39746785
-5.2817969 1.283537 0.43658447
-5.0381546 1.2959608 0.32968903
-5.3669672 1.2838341 0.19836903
-5.4065776 1.2834167 0.21672952
-5.4086647 1.2813174 0.11924154
-5.3510094 1.2832836 0.35805988
-6.7222939 1.2737989 0.42769837
-6.6823058 1.2741439 0.42683363
-6.71206 1.2719538 0.45612872
-6.0204482 1.2824082 0.96052754
-6.0231295 1.2754107 0.84052718
-6.1156211 1.2772126 0.842646
-6.1012626 1.2719723 0.92231798
-5.9304881 1.2886685 1.3986191
-5.8505292 1.2917718 1.3968064
-6.0122905 1.2883995 1.3204631
-5.4761066 1.3018091 2.0284753
-5.4969096 1.2806631 1.1086155
-5.4124269 1.2879303 1.3067712
-5.7014532 1.2849922 0.91324818
-5.7223229 1.2800082 0.87369215
-5.8559675 1.287778 1.1568502
-6.0150099 1.286402 1.2004853
-6.0167971 1.2817382 1.1204851
-5.7777987 1.2862166 1.075038
-6.0159402 1.2890702 1.1605064
-6.0174522 1.3139423 1.7608052
-5.8869243 1.2983001 1.5577077
-6.5630574 1.2899958 1.7331468
-6.9320045 1.278954 1.3414134
-6.4503756 1.2897429 1.4104885
-5.9413648 1.280679 0.91870415
-5.9031658 1.2763163 0.83779407
-5.944066 1.2761829 0.79871511
-5.8866014 1.2791162 0.79741704
-5.1580839 1.295398 0.33378494
-5.1235924 1.2877436 0.35315931
-5.2444243 1.2868748 0.3157599
-5.7674356 1.2790103 0.52709043
-6.4432354 1.2763752 0.38166189
-6.3629122 1.2745025 0.39492047
-6.1258531 1.2721245 0.25474894
-6.1667933 1.2819434 0.21566486
-6.2708569 1.2758749 0.25790107
-6.244565 1.2758445 0.31734657
-5.098031 1.29635 1.0595663
-4.1376343 1.2992395 0.77945912
-4.1348572 1.2989011 0.85941041
-3.6868052 1.3022869 1.084008
-3.6468296 1.3024601 1.0826206
-3.5627456 1.3097969 1.1998044
-3.5655227 1.3101361 1.1198522
-3.2639885 0.010826066 0.53703809
-3.3046584 0.013017081 0.51839876
-3.544631 0.038177527 0.74657011
-3.5370874 0.02821216 0.74637222
-3.39591 1.3121407 1.3941408
-4.5272694 -0.32386136 1.2225434
-4.3629932 -0.52129173 1.0980544
-4.3626022 -0.60128963 1.0985224
-4.0918722 -0.36087906 1.3680044
-4.6024208 -0.28421581 1.2248698
-4.5198107 -0.31632692 1.2222449
-4.4956017 -1.0776968 1.8263587
-4.8222814 -1.0704017 1.6373426
-4.8154106 -1.0791988 1.8372816
-4.5487332 -1.0792751 2.0283017
-4.4887686 -1.0789928 2.0262547
-4.4805822 -1.0775509 2.2661104
-4.4365635 -1.066641 2.384614
-5.2031226 -0.37786996 1.1600219
-5.323019 -0.34133214 1.17793
-5.2877555 -0.37856996 1.1769544
-5.3526344 -0.63826936 1.53734
-4.8254046 1.3272223 1.7240304
-4.9866643 1.3192 1.6895736
-5.0993567 -0.49181753 0.34253597
-5.1070204 -0.49299902 0.38026059
-5.7841306 1.2798913 0.79508054
-5.2206426 1.2834477 0.94227946
-6.3951969 -0.40008909 0.056030333
-6.3960462 -0.40243912 0.016030192
-6.3577957 -0.40180105 -0.064818919
-6.3985219 -0.31464541 -0.063608587
-6.5441213 -0.34322906 -0.10055828
-6.688972 -0.34493273 0.022613585
-6.4768939 -0.40297228 -0.022224188
-6.5925341 -0.40224016 0.18034112
-6.6676903 -1.0777417 0.13944608
-6.8908606 -1.0876337 0.61012483
-6.8857312 -1.1660492 0.80970192
-6.8545418 -1.0841024 0.44926929
-6.5078659 -1.1637264 0.095641017
-6.7189198 -1.0836431 -0.37958795
-6.7415819 -1.0794681 0.42111444
-6.7851338 -1.0692128 0.26206076
-6.3852425 -1.0658058 0.25337875
-6.3468652 -1.0801665 0.17247093
-6.5043621 -1.0644766 0.29598355
-6.3843942 -1.0634551 0.29337835
-6.2260919 -1.0717945 0.20988631
-6.1123071 -0.44064951 0.16975713
-6.1943827 -0.39853507 0.091678679
-5.9960485 -0.5801335 0.28673863
-6.0615673 -0.89148378 0.48705018
-7.231843 -1.0867656 -0.048370659
-7.2370801 -1.0833697 -0.28830212
-6.9727192 -1.0803615 0.53200483
-6.9806266 -1.0841613 0.46630323
-7.0944915 -1.0833856 0.45474768
-7.0188971 -1.0822996 0.54716134
-6.8312368 -0.34458423 0.26576567
-6.8695707 -0.3352232 0.34665394
-7.0544658 -1.0880883 0.45381296
-7.0632133 -1.0843939 0.34806955
-7.13448 -1.0836825 0.45565891
-6.2440777 -0.68927431 -0.46846065
-6.2878942 -0.69894367 -0.64758819
-6.2877131 -0.6690191 -0.62747526
-6.328804 -0.64171249 -0.6664893
-6.59694 -1.0694827 3.4314327
-6.6033063 -1.1178983 2.6839848
-6.7651224 -1.1137199 2.6076741
-7.1168404 -1.1130449 2.9758024
-7.1628036 -1.0926673 3.1639132
-7.1967993 -1.1161391 2.9776134
-6.9568496 -1.1168573 2.9721332
-7.5911951 -1.1368349 1.4661092
-7.9285803 -1.3593086 1.5081569
-7.7288289 -1.118101 1.5746275
-8.0616951 1.2764038 1.8058709
-8.4133892 -0.5232051 1.5802418
-6.9547658 1.2904676 2.1021838
-6.9529591 1.2926315 2.1821742
-6.9111462 1.2925997 2.26124
-6.9902277 1.2943279 2.3030629
-7.0695372 1.3035871 2.3374209
-6.689693 -0.78684926 0.75695431
-6.968173 -1.078779 0.7319622
-6.7745709 -0.50688058 0.6351434
-6.6901412 -0.69439864 0.76739264
-6.809073 -0.33853799 0.93178332
-6.9048858 -0.3490594 0.89391184
-6.8481483 -0.33901817 0.97268367
-6.718039 -1.1015162 1.1662682
-6.438581 -0.7873162 1.2413543
-6.7980881 -1.0921102 1.168137
-6.7532516 -0.75829488 1.4887344
-6.8672667 -1.1097437 1.0896143
-6.6296225 -0.38620383 1.7676967
-6.5891962 -0.44590485 1.7665001
-8.1290703 -1.1466668 3.4149842
-8.3332424 -1.1649578 3.2193165
-8.3315611 -1.1651647 3.2967982
-8.2665234 -1.1647394 3.2978897
-8.6346989 -1.1051238 2.2105203
-7.4512186 -0.38361502 2.5866747
-7.468461 -0.38857174 2.7070479
-7.4484448 -0.38916445 2.7066183
-7.4694099 -0.38340533 2.6670804
-7.66397 -1.1073873 2.6684852
-7.2867422 -1.1247144 2.5395083
-7.2105598 -1.158303 2.3600664
-1.3490267 -1.1873431 2.9741001
-1.798039 -1.1535954 2.728766
-2.6169772 -1.0995235 3.2942357
-1.7705598 -1.1517566 2.3675976
-1.9690492 -1.1527838 2.4145126
-6.6528111 -1.077985 0.52471364
-6.6219926 -1.0658993 0.40606201
-5.1294093 -1.0740283 0.84736681
-5.284915 -1.0795367 0.85358536
-5.1640005 -1.0838294 0.8908155
-5.2748208 -1.089057 1.293429
-5.3147912 -1.0918542 1.2943283
-5.2044911 -0.37759542 1.1000394
-5.1475477 -1.0728679 1.4883617
-5.4683771 -0.38029271 1.2610906
-5.1742134 -0.68487597 0.57279444
-5.1350536 -0.69374317 0.50765204
-10.874008 0.2016295 0.26101232
-10.874881 0.32162559 0.26158428
-10.871462 0.32145911 0.30151665
-11.137789 0.63931096 0.34910655
-10.756863 0.80581594 -0.43408766
-10.737431 0.9653179 -0.29876393
-10.844944 0.5599426 0.66210198
-10.733995 0.60902327 0.49973643
-11.142799 0.84001666 0.19510198
-11.12571 0.88016725 0.18989372
-11.175777 0.79941487 0.27069342
-11.182275 0.87955999 0.2312007
-11.062237 0.68072617 0.16751313
-11.022306 0.68103302 0.16409683
-11.102923 0.8003937 0.17649972
-11.062469 0.72071379 0.17020297
-11.063107 0.80072278 0.16808474
-11.061316 0.64060199 0.19481421
-11.063978 0.92071784 0.16865599
-11.13158 1.0001253 0.19057965
-11.064674 1.0007384 0.16403854
-11.104609 1.0403721 0.18014312
-11.163443 1.0397009 0.23150551
-11.144028 1.1198453 0.23142815
-10.904968 1.2016667 0.21380997
-10.242748 1.2676117 -0.5488019
-10.14253 1.2829905 0.8281852
-10.222429 1.2723846 0.83003366
-10.259719 1.2915417 0.95103931
-10.85287 0.55777377 0.8017751
-10.090996 1.2835693 0.78695345
-10.006879 1.2906716 0.73001373
-9.964325 1.2905962 0.84157193
-9.968792 1.3012397 0.64915812
-9.6815147 1.2947804 0.96266627
-9.641736 1.2926157 0.95174789
-9.7260666 1.2951487 0.76363099
-9.6861153 1.3004488 0.76273715
-9.7288418 1.3005489 0.64368069
-9.7555904 1.300482 0.64049876
-9.7305689 1.2917713 1.0037853
-10.740238 1.2505817 0.9222461
-10.715539 0.27433407 1.7575227
-10.718337 0.31431335 1.7577683
-10.727734 0.31461537 1.6779696
-10.726835 0.19461899 1.6774105
-10.594056 0.020736113 1.5397788
-10.867067 0.27840865 0.64081192
-10.459382 0.84430081 0.33696723
-11.175409 0.81827444 0.51083672
-11.147669 0.95591646 0.73053336
-11.077505 0.95346397 1.3690435
-11.173307 0.99628264 0.61128736
-11.112288 0.91469193 1.0496007
-10.890003 0.5696097 0.66318142
-11.180681 1.0390016 0.35193062
-11.158768 1.1191638 0.35179555
-11.064701 1.1546848 1.1295726
-11.065954 1.0341127 1.249096
-10.823955 1.2431917 0.76415181
-10.828773 1.2540892 0.56425834
-10.748854 1.2621951 0.56239784
-10.817737 1.2532263 0.54463303
-10.938581 1.231696 -2.3937373
-10.983847 1.2422307 -2.6328945
-11.369532 0.76714081 -1.6455264
-11.370112 0.84713852 -1.6451454
-11.26274 1.0221686 -1.4867626
-10.811712 0.87839174 -1.0576645
-10.812485 0.85857761 -1.0977498
-11.302382 0.92694676 -1.5012943
-10.935083 0.5886237 -1.2962289
-10.844141 0.99450153 1.5212346
-10.606129 1.2363342 1.5116702
-10.750307 1.1552043 1.5222296
-10.73517 1.2667096 -2.2283444
-10.733641 1.2647063 -2.1583467
-10.736551 0.10797413 -0.86288011
-10.721847 0.1480832 -0.86303324
-10.634617 0.28701848 -0.50430048
-10.594721 0.44864988 -0.78455037
-10.709816 0.24760742 -0.74281931
-10.60475 0.48904163 -0.88165992
-10.062782 -1.1091779 -0.44383624
-9.81213 -1.1069298 -0.15006143
-10.010291 -1.1061679 -0.065575659
-10.014563 -1.1055393 -0.084828556
-10.052061 -1.1087899 -0.14466137
-10.014755 -1.1106963 -0.26553583
-10.026505 -1.1031486 -0.60468519
-9.2183914 -0.76580286 -0.7627843
-9.2316542 -0.76553869 -0.90752232
-10.197845 -1.1323977 1.2058166
-10.195089 -1.1353997 1.3257748
-10.922367 -0.7400232 1.1464757
-10.488791 -1.1225009 0.7323699
-10.317865 -1.1212066 0.64226127
-10.477836 -1.1198852 0.64594305
-10.490616 -1.1221668 0.65239143
-10.482446 -1.1164664 0.44600987
-10.440603 -1.1190401 0.52505922
-9.9616222 -1.1224152 1.0404255
-10.51721 -1.0563405 0.36706316
-10.842783 -0.97923899 0.4799242
-10.603373 -1.1119128 0.97509468
-10.607881 -1.1185749 0.77511561
-10.518666 -1.1346467 1.1731185
-10.399632 -1.1310725 1.1304069
-6.3169107 1.271661 -1.1814678
-6.8863187 1.2736443 -1.6092484
-6.8436275 1.2609971 -1.4901943
-5.9561009 1.2695965 -1.1492728
-6.3726635 1.296772 -1.9003323
-6.310843 1.2856549 -1.9614513
-6.3742805 1.2952362 -2.0000546
-6.33603 1.2958086 -2.0809035
-6.0507221 1.2642016 -1.8274126
-6.2150459 1.2792168 -2.0435724
-6.0735149 1.2730702 -1.0266891
-6.0760899 1.2710627 -1.1466713
-7.2430987 -0.57559419 -0.36629558
-6.9971676 -1.0788262 -0.29350162
-7.2007599 -0.6480481 -0.287467
-6.2191 -1.0707841 -1.3106312
-6.1799183 -1.0777944 -1.3515185
-5.7045622 1.2624204 -2.4948254
-5.6254745 1.2657167 -2.5365458
-5.6690474 1.2783355 -2.6955993
-5.5472984 1.2741301 -2.6182389
-5.5481887 1.2767444 -2.6582222
-5.7543683 1.2933441 -2.9337592
-5.7545857 1.2933719 -2.9437566
-5.8743358 1.2923195 -2.9311533
-5.5927162 1.2994778 -2.8572369
-5.6534181 1.2937145 -2.7759142
-5.5037255 1.2615112 -2.4591844
-5.4628663 1.261737 -2.4200625
-5.5445628 1.2587843 -2.4983139
-5.4664302 1.2721971 -2.5799944
-6.1629758 -0.33930767 -0.28137213
-6.2019072 -0.32984442 -0.22797829
-6.0067935 1.2783214 0.21218872
-5.6798949 1.2722635 0.52516961
-5.6295772 1.2721044 0.55145729
-5.1060972 1.2778591 0.69957626
-5.2181039 1.3137275 -4.0256195
-5.5775046 1.2910119 -4.3529015
-5.4975314 1.2917956 -4.3548031
-5.5355897 1.2886304 -4.2738843
-5.9788985 1.0152175 -4.1699762
-5.2692327 1.316118 -4.1442051
-5.3866911 1.3060147 -4.4220719
-5.5117626 1.2875465 -2.8190217
-5.8030524 1.2941529 -3.3327951
-5.8848553 1.3037013 -3.4110069
-5.7248559 1.3000662 -3.4144964
-5.7622361 1.2993788 -3.2936573
-5.7996168 1.298692 -3.1728168
-5.0127163 1.3151214 -3.6728253
-4.7217903 1.3174754 -3.3627262
-5.6857581 1.3030213 -3.4553475
-5.6353135 1.299482 -2.9763393
-5.6761508 1.2967565 -3.0154686
-5.8387375 1.2982371 -3.1319594
-6.146646 1.3138953 -2.5650845
-5.8760953 1.2950501 -3.0111275
-5.7976179 1.2934343 -3.0828547
-6.1169634 1.3006181 -3.0458837
-6.07689 1.2909597 -3.046783
-6.0351834 1.2935694 -2.9676628
-5.2509871 1.293407 -5.1368313
-5.3326244 1.2938573 -5.2151585
-5.5537763 1.301228 -5.0336275
-5.2901087 1.2779337 -5.0961461
-5.8035121 1.3415763 -5.1075664
-6.2793961 1.3099966 -5.2563891
-5.8320713 1.3282113 -4.9468856
-5.6728082 1.3024161 -4.9907775
-6.0793447 -1.1227307 -4.5824289
-6.0172353 0.25554007 -4.3913808
-5.9773555 0.25589585 -4.3972487
-5.9682927 0.21734054 -4.4022846
-6.0711012 -0.10159815 -5.5092635
-6.1469669 -0.28020552 -5.4055524
-6.0296721 -0.31901878 -5.431006
-7.3512383 1.2693512 -2.7790797
-7.2045946 -0.9726643 -4.7275066
-7.2816362 -1.0134 -4.7233062
-6.9361534 -0.45156831 -5.0096588
-6.8554311 -0.42845839 -4.971498
-7.3948417 -1.1204925 -3.8235536
-7.2739387 -1.1291771 -3.7860427
-7.3123741 -1.11403 -3.705307
-7.3956857 -1.1207432 -3.8635445
-6.9061637 1.2749137 -2.5486836
-7.0984554 1.2800379 -2.3044305
-7.0226312 1.2709285 -2.3861241
-7.1435094 1.2750212 -2.4234934
-7.0606909 1.2478579 -2.3053436
-7.0648661 1.2405679 -2.3852937
-7.0207233 1.2507004 -2.3062038
-7.945178 1.2673104 -2.0470052
-7.8320341 1.2681115 -2.0195439
-7.8727551 1.275373 -2.0486174
-7.7945418 1.2711813 -2.1304095
-7.8754578 1.275655 -2.1685853
-8.1877451 1.269374 -3.601934
-7.5728378 0.060819723 -4.1773057
-7.5097361 0.16225153 -4.1791563
-7.4911413 0.12230164 -4.1446667
-7.5303278 -0.14862379 -4.1468806
-7.5179205 -0.1385144 -4.1472063
-6.9001637 -0.32694829 -3.1588283
-7.0845361 1.2421155 -2.9449949
-7.0345068 1.2375414 -2.9460959
-7.7067509 1.2607048 -2.5713274
-7.6641746 1.2632006 -2.4522171
-7.721674 1.2600533 -2.452158
-7.7049704 1.2554739 -2.4913616
-7.8070359 1.2574995 -2.6903028
-7.7094011 1.2660488 -2.6912827
-7.6475153 1.271273 -2.7088664
-7.6685228 1.2637763 -2.6521692
-7.6153841 1.2712826 -2.6145668
-7.6242061 1.2660415 -2.4530778
-7.6658506 1.255931 -2.5322208
-7.6590633 1.2750087 -2.2122364
-7.7154455 1.269394 -2.1722057
-8.1152191 1.2662841 -2.1582057
-7.9118242 1.2724682 -2.0077333
-7.9269829 1.25407 -2.6876087
-7.8860931 1.2542845 -2.6485195
-6.8556905 -0.34063876 -2.599545
-6.9371567 -0.36434817 -2.6776948
-6.7167296 -0.32215059 -2.6426067
-7.0572147 -0.35541165 -2.6752157
-6.6456161 -0.35841155 -2.1337566
-6.685606 -0.35876536 -2.132911
-6.3680944 -0.67748511 -2.3876734
-6.3939872 -0.9747268 -1.956627
-6.6781278 1.213551 -5.2372217
-6.7575345 1.1727431 -5.2279682
-7.1486554 1.302374 -4.7955923
-7.149559 1.2975118 -4.8355975
-6.9896603 1.3040781 -4.8393822
-7.3916755 1.3254331 -4.90976
-7.1543684 1.303195 -5.0355215
-7.1563215 1.3084681 -5.1154799
-7.0753956 1.3091153 -5.0773931
-7.073442 1.3038421 -4.9974351
-6.6775293 1.133581 -5.2450123
-6.9963017 1.3025361 -5.1193109
-7.0371184 1.2897818 -5.1583943
-6.5619497 1.3335618 -4.9294891
-6.474885 1.3398535 -5.0515747
-6.5529547 1.3387961 -4.969697
-8.6375866 1.2744999 -4.0319023
-8.7975798 1.2782604 -4.0282893
-8.7157631 1.2736928 -3.9501228
-8.7957783 1.2780719 -3.9483104
-5.9944286 0.54063189 -5.3683348
-5.952352 0.38095421 -5.3473768
-5.5562048 0.42381477 -5.0765805
-5.9149337 0.62136859 -5.3574486
-4.3173528 1.3333938 3.0243831
-4.5953383 1.3514494 3.1184783
-2.909394 1.3470762 3.3516688
-2.9492874 1.3293549 3.3525219
-2.8629792 0.68178481 3.4676709
-2.7827704 0.63973027 3.4656115
-2.7431455 0.75989437 3.4777226
-2.8229034 0.71945035 3.4794054
-2.8630672 0.71926147 3.4728408
-3.1859899 1.3616945 2.8354459
-3.1069059 1.3621473 2.8076849
-4.1070042 1.3404161 2.8198185
-3.6077719 1.3207806 2.6422949
-5.9197969 1.3216563 1.8786408
-5.9872212 1.3136469 1.8801464
-6.0010662 1.3128443 2.0405016
-3.082516 1.3597076 3.1156983
-4.4749708 1.0323796 3.0567374
-6.6630144 1.2709308 -0.53382933
-6.5031004 1.2773098 -0.53726137
-6.6204739 1.2757827 -0.41470051
-6.5039663 1.2774731 -0.57725203
-7.0212083 1.2700025 -0.44606385
-6.6639218 1.2760948 -0.57379806
-6.7838268 1.2675619 -0.57123911
-6.7046809 1.2754006 -0.49289978
-6.7030048 1.2705874 -0.53296477
-7.2263455 1.2692661 -0.68168664
-7.147254 1.2726184 -0.72339433
-7.147253 1.2726181 -0.72339422
-6.6162109 1.2824612 -0.21471673
-6.6562014 1.2821171 -0.21385211
-6.694417 1.2764432 -0.13303041
-6.2709084 1.2758555 -0.90237808
-6.3926072 1.2751503 -0.97976834
-7.0878038 1.2497514 -1.6850059
-6.6814718 -0.054688763 -1.9369421
-6.9138074 -0.34011495 -1.6928971
-6.9155469 -0.33981752 -1.7728769
-6.939889 -0.33924174 -1.9723952
-6.7343698 0.080140904 -2.2446668
-6.7417541 1.263203 -2.3522427
-6.7408409 1.2580875 -2.3122687
-6.7817426 1.262862 -2.3513758
-6.9016676 1.2568382 -2.3487849
-6.9398332 1.2462671 -2.2679663
-7.0550976 1.2802843 -2.2653625
-6.8142929 1.2815132 -2.00053
-6.6534314 1.2920244 -1.9342881
-6.7747927 1.2819185 -2.0238919
-7.0572348 1.2498981 -2.1453753
-6.4875937 1.281852 0.1825949
-7.0517039 1.2703511 -0.0052958727
-7.0499945 1.2725223 0.074695706
-6.9709015 1.2758744 0.032988608
-7.00914 1.2727022 0.11382109
-7.0577593 1.2715003 -0.28522837
-6.9777374 1.2671899 -0.28697705
-7.2942553 1.2712771 -0.12007469
-7.3359537 1.2687598 -0.19920158
-7.1738706 1.3246429 -0.082450032
-6.4570775 1.2790031 -0.25818306
-6.3762345 1.2795281 -0.2199204
-6.3736596 1.281536 -0.099939167
-6.4318714 1.2756898 -0.01868397
-6.1857395 1.2755578 -0.6641643
-6.0641394 1.2812735 -0.58925211
-6.2197161 1.2790641 -0.383347
-6.300559 1.2785386 -0.42160964
-6.263166 1.279376 -0.54244363
-6.3481417 1.2786435 -0.54060853
-6.4222794 1.2803336 -0.49898791
-6.5000238 1.2787098 -0.85740072
-7.1429286 1.2717969 -0.52344263
-7.1444664 1.2710966 -0.3633737
-7.0278625 1.2722737 -0.40590066
-8.6447926 1.2752537 -4.3518209
-8.6353054 1.2743559 -4.4873838
-8.6383047 1.2796075 -4.6073356
-8.6055889 0.78856379 -5.1018209
-8.5640917 0.62897217 -5.1056781
-8.7260513 0.9073118 -5.0711002
-7.9595537 1.288918 -4.6640286
-7.961669 1.3040851 -4.7439685
-7.6193633 1.3363044 -4.3841524
-7.3027687 1.2874869 -4.5519042
-7.4618115 1.2907834 -4.5080938
-7.2990084 1.2919407 -4.3919315
-7.1362295 1.2955962 -4.2757602
-9.281353 1.306028 -4.7114959
-9.7612324 1.3062804 -4.6996884
-9.6442261 1.3077183 -4.8225999
-9.4052696 1.3076774 -4.8684921
-10.076735 1.3182914 -4.1986127
-10.30464 1.3196877 -4.3130155
-10.206674 1.3355321 -4.5955071
-10.238605 1.3075017 -4.2746472
-9.5662222 1.3086786 -4.904542
-8.8081865 1.2888645 -5.0032582
-8.848628 1.2660273 -5.029819
-9.7928114 1.272542 -3.8058362
-7.3462911 1.2657326 -0.67910743
-7.2801342 1.2665497 -1.32069
-7.4400897 1.2651722 -1.3172342
-7.3584032 1.2680321 -1.2389708
-7.1567059 1.2669259 -1.1633189
-10.213963 1.2951128 -1.0294678
-10.257607 1.293054 -1.1885177
-10.217674 1.300848 -1.189399
-10.036835 1.3044916 -1.1535121
-9.9196072 1.3034276 -1.2762434
-9.9786434 1.3002989 -1.2349029
-10.040472 1.3002274 -1.3134929
-10.080462 1.2999322 -1.3125756
-10.082298 1.3003008 -1.3925531
-10.192883 1.294102 -1.3100315
-10.530853 1.1298937 -0.94292653
-10.521517 1.1295815 -0.86312002
-9.6260443 -0.35705733 -0.51257825
-6.9730582 1.3262007 -0.04677856
-7.2601919 1.2702498 -0.39588216
-8.1759014 1.266315 -0.27618253
-8.4521093 1.258517 -0.10983056
-9.8087006 1.2886516 -1.6789675
-9.8496437 1.2935404 -1.7180147
-9.8341017 1.3004125 -1.038156
-9.6859474 1.2968864 -1.1215971
-9.4165382 -0.0048100278 -1.7492824
-9.1578293 1.2861574 -1.2137983
-9.1206131 1.2895039 -1.3346704
-9.1187763 1.2891361 -1.2546933
-9.104764 1.2538788 -0.65501308
-9.1447887 1.2585841 -0.65407193
-9.1446161 1.2585497 -0.64657396
-9.0032482 1.2598168 -0.69732821
-3.1505499 1.3302909 -4.2177382
-1.6645377 1.3129503 -4.1309681
-1.5890183 1.320006 -4.2537379
-1.7781768 1.3125404 -4.352005
-1.6318266 1.3105425 -4.3323379
-1.7382216 1.3153309 -4.3534369
-1.4462452 0.66202229 -5.5315685
-1.7689562 -0.15997726 -5.4881744
-1.3784885 1.3204433 -4.3665404
-1.3000059 1.3214281 -4.4094291
-1.4584329 1.319863 -4.3636236
-1.4305921 1.3218877 -4.2995372
-1.4983878 1.3170724 -4.3621902
-1.4349751 1.323227 -4.4194498
-1.5427802 1.3229975 -4.4805927
-1.5164022 1.325455 -4.4564772
-1.419939 1.3230572 -4.4050269
0.23818922 0.90360105 -3.6446815
0.13868284 0.071309268 -3.3703885
0.12854385 0.13987873 -3.4090281
0.11880207 0.69426388 -2.9221306
0.011675358 0.6588167 -3.3989601
-0.11540365 0.49722219 -3.356091
-0.013822079 0.65953696 -3.4805803
0.30365419 0.13823366 -3.1352429
0.31281662 0.11040884 -3.1759543
0.31120396 0.15078211 -3.2155452
0.29712582 0.22001158 -3.2942076
0.26257849 0.7807253 -2.0093889
0.26433563 0.70096856 -1.9689449
0.25733089 0.68494034 -2.0066271
0.23565006 0.62013209 -2.0875521
0.30658865 0.23190327 -3.3347006
-0.52779436 1.365689 -2.6508205
-0.10905981 1.3614867 -2.6261468
-0.31908178 1.3553181 -2.8987427
-0.20505238 1.3631793 -3.0629396
-2.3327096 1.3639077 -1.9846157
-2.1490278 1.387026 -1.9508741
-2.1902676 1.3622992 -2.0697117
-2.1333604 1.3873246 -2.0039492
-2.2541375 1.3619236 -2.027379
-2.9819195 1.2998744 -2.8228698
-3.1404543 1.3040122 -2.7773209
-3.0232518 1.2923703 -2.8614898
-2.8908708 1.3013638 -2.5058303
-3.0521934 1.3083407 -2.5402212
-2.9749873 1.3015263 -2.6229806
-2.9308679 1.3061904 -2.5044196
-2.9888899 1.3066411 -2.6625006
-2.9076271 1.3258985 -2.9854374
-2.8527226 1.3087082 -2.6865628
-2.8536937 1.306875 -2.5871472
-3.0590832 1.2966893 -2.7401533
-2.8141263 1.2995141 -2.7281051
-2.8570189 1.3000491 -2.8065901
-3.4406099 1.3247119 -5.2540112
-3.4131382 1.3322976 -5.2545133
-3.4148133 1.3404964 -5.3344274
-3.2815154 1.3027766 -4.6973529
-4.7744579 1.3162884 -5.3065238
-4.733861 1.3211509 -5.2773142
-2.3786345 1.3368945 -5.6507487
-2.5061145 1.3459681 -5.6459961
-2.4632535 1.3504487 -5.5674605
-2.5418043 1.3594619 -5.5244679
-2.5873828 1.3257942 -5.6832576
-2.5082371 1.2966561 -5.7139664
-3.0881341 1.3636014 -5.0108962
-3.2106934 1.3293672 -5.1386948
-3.2488105 1.3234568 -5.047935
-3.3306668 1.3289963 -5.1362176
-3.4889491 1.3178017 -5.0530229
-3.4497998 1.3232759 -5.0937929
-3.4097061 1.323356 -5.0896206
-3.2881594 1.3155723 -5.0171833
-3.329 1.323298 -5.0562816
-3.2081764 1.315819 -5.0188346
-2.8563883 1.3706706 -5.3677449
-2.738847 1.3721997 -5.4370751
-2.8614979 1.3446407 -5.5129266
-6.0427561 1.1605396 -5.4625926
-1.9493544 1.2610015 -5.7622852
-6.3564825 1.3362595 -5.1219258
-6.3140588 1.3487823 -5.0153623
-6.3499703 1.3203448 -4.854558
-6.3928623 1.3253636 -4.9735546
-6.5931182 1.0139002 -5.1098919
-6.3920312 1.3377261 -4.9335194
-6.4320178 1.3373351 -4.9325695
-5.962616 1.1013861 -5.4822083
-6.1225634 1.0998187 -5.478404
-6.9176941 1.2910326 -5.1837397
-6.9176493 1.2435958 -5.2014074
-7.077312 1.2494777 -5.1825819
-8.5087204 1.1896976 -5.1708832
-7.4367628 0.92635334 -5.2876601
-7.5764761 0.84506303 -5.3071184
-7.5560961 0.88514555 -5.2749577
-7.5956764 1.124348 -5.158164
-7.5562401 0.82026076 -5.3076859
-7.3524957 0.68686765 -5.2079625
-7.3114624 0.56728309 -5.2143502
-7.396389 0.88674796 -5.2887578
-7.4363751 0.88635612 -5.2878065
-7.690217 1.1976732 -5.1384883
-9.6734962 -0.61292809 -5.127883
-9.472496 -0.67325777 -5.1147695
-9.209239 1.0627085 -5.1314073
-9.2088451 1.022711 -5.1315007
-9.2874393 0.78201586 -5.1700845
-6.4388456 0.81657159 -5.4343319
-5.0551729 1.2982733 -5.3408871
-5.0160089 1.281269 -5.384357
-9.4473715 1.2600037 -4.9725876
-9.4323521 1.2201854 -4.9880452
-5.3584824 1.2913718 -5.2383676
-5.4784904 1.295197 -5.2354984
-5.5891461 1.3038201 -5.1528101
0.85899591 1.1522187 2.3631077
0.8072114 0.95174843 2.124876
0.781075 0.8365128 1.9257222
0.90924406 0.40766138 2.0413032
0.77261066 0.51142395 1.8860935
0.77401304 0.63144159 1.8860086
0.77743912 0.91898656 1.8457772
0.29454994 1.4245912 1.9030598
0.2946167 1.4270923 1.9055597
0.06745863 1.3850251 1.6310743
0.71930361 0.75095671 1.6477906
0.73469925 0.74859339 1.7272881
0.33652449 1.4274898 1.5413145
0.65783119 0.79040664 1.4098388
0.24014854 1.4266102 1.5047604
0.35873938 1.4151963 1.4604651
-0.32583475 0.76139873 -2.1320639
-0.34493256 0.72105694 -2.1168036
-0.4054141 0.76056981 -2.1191578
-0.32761717 0.52259493 -2.2397423
-0.71036482 0.67967463 -2.2690301
-0.42204857 0.40034473 -2.1150651
-0.28387403 0.64646327 -2.1073613
-0.32362175 0.64104921 -2.100966
-0.24794531 0.84252727 -2.1715326
-0.30772305 0.8419345 -2.1643498
-0.32850409 0.88188905 -2.1756546
-1.2046351 -1.0588691 -2.0735502
-1.2418342 -1.0593132 -1.99221
-1.2432227 -1.0591774 -2.0321865
-1.273499 -1.055299 -1.7509506
-1.3934269 -1.0558156 -1.7467867
-1.394804 -1.05818 -1.7867715
0.380373 0.17375952 -1.0832949
0.25999451 0.47758889 -1.6872854
0.26012945 0.4500888 -1.6871238
0.30163908 0.5030911 -1.6363288
0.15642405 0.48241174 -1.2034922
0.15564775 0.36217356 -1.2427657
0.42468214 0.59113252 -0.36529207
0.42056417 0.59083581 -0.41267812
-0.18352842 0.090002105 -0.76388043
-0.20456696 -1.2230823 -4.6422276
-0.32864189 -1.225018 -4.7580214
-0.29005051 -1.2222353 -4.7993636
-0.36165905 -1.2032582 -4.4289865
-0.018072605 -0.90405291 -4.4466782
-0.34404993 -1.2011245 -4.4462347
-0.45991182 -1.1829518 -4.3219528
-0.41964626 -1.2332293 -5.0751176
-0.26748419 1.3864262 -5.0231705
-0.044461727 0.92953318 -4.9946012
-0.046887875 0.85020572 -5.0752325
-0.05510807 0.73357445 -5.4761739
-0.0013794899 0.8539871 -5.4995213
-0.045105934 0.85225195 -5.315424
-0.047365665 0.85156357 -5.2353034
-0.63378572 1.3525069 -4.7937369
-0.042351723 0.44887584 -4.9186425
-0.41601515 1.3828344 -4.9214787
-0.42893076 1.383571 -5.0010571
-1.2005692 1.330469 -4.9733777
-1.2373967 1.3367918 -4.8844037
-1.0377226 1.3258207 -4.8993206
-0.77959633 0.63060462 -5.9165254
-0.8308444 0.75035876 -5.9259458
-5.319335 0.6927532 -5.5214281
-5.2788672 0.66811222 -5.5124731
-4.8178062 0.64344406 -5.5690746
-4.7790966 1.0835497 -5.5660276
-5.0784364 1.0024713 -5.5430427
-4.8190231 1.0434489 -5.5680542
-1.0624309 1.0685385 -5.9017444
-1.2818041 0.304057 -5.6212668
-1.3692164 -0.15952721 -5.5027885
-4.7767653 0.28358394 -5.5730691
-5.3147035 -0.10743504 -5.5597463
-2.4985096 -0.045340061 -5.7130609
-5.0564518 -0.58857602 -5.2661195
-5.2325387 -0.30881345 -5.3630185
-5.3153782 -0.87134349 -5.1670632
-4.981513 -0.19416189 -5.4060621
-4.81633 0.26080722 -5.5549459
-4.656611 0.20397939 -5.5787501
-5.0149345 -0.76845157 -5.2510452
0.004295826 0.69586295 -5.7186708
-0.55332661 0.0040570498 -2.509923
-0.8669219 0.11831093 -2.2982402
-0.46565151 0.28142095 -2.242393
-0.48075867 0.015033692 -2.7126868
-0.47108459 -0.31765115 -2.5332894
-0.12745667 -1.0661229 -1.5987396
-0.12684917 -1.0661982 -1.58125
0.22679615 0.059935719 -2.1327567
0.29282665 -0.082940638 -2.0563447
0.38258314 0.77136475 -1.5731652
0.41757298 0.95332628 -1.6955254
0.33658457 0.9862228 -1.1326245
0.52710485 0.76875889 -0.85764825
0.52952862 0.70913583 -0.79483604
0.52729225 1.0089922 -0.81907696
0.52933359 0.74913609 -0.79506946
0.52828407 0.80649906 -0.81789207
0.52632427 1.2064877 -0.82023269
0.15813398 0.06950441 -3.1709523
0.1498003 0.13731307 -3.1696577
0.1491828 0.030603707 -3.2910852
0.10300636 -0.0058305003 -3.6900792
-0.01821804 0.38085335 -3.6011181
0.079463959 0.1821948 -3.6469369
-0.014257908 0.38042957 -3.5612388
0.072924614 0.14351574 -3.7672167
0.072581768 0.1835108 -3.7667575
-0.016338825 0.45336908 -3.6003776
-0.018135071 0.41993409 -3.5206261
-0.6599822 0.7293148 -3.0709
0.33975124 -0.0030787848 -1.8431
-0.30245209 0.48130119 -2.1085258
-0.30721903 0.094998151 -2.0203333
-0.26620817 0.055065408 -1.9969121
-0.30619621 0.055667818 -1.9941623
-2.7649891 1.3107053 0.091934919
-2.7827775 1.3081778 0.032005191
-3.11537 1.3709388 -0.85704714
-2.8847218 1.348352 -1.0649025
-2.8058972 1.2985092 -0.63514251
-2.764966 1.2985653 -0.60904723
-2.7652259 1.298597 -0.6165424
-2.1362572 1.3175995 0.20970941
-2.0163295 1.3181182 0.20554638
-3.160634 1.3045493 0.22554398
-3.2433021 1.3011923 0.14833748
-3.2873709 1.3002826 0.029775798
-2.4883902 1.3126085 0.4420557
-2.3298759 1.3134707 0.39652884
-0.54709864 -0.29976755 -0.3327406
-1.3533511 -1.1388801 0.55205929
-1.1923327 -1.0708945 0.58680725
-1.0351677 -1.0798494 0.50125706
-0.91522026 -1.0843449 0.49706888
-0.99720097 -1.0744013 0.44072652
-1.2364845 -1.0680056 0.4682802
-0.97996855 -1.069224 0.93965912
0.51458979 0.0044477582 0.55080318
0.51288939 0.044872575 0.51126981
0.50794458 0.043930449 0.59146321
0.42020178 0.28574407 0.65805542
0.50203848 0.2689985 0.49500692
-0.26877451 0.58245546 0.87717152
-0.20250082 0.62256563 0.68039918
0.46426249 0.39408606 0.10732603
0.49997139 0.15589453 0.38770914
0.42162704 0.22825392 0.68303597
0.49497557 0.20423211 0.55357802
0.44351149 0.20981942 -0.12474829
0.43390846 0.050129063 -0.20514083
0.4258728 0.1118 -0.24988079
0.42973614 0.11205247 -0.2099911
0.20977402 -0.19207127 0.081788123
0.43359852 0.11230363 -0.17010069
0.43203878 0.15206213 -0.21031076
-0.12712431 -0.35409909 -0.34746587
-0.27065802 -0.35121793 -0.30249268
0.63173819 0.0090529919 0.22808278
0.62845945 0.12939009 0.14865816
0.25002861 -0.19224824 0.16043854
-0.18501472 -0.12278897 0.53173745
0.21171904 -0.19294094 0.28184009
0.4897089 -0.11715819 0.67035782
0.49428082 -0.07710705 0.67064166
-0.18221807 0.0073265955 0.41644573
-0.18262148 -0.0014311634 0.41289818
-0.10300684 -0.14715461 0.37301469
-0.2219367 -0.075334057 0.41497314
-1.2932143 1.3008096 0.28041601
-1.1778884 1.3018905 0.1438331
-1.3711252 1.3102088 0.34319818
-0.23659658 0.18543604 0.5994674
0.19818068 -1.1504647 -0.29960704
0.083946228 -1.0392392 -0.11755818
0.0054454803 -1.0547533 -0.074872196
-1.3933272 -1.1390486 0.5534476
-1.9041717 -1.137975 -0.32847428
-1.9844892 -1.0508207 -0.32538766
-0.67085028 -1.0445955 -0.531093
-0.59733629 -1.0316366 -0.57362688
-0.87900591 -1.0571425 -0.76405078
-0.262743 -1.0486867 -0.30513549
-0.12141323 -1.0569259 -0.27059764
-0.84083319 -1.0807654 0.3344028
-0.75731564 -1.0808686 0.43237185
-0.71733999 -1.0806954 0.43098414
-0.79392576 -1.0790249 0.53290534
-0.79807043 -1.0834681 0.41295457
-0.34895611 -0.67809856 0.71693206
-0.57494831 -1.0750823 0.42605686
-0.4254837 -0.83880329 0.79889262
-0.29811096 -0.94173634 0.99661541
-1.3423529 -1.0542301 -1.4283609
-1.2196279 -1.058984 -1.352592
-1.2968125 -1.0571004 -1.2698548
-1.4292569 -1.0513952 -1.6254547
-0.95466805 -0.82142448 -1.7612319
-1.0832996 -1.0634874 -2.037755
-1.080533 -1.0612596 -1.9577951
-0.84082222 -0.62814999 -1.8445789
-1.9503171 -1.0559983 -1.6473954
-1.8800752 -1.0572035 -1.9300095
-1.8290133 -1.0531169 -1.6115758
-1.8703554 -1.0581543 -1.6501808
-1.8717554 -1.055518 -1.6901476
-1.3604045 -1.0524651 -1.9480442
-1.2845869 -1.059213 -2.0707736
-1.3645377 -1.059558 -2.0679984
-0.82254791 -0.74962974 -1.4053574
-0.15554333 -1.0677482 -1.2550613
-0.15470743 -1.0603542 -1.2300439
-9.8868618 0.95785087 3.5559225
-9.5624218 1.1594131 3.9743991
-10.129896 1.3587319 2.9525299
-10.053446 1.3538955 2.9219956
-10.136637 1.407611 3.2329249
-10.004105 1.3015865 2.6104841
-10.017365 1.3224847 2.7459483
-9.9410324 1.0786835 3.5571933
-10.018005 1.1170937 3.5493522
-10.25515 1.2878071 2.8314586
-10.620937 0.82890254 3.0781488
-10.628731 0.94921893 2.9988494
-9.3722973 0.99831098 3.9296327
-9.2258854 1.363873 3.4102697
-9.4190569 1.3613455 3.727025
-9.2988834 1.3471055 3.729363
-9.3779469 1.3389287 3.7710557
-9.9230385 -0.53722924 3.5282035
-10.20772 -0.57852238 3.4139371
-9.8917637 -0.41607702 3.5351987
-9.883338 -0.49697948 3.5250177
-9.8520908 -0.37580663 3.5319457
-9.6055202 -0.01533569 3.9426618
-10.245434 -0.09919855 3.5438914
-10.165266 -0.13870624 3.5395947
-10.334589 -0.25885886 3.2976379
-9.8117905 0.14333299 3.9350576
-9.8064499 0.11795774 3.940589
-10.446996 0.099657476 3.5287495
-10.165132 -0.1786871 3.5344524
-9.8762856 0.076961711 3.7974677
-10.204914 0.63592464 3.5591044
-10.284979 0.59549534 3.545682
-9.8583002 0.59927672 3.5385103
-9.8915052 0.47693169 3.784286
-9.8857174 0.75786573 3.5526533
-9.9012947 -0.095167823 3.1936841
-9.8493099 0.27802813 3.8571277
-10.162712 0.27616739 3.55935
-9.9111786 0.12412053 2.7869754
-10.166544 0.101263 3.547946
-10.241577 0.035744026 3.5451574
-10.166728 0.076180667 3.5486898
-9.8319063 0.037974149 3.8958163
-11.007817 0.58671021 2.9261951
-10.642921 0.83060217 2.6785612
-10.218995 1.2938284 2.6705813
-10.298876 1.2807206 2.6724167
-10.182747 1.2873487 2.509645
-10.280123 1.2741096 2.5118971
-10.811712 0.087181583 2.5992079
-10.809627 0.10925446 2.6942849
-10.810917 0.23431663 2.679873
-11.062813 0.91320139 1.448536
-11.047323 0.80137664 1.3276318
-11.017733 0.91205108 1.7675551
-10.902018 1.1923747 1.8861014
-11.103542 0.87457055 1.0892252
-11.082003 0.79454684 1.1283677
-11.08135 0.83436501 1.1685413
-11.085697 0.95452064 1.1291728
-11.078501 0.91420251 1.2088445
-11.115784 0.87541103 0.88946223
-11.099304 0.63109261 0.76793921
-11.062708 0.63506347 1.0471706
-10.932281 0.57355249 1.0438001
-11.007431 1.0328776 1.6078063
-10.723061 1.1549679 1.6166104
-10.706524 1.1547908 1.6812352
-10.829687 0.99422544 1.6034154
-10.822492 0.95390624 1.683086
-10.728724 0.95387167 1.8409082
-10.906298 0.59110683 2.1460814
-10.409412 1.2774202 1.5947131
-10.377892 1.320249 1.0389965
-10.375906 1.2924135 1.1138459
-10.042018 1.2896599 0.94336796
-10.338896 1.310755 0.99301469
-10.299745 1.2962389 0.9520098
-9.9159307 1.2669861 1.9430603
0.31932688 1.4273417 1.3418039
0.49625111 0.94896454 0.71516287
0.62640333 1.1501732 0.49027252
0.62713575 1.0701764 0.49026859
0.62532902 1.1101629 0.45029747
-0.46713924 0.42939031 -0.89267367
-0.50072908 0.4290697 -0.85148448
-0.50855923 0.50903499 -0.85087287
-0.9174819 0.31042546 -1.5579517
-0.98834467 0.32709295 -1.435346
-1.9041059 1.3030311 -1.9207164
-1.8913612 1.3106425 -1.9601485
-1.8564916 -1.0545114 -1.2504058
-2.1972907 1.3100612 -1.5492789
-2.193125 1.3095533 -1.4293525
-2.1187804 1.3230773 -1.5919766
-2.1173911 1.3229072 -1.5520002
-2.3019328 1.3051776 -1.1053954
-2.1832285 -1.057711 -1.4391897
-2.4604352 1.3018154 -1.05988
-2.3790967 1.3019911 -1.0226806
-2.5375583 1.2886298 -0.97720832
-2.5347903 1.290791 -0.89724666
0.28618526 0.013340697 -1.0782031
-0.70338345 0.82643658 -0.44251341
-0.68023348 0.86706293 -0.56321812
-1.1947899 1.2989583 -0.34339046
-0.72625923 0.98598593 -0.36099273
-1.1934228 1.3037882 -0.30339223
-1.7350812 1.3116605 0.23577404
-1.5365398 1.300195 0.18880367
-1.3835797 1.3017355 -0.016624212
-1.4066195 1.3007575 0.18429327
-1.6633565 1.2880249 -0.0069653988
-1.5647647 1.3110802 0.53003919
-1.7818842 1.2848364 0.037163377
0.041720867 1.3660061 -0.92472744
0.66044664 0.4304105 1.5299269
0.59210014 0.12396605 0.66968381
0.50066042 0.30898082 0.67516243
0.49941492 0.36647159 0.65517735
0.48176098 0.26880592 0.69586742
0.7845726 0.59155631 1.4053282
0.78601265 0.59156781 1.4453031
0.78781843 0.55158019 1.4852744
0.65752649 0.5503931 1.4099189
0.72480536 0.51100785 1.3924967
0.85626841 0.35219008 1.6679851
-0.78008032 -1.0807467 -2.4228134
-0.74886942 -1.0776037 -2.6641066
-0.91646481 -1.0609771 -1.843421
-0.91508722 -1.0586131 -1.8034364
-1.6417437 -1.1990142 -5.5029368
-1.8858004 -1.1629169 -5.5336885
-1.7262492 -1.173439 -5.6196828
-2.006336 -1.1355071 -5.6090722
-2.4927266 -0.76548171 -5.7002645
-2.2790961 -1.1020195 -5.3986287
-1.3320169 -1.0767083 -5.7657533
-1.321527 -1.2591494 -5.5152302
-0.98062515 -0.23345914 -5.8379469
-1.061131 -0.15405592 -5.8342304
-0.97903967 -0.43349391 -5.8349471
-1.5303056 -0.63945514 -5.626657
-1.6511426 -0.60017294 -5.6393681
-1.2950006 -0.87601417 -5.8076839
-1.2583766 -0.51552778 -5.828032
-1.2973642 -0.46119148 -5.7885513
-1.2559619 -0.75570512 -5.8104434
-1.0561981 -0.7142815 -5.8123417
-0.97736216 -0.63355082 -5.8294492
-1.3265963 -0.53670365 -5.5080161
-0.96765852 -1.2499392 -5.6881967
-1.046176 -1.2459183 -5.645257
-0.97661781 -0.71359336 -5.8252516
-0.014545918 0.16153204 -4.5249615
-0.13154221 0.26673084 -4.1986876
-0.11577511 0.3464123 -4.1583462
-0.029416561 -0.063133992 -4.6014357
-0.0065517426 0.095942646 -4.4411912
-0.0065121651 0.055944458 -4.4414272
-0.029916286 0.12553628 -4.5215244
-0.012050629 -0.038830955 -4.4869046
-0.10474157 0.15831906 -4.2416692
0.044496059 -0.12156614 -4.1694417
0.16300154 0.037203722 -3.9719462
0.065493107 0.049133338 -3.9684386
0.077388287 -0.043677367 -3.9296989
-0.0088949203 -0.064056262 -4.4420524
-0.015157223 -0.18382487 -4.4825654
-1.4046206 -0.7199499 -5.4894338
-3.4611721 -0.69423193 -5.6135645
-3.4211783 -0.69395119 -5.6142235
-1.9749522 0.25871313 -5.5663567
-2.4036782 0.25674266 -5.6607776
-2.5012629 0.33662915 -5.7139411
-3.7595739 0.44762814 -5.6951938
-3.9007699 0.58503944 -5.7310824
-3.7970653 0.44751173 -5.6944199
