ply
format ascii 1.0
comment PCL generated
element vertex 1461
property float x
property float y
property float z
element camera 0
property float view_px
property float view_py
property float view_pz
property float x_axisx
property float x_axisy
property float x_axisz
property float y_axisx
property float y_axisy
property float y_axisz
property float z_axisx
property float z_axisy
property float z_axisz
property float focal
property float scalex
property float scaley
property float centerx
property float centery
property int viewportx
property int viewporty
property float k1
property float k2
end_header
-6.2797704 -1.5217241 -2.1514442
-6.3068609 -1.5245016 -2.1094368
-6.3168359 -1.5245216 -2.1087294
-6.3196659 -1.5243039 -2.1486285
-6.3133335 -1.5251845 -1.9886782
-6.4796009 -1.5244008 -2.1773863
-6.1344209 -1.5259569 -1.7983607
-6.253943 -1.5262101 -1.7873784
-6.2543049 -1.521183 -1.7923379
-6.2550039 -1.5261285 -1.8023406
-6.2571344 -1.5209653 -1.8322371
-6.1131067 -1.5285801 -1.3211805
-6.1444292 -1.5283357 -1.3740965
-6.1679688 -1.5286899 -1.3172898
-6.2659087 -1.5209395 -1.390503
-6.3001447 -1.5239546 -1.3078891
-6.3856082 -1.5211792 -1.3820144
-6.3771062 -1.529332 -1.2623587
-6.0808287 -1.5300786 -1.0427707
-6.1262112 -1.5297369 -1.1172458
-6.1581345 -1.5302335 -1.0372884
-6.1606278 -1.5302384 -1.0371116
-6.1691179 -1.5295855 -1.1568091
-6.2033577 -1.5301007 -1.0741812
-6.2528086 -1.529446 -1.2060113
-6.254581 -1.5268101 -1.2309343
-6.2563982 -1.5297602 -1.1506194
-6.2944765 -1.5293899 -1.2281187
-6.3742762 -1.5295497 -1.2224596
-6.3601265 -1.530638 -1.0229639
-6.411346 -1.5298473 -1.1797309
-6.055367 -1.5270376 -0.68365061
-6.0924411 -1.5248352 -0.64090794
-6.1323366 -1.527415 -0.63809234
-6.1408224 -1.5292621 -0.75780368
-6.1750622 -1.5297773 -0.67517585
-6.2177877 -1.5321394 -0.71225935
-6.2262774 -1.5314865 -0.8319568
-6.2291117 -1.5287689 -0.87184203
-6.334661 -1.5300969 -0.66385764
-6.3374867 -1.5323792 -0.7037707
-6.3488145 -1.5265087 -0.86333942
-6.0725155 -1.530718 -0.92556697
-6.1537299 -1.530769 -0.93985748
-6.0695519 -1.5215001 -2.5798953
-6.0611863 -1.5215532 -2.5679574
-6.0960984 -1.521623 -2.5654814
-5.9577389 -1.5238025 -2.1341953
-6.0807981 -1.5237837 -2.1730869
-5.9407592 -1.5251085 -1.8948005
-5.9432526 -1.5251135 -1.8946236
-5.9803224 -1.525411 -1.851895
-6.0526409 -1.5255557 -1.8467664
-5.858418 -1.5232934 -1.2991151
-6.0579166 -1.523693 -1.2849673
-6.0635805 -1.5207577 -1.3647517
-5.775785 -1.5258512 -1.264889
-5.8555923 -1.5210111 -1.259202
-5.9212379 -1.5247592 -1.0540611
-5.9583116 -1.5225568 -1.0113184
-5.9584765 -1.530043 -1.0138539
-5.9639673 -1.5246214 -1.0911307
-5.9724574 -1.5239685 -1.2108281
-5.9960418 -1.5299089 -1.0487835
-6.0003567 -1.5303642 -0.96827787
-6.0063529 -1.5297062 -1.0881522
-6.046412 -1.529577 -1.1229049
-6.0494227 -1.5268458 -1.1652838
-6.0705175 -1.5302813 -1.0034021
-6.0811648 -1.529856 -1.0828468
-5.7361736 -1.5238985 -0.70627308
-5.7732472 -1.5216961 -0.66353047
-5.7418337 -1.5234631 -0.78607136
-5.790215 -1.52789 -0.9029671
-5.7531533 -1.5225925 -0.94566798
-5.813139 -1.5267758 -0.66072875
-5.8643584 -1.5259851 -0.81749576
-5.8749976 -1.5305598 -0.89696825
-5.9356761 -1.521798 -0.69211143
-5.9498258 -1.5207098 -0.89160711
-5.9812274 -1.5264425 -0.769108
-5.9897256 -1.5207896 -0.88877755
-6.0182934 -1.52924 -0.72639322
-6.0211315 -1.5240225 -0.7662645
-6.0239573 -1.5263047 -0.80617756
-6.0296173 -1.5258695 -0.88597584
-5.9150395 -1.5302352 -0.96680957
-6.0327926 -1.5306245 -0.93089026
-5.5554547 -1.5201077 -2.6815157
-5.5273361 -1.5197707 -2.2850039
-5.6056461 -1.5217575 -2.3997636
-5.6982546 -1.5192196 -2.4332824
-5.7695642 -1.5200324 -2.3079257
-5.809464 -1.5201124 -2.3050961
-5.555912 -1.5232211 -2.1225917
-5.6035938 -1.5227026 -2.2294848
-5.6167703 -1.5226731 -2.2385755
-5.5304465 -1.52268 -1.7634856
-5.5703464 -1.52276 -1.760656
-5.61025 -1.52034 -1.7578125
-5.6087565 -1.5246669 -1.8782452
-5.6501455 -1.5229198 -1.7549969
-5.5018625 -1.5242295 -1.9259256
-5.5420465 -1.5249366 -1.3616645
-5.5477066 -1.5245012 -1.4414629
-5.5505323 -1.5267836 -1.4813759
-5.5562005 -1.5213484 -1.5611464
-5.5791206 -1.5227342 -1.3189219
-5.5819426 -1.5275164 -1.3588489
-5.6645718 -1.5274585 -1.3930889
-5.6702356 -1.5245233 -1.4728733
-5.6988153 -1.5254738 -1.3104472
-5.7472129 -1.5199008 -1.4272872
-5.7500348 -1.5246831 -1.4672142
-5.755703 -1.5192479 -1.5469847
-5.4851675 -1.5261625 -1.1250993
-5.5165854 -1.5218955 -1.0025444
-5.6761799 -1.5247151 -0.99124014
-5.6959853 -1.5256914 -1.2705481
-5.7160835 -1.522295 -0.98839664
-5.7302251 -1.5262066 -1.1879202
-5.4141502 -1.520977 -0.68899649
-5.4226279 -1.5278239 -0.80873567
-5.4329352 -1.5301212 -0.84811819
-5.466238 -1.5301181 -0.85828763
-5.4996057 -1.5232015 -0.76314956
-5.5052695 -1.5202662 -0.84293395
-5.5338411 -1.5262166 -0.68053567
-5.5451689 -1.520346 -0.8401044
-5.5508289 -1.5199108 -0.91990268
-5.5737448 -1.5237966 -0.67769217
-5.5793967 -1.5283611 -0.75751829
-5.6136365 -1.5288763 -0.67489046
-5.6535363 -1.5289563 -0.67206091
-5.6592083 -1.521021 -0.75181741
-5.6733499 -1.5249327 -0.95134097
-5.7075977 -1.520448 -0.86868531
-5.7132497 -1.5250126 -0.94851142
-5.2563839 -1.5194949 -2.705231
-5.2397947 -1.5191965 -2.7540259
-5.2804017 -1.5192219 -2.7611713
-5.3132267 -1.519846 -2.6585939
-5.3162374 -1.5171148 -2.7009728
-5.3589673 -1.5169771 -2.7380424
-5.4056716 -1.5200171 -2.6545441
-5.4315109 -1.5201945 -2.6301556
-5.4651847 -1.5203596 -2.6102238
-5.5157361 -1.5175142 -2.686825
-5.5456567 -1.5200741 -2.6847167
-5.2294292 -1.5207808 -2.4665434
-5.2609458 -1.5207183 -2.4868646
-5.2400765 -1.5203555 -2.5459881
-5.2746525 -1.5206481 -2.5034363
-5.2994308 -1.520907 -2.4640856
-5.2675076 -1.5204104 -2.5440428
-5.3270211 -1.5207529 -2.4997225
-5.4217868 -1.5184427 -2.4929883
-5.4413962 -1.5212053 -2.4515116
-5.4999905 -1.521225 -2.4649
-5.5201869 -1.522033 -2.3256245
-5.1862025 -1.5233183 -1.998436
-5.1879888 -1.5233777 -1.9882843
-5.1883287 -1.520655 -2.0283463
-5.2653027 -1.5185326 -1.9827743
-5.2695394 -1.523206 -2.0426507
-5.3092623 -1.5232996 -2.0373275
-5.3975515 -1.5228064 -2.1513658
-5.3934832 -1.5231192 -2.0940108
-5.4604778 -1.5234767 -2.04916
-5.4704566 -1.5209967 -2.0484388
-5.4465241 -1.5227787 -2.170449
-5.4518476 -1.5225662 -2.2101712
-5.4992285 -1.522661 -2.2068112
-5.2172413 -1.5238829 -1.9060102
-5.2195578 -1.5239015 -1.9033396
-5.1823115 -1.5236175 -1.9435747
-5.1826649 -1.5235903 -1.948562
-5.2995381 -1.5215478 -1.9001603
-5.3023682 -1.5213301 -1.9400594
-5.3522387 -1.52393 -1.9365364
-5.4164071 -1.5220051 -1.8517725
-5.4192371 -1.5217874 -1.8916717
-5.4428606 -1.5256188 -1.659436
-5.4506469 -1.5225203 -1.7691447
-5.4242206 -1.5242974 -1.8913319
-5.4626703 -1.5240952 -1.93873
-5.1423383 -1.5266919 -1.3799993
-5.1580081 -1.5266675 -1.3889129
-5.1441069 -1.5265559 -1.4049362
-5.2698197 -1.5263331 -1.4812332
-5.3139644 -1.5260864 -1.5382524
-5.3236032 -1.5263292 -1.4974691
-5.3937635 -1.5262463 -1.5325933
-5.4195175 -1.5249145 -1.3302541
-5.4251814 -1.5219792 -1.4100385
-5.4308333 -1.5265439 -1.4898646
-5.4792228 -1.5259708 -1.6067325
-5.1574759 -1.5286763 -1.0280522
-5.1175761 -1.5285964 -1.0308818
-5.2429433 -1.5234009 -1.1021636
-5.3968863 -1.5216558 -1.0110331
-5.4053679 -1.5260028 -1.1307584
-5.4138579 -1.5253499 -1.2504559
-5.0958209 -1.5302696 -0.72415709
-5.1348362 -1.5304176 -0.70885903
-5.1945457 -1.5289738 -0.98532349
-5.2573652 -1.5304396 -0.74026954
-5.2146358 -1.5305773 -0.70319992
-5.2545357 -1.5306572 -0.70037037
-5.2743449 -1.5291337 -0.97966439
-5.2972651 -1.5305195 -0.73743999
-5.294435 -1.5307372 -0.69754082
-5.3343349 -1.530817 -0.69471127
-5.3405252 -1.5303409 -0.78199065
-5.3207173 -1.5298965 -0.8560763
-5.3463621 -1.529892 -0.86428261
-5.3541527 -1.5242935 -0.97397745
-5.3499694 -1.5304017 -0.77380216
-5.3513145 -1.5295111 -0.93410611
-5.3935137 -1.5294142 -0.96369463
-5.1170459 -1.5286372 -1.0234007
-5.4236326 -1.5296559 -0.92897755
-7.4481525 -1.5406702 -2.2290812
-7.4509826 -1.5404526 -2.2689803
-7.4623184 -1.5295821 -2.4285212
-7.5056171 -1.5306985 -1.3427278
-7.5426788 -1.535996 -1.3000269
-7.6224823 -1.5336559 -1.2943538
-7.6595478 -1.5364534 -1.2516391
-7.3055377 -1.5365448 -2.4797802
-7.1773448 -1.5394579 -2.3685853
-7.2200742 -1.5393202 -2.4056551
-7.1436901 -1.5301971 -1.3282946
-7.2662148 -1.5327191 -1.359719
-7.0862455 -1.527669 -2.2145784
-7.0834079 -1.5328866 -2.1747072
-6.8612738 -1.5317284 -1.8696477
-7.0720758 -1.541257 -2.0151522
-6.8442979 -1.5305343 -1.630239
-6.8785219 -1.5410494 -1.5476668
-6.8926716 -1.5399611 -1.7471626
-7.0038848 -1.5383538 -1.6189625
-7.0466185 -1.5357161 -1.6560181
-6.744689 -1.5318981 -1.3566041
-6.7503409 -1.5364627 -1.4364302
-6.8244843 -1.5345578 -1.3509589
-6.8615541 -1.5348554 -1.3082302
-6.8756919 -1.541267 -1.5077677
-6.9554911 -1.5414268 -1.5021086
-7.0154929 -1.5356103 -1.2171137
-7.0324607 -1.5418042 -1.4565504
-6.7135477 -1.5417922 -0.91775525
-6.7647753 -1.5360016 -1.0744945
-6.7305274 -1.5404862 -1.1571501
-6.8445706 -1.5386612 -1.0688492
-6.9328675 -1.5331682 -1.1828598
-7.0126548 -1.5408279 -1.1772424
-6.6909161 -1.5385334 -0.59853429
-6.7393017 -1.5404603 -0.71541607
-6.7107258 -1.5370098 -0.8778283
-6.8618307 -1.5404824 -0.74682653
-6.530468 -1.5338327 -2.2941329
-6.4820905 -1.5269058 -2.1772234
-6.5395188 -1.5394337 -1.2909954
-6.6677117 -1.5365206 -1.4021902
-6.4000101 -1.5407176 -1.02019
-6.4056821 -1.5327824 -1.0999465
-6.4826512 -1.53316 -1.0543883
-6.5197172 -1.5359575 -1.0116735
-6.5282068 -1.5353044 -1.1313709
-6.5310369 -1.5350869 -1.17127
-6.533875 -1.5298693 -1.2111413
-6.5737705 -1.5324491 -1.2083257
-6.6023502 -1.5333996 -1.0458996
-6.6051764 -1.535682 -1.0858127
-6.3802166 -1.5322415 -0.74084032
-6.4571738 -1.5401187 -0.69532382
-6.4628339 -1.5396835 -0.77512211
-6.5055714 -1.5345458 -0.81216383
-6.539803 -1.5400609 -0.72956383
-6.5853629 -1.5397055 -0.80653256
-6.6139507 -1.5356561 -0.64407861
-6.6111207 -1.5358738 -0.60417944
-6.6252704 -1.5347854 -0.80367517
-6.6510124 -1.5409535 -0.60137773
-6.659502 -1.5403006 -0.72107518
-6.6651659 -1.5373653 -0.80085951
-6.3253217 -1.5263686 -2.2284408
-6.1572213 -1.5342019 -2.1201034
-6.2228708 -1.5354499 -1.9149485
-6.2313566 -1.5372969 -2.0346599
-6.274086 -1.5371591 -2.0717294
-6.3026781 -1.5306097 -1.9092615
-6.3083382 -1.5301745 -1.9890598
-6.3139977 -1.5297391 -2.0688581
-6.3026862 -1.5256099 -1.9092337
-6.1773152 -1.5333053 -1.8379658
-6.1402416 -1.5355078 -1.8807085
-6.2143888 -1.5311029 -1.7952232
-6.2200408 -1.5356675 -1.8750494
-6.2567902 -1.5261879 -1.792189
-6.140522 -1.5386348 -1.3192909
-6.1178942 -1.5328761 -1.0000559
-6.0893145 -1.5319257 -1.162482
-6.1320438 -1.5317879 -1.1995517
-6.2033577 -1.5301007 -1.0741812
-6.2118435 -1.5319477 -1.1938926
-6.2831531 -1.5327604 -1.068536
-6.2888088 -1.5348251 -1.1483482
-6.2916427 -1.5321075 -1.1882335
-6.3145666 -1.5309933 -0.94599509
-6.3202229 -1.533058 -1.0258074
-6.2975793 -1.5372992 -0.70662808
-6.3004131 -1.5345815 -0.74651331
-6.0686555 -1.529068 -2.5674686
-5.9435768 -1.5323906 -1.9347414
-5.9863105 -1.529753 -1.9717971
-5.9948087 -1.5241001 -2.0914667
-6.0431981 -1.523527 -2.2083344
-6.0717578 -1.5369773 -2.0459781
-6.0802636 -1.5263245 -2.1656199
-6.1060014 -1.5349926 -1.9633362
-6.1201596 -1.5289043 -2.1628041
-6.0205383 -1.537768 -1.8892111
-6.0576162 -1.5330657 -1.8464545
-6.0604382 -1.5378479 -1.8863815
-6.0946937 -1.5283632 -1.8036979
-5.5556273 -1.5225941 -2.6840234
-5.527328 -1.5247706 -2.2850318
-5.5301461 -1.5320529 -2.3249726
-5.5728674 -1.5369149 -2.3620701
-5.5785275 -1.5364797 -2.4418685
-5.6071115 -1.5349302 -2.2794285
-5.5131783 -1.5258589 -2.085536
-5.5559039 -1.5282211 -2.1226196
-5.4990125 -1.536947 -1.8860961
-5.6158814 -1.5374043 -1.8377082
-5.6529632 -1.530202 -1.7949378
-5.5819426 -1.5275164 -1.3588489
-5.2786875 -1.5179763 -2.9843481
-5.2307501 -1.5348899 -2.626931
-5.2364259 -1.5244548 -2.7066736
-5.2392602 -1.5217372 -2.7465589
-5.3133955 -1.5248322 -2.6611154
-5.3561292 -1.5221946 -2.6981711
-5.3903527 -1.5327096 -2.6155989
-5.2166042 -1.5334783 -2.4274213
-5.2251062 -1.5253254 -2.5470769
-5.2964077 -1.5311382 -2.4217484
-5.3363075 -1.5312181 -2.4189188
-5.4160986 -1.5363778 -2.4132876
-5.4274387 -1.5230074 -2.5728145
-5.2709341 -1.535597 -2.06267
-5.3620491 -1.5373861 -2.2166214
-5.3849854 -1.5287721 -1.9743413
-5.3934832 -1.5231192 -2.0940108
-5.4019489 -1.537466 -2.2137918
-5.430541 -1.5309167 -2.0513239
-5.436193 -1.5354812 -2.13115
-5.4418526 -1.535046 -2.2109482
-5.1684952 -1.5371784 -1.749136
-5.2967 -1.5267653 -1.860289
-5.3224421 -1.5329334 -1.6579916
-5.328094 -1.537498 -1.7378178
-5.3821435 -1.5364896 -1.9344839
-5.4220428 -1.5365695 -1.9316543
-5.1401997 -1.536855 -1.3501306
-5.1458678 -1.5314198 -1.429901
-5.1515274 -1.5309844 -1.5096993
-5.1543536 -1.5332668 -1.5496124
-5.1600132 -1.5328314 -1.6294106
-5.1999173 -1.5304114 -1.6265672
-5.2313271 -1.5311443 -1.5040402
-5.239821 -1.5279913 -1.6237237
-5.2599111 -1.5295948 -1.3416002
-5.2655706 -1.5291595 -1.4213984
-5.3937635 -1.5262463 -1.5325933
-5.3965855 -1.5310285 -1.5725203
-5.3994198 -1.5283109 -1.6124055
-5.4364934 -1.5261085 -1.5696629
-5.1204023 -1.5308787 -1.0707948
-5.1232281 -1.533161 -1.1107079
-5.1260619 -1.5304434 -1.150593
-5.1659579 -1.5330232 -1.1477774
-5.1317182 -1.532508 -1.2304053
-5.134552 -1.5297904 -1.2702905
-5.1373777 -1.5320728 -1.3102036
-5.1772738 -1.5346526 -1.3073879
-5.2115173 -1.5326679 -1.2247462
-5.2400894 -1.5386182 -1.0623479
-5.2372675 -1.533836 -1.0224209
-5.2457609 -1.530683 -1.1421044
-5.2941546 -1.5276101 -1.2589583
-5.0977626 -1.53262 -0.75160164
-5.1005926 -1.5324023 -0.79150081
-5.1034226 -1.5321846 -0.83139992
-5.146152 -1.5320469 -0.86846954
-5.1090784 -1.5342493 -0.91121215
-5.1119084 -1.5340316 -0.95111132
-5.1546378 -1.5338938 -0.98818088
-5.1832261 -1.5298444 -0.82572693
-5.2146358 -1.5305773 -0.70319992
-5.2573652 -1.5304396 -0.74026954
-5.265851 -1.5322865 -0.85998088
-4.965919 -1.5268371 1.6098356
-5.000051 -1.5222613 1.6925343
-5.0058079 -1.5294542 1.6127135
-5.0283928 -1.5229924 1.8550034
-5.0255046 -1.5231459 1.8948985
-5.0341697 -1.5226854 1.7752128
-5.0370517 -1.5250319 1.7353075
-5.0428281 -1.524725 1.6555169
-5.0457168 -1.5245714 1.6156217
-5.0226092 -1.5257994 1.9347838
-4.8268962 -1.5372492 2.4218822
-4.8283405 -1.5371724 2.4019346
-4.8745313 -1.537794 2.5255914
-4.8881836 -1.5373482 2.4062667
-4.9086728 -1.537378 2.4002302
-4.9462214 -1.5376199 2.435533
-4.9704676 -1.5375899 2.4122231
-4.9908104 -1.5374876 2.3735912
-4.9966068 -1.5296807 2.2938311
-4.7283373 -1.5355126 2.6754355
-4.6942515 -1.5225885 2.5928075
-4.7711277 -1.5329763 2.6384385
-4.7973576 -1.5385392 2.7606311
-4.8027058 -1.5385346 2.756005
-4.8148007 -1.5378919 2.5889437
-4.8953137 -1.5380878 2.5847459
-4.9162607 -1.5367124 2.8494565
-4.8953929 -1.5385032 2.6875188
-4.9299741 -1.5384833 2.6599441
-4.9561496 -1.5393295 2.8523345
-4.9612041 -1.539061 2.7825177
-4.7052431 -1.5317405 2.9946179
-4.6711178 -1.5338163 2.9119294
-4.7110066 -1.5364335 2.9148073
-4.8335814 -1.5366316 2.8835759
-4.8619299 -1.5348628 3.0460551
-4.8960552 -1.5327868 3.1287436
-4.8989367 -1.5351334 3.0888383
-4.9076018 -1.5346729 2.9691525
-4.913372 -1.5368658 2.8893518
-4.9359503 -1.532904 3.1316316
-4.9330554 -1.5355575 3.1715169
-4.9417138 -1.5375971 3.051821
-4.9446025 -1.5374435 3.0119257
-4.9503727 -1.5396365 2.9321251
-4.9532609 -1.5394831 2.8922298
-4.7306967 -1.5326252 3.1969821
-4.7619267 -1.5332028 3.319556
-4.7677035 -1.5328958 3.2397654
-4.8359275 -1.5387441 3.4051023
-4.8729277 -1.5415148 3.4478755
-4.8700461 -1.5391682 3.4877808
-4.8816128 -1.5335543 3.3282199
-4.8873897 -1.5332474 3.2484295
-4.8902783 -1.5330939 3.2085342
-4.9099417 -1.5392854 3.4906688
-4.9157181 -1.5389785 3.4108782
-4.9186134 -1.536325 3.3709931
-4.9243903 -1.536018 3.2912025
-4.9272852 -1.5333645 3.2513175
-4.6277785 -1.5411186 3.5103381
-4.7758064 -1.5422013 3.6814711
-4.7873602 -1.5415874 3.5218902
-4.8214922 -1.5370116 3.6045887
-4.846952 -1.5353962 3.8069632
-4.8527222 -1.5375892 3.7271626
-4.8585057 -1.5347823 3.647382
-4.8613873 -1.5371287 3.6074767
-4.8897624 -1.52536 3.7699962
-4.8868608 -1.5305135 3.8098714
-4.8955126 -1.5350529 3.6901653
-4.8984013 -1.5348995 3.65027
-4.9041715 -1.5370924 3.5704694
-4.907053 -1.539439 3.5305641
-4.7079296 -1.5435711 4.0650687
-4.6815739 -1.5427344 3.8751714
-4.7613778 -1.5379689 3.8809676
-4.7897196 -1.5387 4.0434365
-4.8267264 -1.5389706 4.0862198
-4.8238382 -1.5391241 4.1261153
-4.8354182 -1.5285103 3.9665744
-4.8666353 -1.5340879 4.089128
-4.8637333 -1.5392413 4.129003
-4.8724184 -1.5312809 4.0093474
-4.8753071 -1.5311275 3.9694524
-4.8810773 -1.5333204 3.8896518
-4.8839655 -1.5331669 3.8497565
-4.6460109 -1.542387 3.8124406
-4.4207473 -1.5264612 2.4927809
-4.3895106 -1.5283836 2.3701971
-4.4322944 -1.5283473 2.33319
-4.4635181 -1.5314249 2.4557536
-4.5005317 -1.5291955 2.4985468
-4.5063019 -1.5313885 2.4187462
-4.4120755 -1.5294217 2.6124568
-4.4178591 -1.5266148 2.5326762
-4.4577546 -1.526732 2.5355642
-4.4860964 -1.5274631 2.6980333
-4.5375452 -1.5269663 2.5413401
-4.5745392 -1.5322369 2.5841033
-4.5774541 -1.5220835 2.5442483
-4.6144409 -1.5298541 2.5870013
-4.6369996 -1.5333922 2.8292508
-4.6485529 -1.5327783 2.6696699
-4.4346404 -1.5304599 2.8547163
-4.4543037 -1.5366514 3.1368508
-4.4658775 -1.5285375 2.9773002
-4.5086479 -1.5335011 2.9402728
-4.6138988 -1.5321201 3.148423
-4.6196756 -1.5318131 3.0686326
-4.6225638 -1.5316597 3.0287373
-4.628334 -1.5338527 2.9489367
-4.6312227 -1.5336992 2.9090414
-4.3600645 -1.5396844 3.3305411
-4.3970714 -1.5399551 3.3733244
-4.4810591 -1.5405258 3.4596128
-4.5994501 -1.5353875 3.3478892
-4.605227 -1.5350806 3.2680988
-4.3634715 -1.5403423 3.4912052
-4.4246912 -1.5407246 3.5457673
-4.4382753 -1.540562 3.4966202
-4.5450993 -1.5410378 3.5444574
-4.4703631 -1.5405349 3.4688647
-4.5091753 -1.5407095 3.4867134
-4.5893273 -1.5409247 3.4875026
-4.607831 -1.5410601 3.5088942
-4.1281223 -1.5218763 1.5491982
-4.1680045 -1.5269935 1.5520658
-4.1934514 -1.5303781 1.75442
-4.2477889 -1.5297278 1.5578318
-4.287684 -1.529845 1.5607197
-4.3246975 -1.5276157 1.6035131
-4.3275995 -1.5224622 1.563638
-4.3588362 -1.52054 1.6862218
-4.3674946 -1.5225794 1.5665259
-4.3929482 -1.5234641 1.7688903
-4.4073901 -1.5226966 1.5694139
-4.0876913 -1.5215253 2.1077418
-4.1449037 -1.5257214 1.8712381
-4.164587 -1.5244131 2.153403
-4.1847992 -1.5258386 1.8741261
-4.1102428 -1.5275633 2.3499813
-4.1414666 -1.530641 2.4725449
-4.161705 -1.5220666 2.1933084
-4.1929288 -1.5251442 2.3158722
-4.229929 -1.5279149 2.3586452
-4.3039231 -1.5359561 2.4441814
-4.3010416 -1.5336096 2.4840868
-4.3097267 -1.5256493 2.3644314
-4.3467069 -1.5359198 2.4071741
-4.0871291 -1.5312912 2.6691334
-4.1385779 -1.5307945 2.5124402
-4.2438354 -1.5269135 2.7206006
-4.2496057 -1.5291065 2.6408
-4.2779541 -1.5273377 2.8032792
-4.3178558 -1.5249549 2.8061774
-4.3265147 -1.5269943 2.6864815
-4.3351798 -1.5265338 2.5667956
-4.0553565 -1.5329796 3.1079812
-4.0668969 -1.5373656 2.94838
-4.1125889 -1.5296758 2.8715076
-4.1154709 -1.5320224 2.8316023
-4.1894913 -1.5300637 2.9171789
-4.1952682 -1.5297568 2.8373885
-4.2606235 -1.5282586 3.0426507
-4.2976303 -1.5285293 3.085434
-4.2947354 -1.5311828 3.1253192
-4.300519 -1.5283757 3.0455389
-4.3062892 -1.5305687 2.9657381
-4.0125661 -1.5355159 3.1449785
-4.09237 -1.5307503 3.1507745
-4.1192479 -1.5390581 3.3331609
-4.2091613 -1.5337553 3.1993237
-4.2773852 -1.5396036 3.3646605
-4.283175 -1.5342966 3.2848902
-4.2860637 -1.5341432 3.2449949
-4.3052082 -1.5395234 3.3265703
-4.2920747 -1.5407805 3.6464543
-3.834419 -1.5193236 1.7284687
-3.9627507 -1.5267146 1.6174165
-3.9968824 -1.5221388 1.7001152
-4.0680079 -1.5228336 1.825577
-4.0737915 -1.5200267 1.7457966
-4.079555 -1.5247196 1.6659858
-4.0824499 -1.5220662 1.6261007
-3.9650967 -1.5288272 2.138943
-4.0449009 -1.5240616 2.1447392
-4.0535727 -1.5211011 2.0250635
-4.0593429 -1.5232941 1.9452628
-4.0622377 -1.5206406 1.9053776
-3.7968631 -1.523819 2.247097
-3.7997515 -1.5236655 2.2072017
-3.9049759 -1.5322844 2.4153118
-3.9593198 -1.5291342 2.2187335
-3.9992087 -1.5317513 2.2216113
-4.0275569 -1.5299824 2.3840904
-4.0304456 -1.5298289 2.3441951
-4.0333338 -1.5296755 2.3043001
-4.0362287 -1.527022 2.2644148
-4.0420189 -1.521715 2.1846445
-3.739624 -1.5296227 2.4835603
-3.8535333 -1.5302812 2.5720148
-3.8593035 -1.5324742 2.4922142
-4.0015545 -1.5338638 2.7431378
-4.0102201 -1.5334034 2.6234519
-4.0160036 -1.5305964 2.5436716
-3.9102168 -1.5317435 2.8969531
-3.9160004 -1.5289365 2.8171725
-3.955889 -1.5315536 2.8200505
-3.981349 -1.5299383 3.0224249
-3.9842441 -1.5272849 2.9825397
-3.9900076 -1.5319778 2.902729
-3.9928961 -1.5318244 2.8628337
-3.8053198 -1.5378425 3.237747
-3.8130889 -1.53493 3.1305385
-3.9647207 -1.5383208 3.2517924
-3.9668937 -1.5357057 3.2218809
-3.7332916 -1.5371957 3.1247525
-3.9810581 -1.5385712 3.3031054
-3.5522628 -1.5186568 1.7481481
-3.708956 -1.5192791 1.7995952
-3.4863651 -1.5224211 2.1043074
-3.5863814 -1.519081 1.8308266
-3.7430747 -1.5197033 1.8822738
-3.4719296 -1.5206885 2.3037939
-3.4776931 -1.5253816 2.223983
-3.50893 -1.5234592 2.3465669
-3.5233786 -1.5201918 2.1471007
-3.5430486 -1.5238833 2.4292455
-3.6430647 -1.5205433 2.1557646
-3.7026236 -1.526852 2.4407873
-3.7084136 -1.5215452 2.361017
-3.711302 -1.5213916 2.3211217
-3.7199674 -1.5209311 2.2014358
-3.445914 -1.5295699 2.6628208
-3.4800193 -1.534994 2.7454793
-3.6482794 -1.5300022 2.6373656
-3.6540563 -1.5296953 2.557575
-3.6824048 -1.5279264 2.7200541
-3.6852932 -1.527773 2.6801589
-3.6939583 -1.5273125 2.5604732
-3.6997352 -1.5270056 2.4806826
-3.4070427 -1.5360755 3.0610313
-3.3771212 -1.5359876 3.0588653
-3.3928719 -1.5357099 2.9797969
-3.3857932 -1.5330272 2.9391897
-3.4285703 -1.5354908 2.9021723
-3.4578147 -1.5361739 3.0521741
-3.4771376 -1.5326475 2.7853847
-3.5453746 -1.5334958 2.9507415
-3.5968237 -1.532999 2.7940485
-3.6193821 -1.5365372 3.036298
-3.665061 -1.5338473 2.9594057
-3.6679494 -1.5336939 2.9195104
-3.6737328 -1.5308869 2.8397298
-3.6962845 -1.536925 3.0819693
-3.3655677 -1.5366015 3.2184465
-3.4090736 -1.5365268 3.1714654
-3.4121535 -1.5370623 3.3020275
-3.4453585 -1.5368359 3.2242224
-3.5894148 -1.5381296 3.4502113
-3.4323606 -1.5375266 3.4037511
-3.1700969 -1.5188302 2.0413184
-3.1787555 -1.5208697 1.9216225
-3.2556579 -1.5212575 1.9672937
-3.4152393 -1.5217263 1.9788456
-3.4210229 -1.5189193 1.8990653
-3.1244245 -1.51902 2.118221
-3.1643002 -1.5266371 2.1210787
-3.2042089 -1.5217544 2.1239867
-3.3834736 -1.5209147 2.4177036
-3.3892438 -1.5231076 2.337903
-3.1325407 -1.5233256 2.5599468
-3.1695478 -1.5235963 2.60273
-3.181108 -1.5204823 2.4431591
-3.2065349 -1.5313668 2.645483
-3.2209902 -1.5255994 2.4460268
-3.2805622 -1.5269082 2.7310696
-3.3348997 -1.5262579 2.5344813
-3.3632414 -1.5269891 2.6969502
-3.3603332 -1.5346425 2.7368152
-3.3748083 -1.5213752 2.5373895
-3.3805852 -1.5210682 2.4575989
-3.057991 -1.5225503 3.0358121
-3.0724266 -1.5242828 2.8363256
-3.1579943 -1.5242102 2.762311
-3.1805592 -1.5252483 3.0045707
-3.2377717 -1.5294445 2.7680669
-3.3031139 -1.5329462 2.973309
-3.3175492 -1.5346788 2.7738225
-3.354563 -1.5324495 2.8166158
-3.0805361 -1.5310884 3.2780414
-3.0949981 -1.5228209 3.0785954
-3.1146481 -1.5340124 3.3607097
-3.1689987 -1.5283623 3.1641417
-3.2146711 -1.5281725 3.087239
-3.243026 -1.5239036 3.2497282
-3.2516716 -1.530943 3.1300123
-3.3198955 -1.5367913 3.2953491
-3.3256788 -1.5339844 3.2155685
-3.3285673 -1.5338309 3.1756732
-3.0420599 -1.537433 3.6361761
-3.0612066 -1.5371147 3.5448208
-3.1516485 -1.5367831 3.4034829
-3.1915572 -1.5319003 3.4063911
-3.2713413 -1.5346347 3.4121568
-3.2809136 -1.5373248 3.4529445
-2.8711259 -1.5268183 1.7389073
-2.9139297 -1.519282 1.7019303
-3.0193279 -1.5303913 1.9075367
-3.0532858 -1.5233251 1.992739
-3.090306 -1.5185958 2.0355425
-2.9104731 -1.5294641 1.7492656
-2.9214969 -1.5283536 2.7050676
-2.9700642 -1.5255103 2.58828
-2.9729328 -1.5328567 2.5483544
-3.0041893 -1.5234345 2.6709685
-3.0412095 -1.5187052 2.7137721
-3.0498681 -1.5207447 2.5940762
-2.7388344 -1.5191129 3.0127182
-2.7503881 -1.5184989 2.8531373
-2.7989421 -1.5206556 2.7363293
-2.830179 -1.5187333 2.8589132
-2.8758445 -1.5210434 2.7820005
-2.9013045 -1.5194281 2.984375
-2.9926357 -1.5240484 2.8305497
-3.0383213 -1.5188587 2.7536674
-2.7671497 -1.5298439 3.1751471
-2.801275 -1.5277681 3.2578356
-2.8099401 -1.5273076 3.1381497
-2.855619 -1.5246179 3.0612574
-2.892626 -1.5248885 3.1040406
-2.920948 -1.5331196 3.2664793
-2.9978569 -1.5310074 3.3121607
-2.9949751 -1.528661 3.352066
-3.0065289 -1.5280471 3.1924849
-2.7382524 -1.5363787 3.5740795
-2.7469506 -1.5234184 3.4544442
-2.7128189 -1.5279943 3.3717453
-2.8637352 -1.5289234 3.5029831
-2.8695054 -1.5311164 3.4231825
-2.9747562 -1.5297354 3.6313329
-2.9920802 -1.5313145 3.3919511
-2.6694794 -1.5352966 3.9701543
-2.7238169 -1.5346463 3.7735658
-2.7665942 -1.53711 3.7365484
-2.7891724 -1.5331481 3.9788282
-2.7694826 -1.5369564 3.6966531
-2.8064895 -1.537227 3.7394364
-2.8093846 -1.5345737 3.6995513
-2.8290677 -1.5332652 3.9817162
-2.871845 -1.5357289 3.9446988
-2.8689566 -1.5358825 3.9845941
-2.9088452 -1.5384996 3.9874721
-2.9175172 -1.5355392 3.8677962
-2.9261889 -1.5325787 3.7481205
-2.9487474 -1.5361167 3.99037
-2.7694826 -1.5369564 3.6966531
-2.988636 -1.538734 3.993248
-2.9934993 -1.5377764 3.7529738
-2.5149624 -1.5231102 1.6730303
-2.5207391 -1.5228032 1.5932398
-2.5236275 -1.5226498 1.5533445
-2.5293977 -1.5248427 1.4735439
-2.5322862 -1.5246892 1.4336486
-2.572175 -1.5273063 1.4365265
-2.6120837 -1.5224236 1.4394346
-2.6375303 -1.5258082 1.6417888
-2.6918809 -1.5201579 1.4452207
-2.7317765 -1.5202751 1.4481087
-2.7572231 -1.5236597 1.6504629
-2.7658951 -1.5206994 1.5307872
-2.7913418 -1.524084 1.7331414
-2.7971318 -1.518777 1.6533711
-2.8029087 -1.51847 1.5735806
-2.4889865 -1.5169917 2.0321181
-2.5889764 -1.5236515 1.7585968
-2.6086397 -1.5298431 2.0407314
-2.6202066 -1.5242292 1.8811706
-2.6259966 -1.5189222 1.8014002
-2.7000105 -1.5194635 1.8869667
-2.748558 -1.5241202 1.7701488
-2.5086563 -1.5206833 2.3142626
-2.513504 -1.5304241 2.2468991
-2.4745443 -1.5177592 2.2315943
-2.4803212 -1.5174521 2.1518037
-2.4860847 -1.5221452 2.0719931
-2.5144067 -1.5303762 2.2344317
-2.5601053 -1.5201865 2.1575696
-2.562974 -1.5275329 2.1176441
-2.5884471 -1.5209177 2.3200388
-2.6341195 -1.5207279 2.2431362
-2.7225688 -1.5230017 2.1292162
-2.4427454 -1.5294474 2.6704018
-2.445647 -1.524294 2.6305268
-2.451437 -1.5189871 2.5507565
-2.4543123 -1.5238335 2.5108409
-2.6081238 -1.5221093 2.6021936
-2.6821311 -1.5251505 2.6877499
-2.4681988 -1.5303321 2.8727663
-2.431205 -1.5250615 2.830003
-2.4340935 -1.5249079 2.7901077
-2.4740021 -1.5200253 2.793016
-2.4398637 -1.5271009 2.7103071
-2.505219 -1.5256028 2.9155695
-2.5081074 -1.5254493 2.8756742
-2.5566747 -1.522606 2.7588866
-2.5821412 -1.5184907 2.961271
-2.5878983 -1.5256836 2.8814502
-2.5965569 -1.5277232 2.7617545
-2.6306953 -1.5206474 2.8444631
-2.7162564 -1.5230747 2.7704384
-2.436446 -1.5245205 3.3116443
-2.4821315 -1.5193309 3.234762
-2.5335608 -1.5263339 3.0780387
-2.6445949 -1.522146 3.2064085
-2.6758118 -1.5277236 3.3289621
-2.6815953 -1.5249166 3.2491817
-2.6902738 -1.5194563 3.1295161
-2.4191089 -1.5279415 3.5510058
-2.3821218 -1.5201709 3.5082529
-2.3907671 -1.5272104 3.3885369
-2.3936622 -1.5245569 3.3486516
-2.4335577 -1.5246741 3.3515396
-2.4532208 -1.5308656 3.6336744
-2.4734464 -1.5272912 3.3544176
-2.4988997 -1.5281758 3.5567818
-2.5075717 -1.5252154 3.4371061
-2.5474603 -1.5278325 3.4399841
-2.5532506 -1.5225255 3.3602138
-2.5815923 -1.5232568 3.5226827
-2.5931525 -1.5201428 3.3631117
-2.6301396 -1.5279133 3.4058647
-2.6555798 -1.533798 3.6082089
-2.6729434 -1.5203772 3.3688877
-2.4075751 -1.5210555 3.7106173
-2.4358971 -1.5292865 3.8730559
-2.4387987 -1.5241331 3.8331809
-2.4445622 -1.5288261 3.7533703
-2.4503326 -1.5310191 3.6735694
-2.4700289 -1.5247108 3.9557548
-2.5099044 -1.5323279 3.9586124
-2.5642352 -1.5341775 3.7620139
-2.5896885 -1.5350622 3.9643781
-2.5983472 -1.5371016 3.8446825
-2.6324725 -1.5350258 3.927371
-2.6295841 -1.5351794 3.9672663
-2.6353543 -1.5373724 3.8874655
-2.646908 -1.5367584 3.7278845
-4.9393549 -1.5404844 2.5302744
-4.9451318 -1.5401775 2.4504838
-4.9821386 -1.5404481 2.4932671
-4.9850268 -1.5402946 2.4533718
-4.9879155 -1.5401411 2.4134765
-4.8138919 -1.5404398 2.6014009
-4.8965707 -1.5405207 2.5672815
-4.9619198 -1.5415225 2.7725339
-4.9705849 -1.541062 2.652848
-4.9734735 -1.5409086 2.6129527
-4.9763618 -1.540755 2.5730574
-4.6075597 -1.5421931 3.7896049
-4.6647854 -1.5413893 3.5531213
-4.6815739 -1.5427344 3.8751714
-4.3172808 -1.5397208 3.3675485
-4.3999596 -1.5398016 3.3334291
-3.9981108 -1.5412832 3.3444345
-4.0380063 -1.5414004 3.3473225
-3.8159642 -1.5397764 3.0906231
-3.690501 -1.539732 3.1617496
-3.7645152 -1.5402733 3.2473161
-3.7702918 -1.5399662 3.1675255
-3.4170101 -1.5386047 3.0617433
-3.4256754 -1.5381442 2.9420574
-3.4968076 -1.536339 3.0675294
-3.5366962 -1.5389563 3.0704072
-3.5765917 -1.5390735 3.0732951
-3.3568957 -1.539562 3.3381221
-3.3597841 -1.5394084 3.2982268
-3.4083447 -1.5390651 3.1814291
-3.5251427 -1.5395702 3.2299883
-3.6078284 -1.5371511 3.195879
-3.6332753 -1.5405357 3.3982332
-3.6419404 -1.5400752 3.2785475
-3.6535008 -1.5369613 3.1189766
-3.6303868 -1.5406892 3.4381285
-3.0602975 -1.5396627 3.5572779
-3.1458652 -1.53959 3.4832633
-3.1857672 -1.5372072 3.4861615
-3.3083351 -1.5399053 3.4549201
-3.0191407 -1.5329008 1.9100201
-2.7781477 -1.5364959 3.5769675
-2.9545176 -1.5383098 3.9105694
-2.5144002 -1.5328761 2.2344217
-0.3492572 -1.5272156 -1.1629045
-0.34715492 -1.528288 -0.60147768
-0.089832738 -1.5276971 -0.38013867
-0.16061063 -1.5283575 -0.25448033
-0.28326169 -1.5229219 -0.28533706
-0.28026769 -1.5256813 -0.24546641
-0.28926441 -1.5249032 -0.36512604
-0.2922633 -1.5246438 -0.40501258
-0.29826599 -1.526625 -0.48480153
-0.3012698 -1.5288656 -0.52470398
-0.32015011 -1.5231225 -0.24245118
-0.3261528 -1.5251037 -0.32224014
-0.32915169 -1.5248444 -0.36212668
-0.33514953 -1.5243256 -0.44189978
-0.3381533 -1.5265661 -0.4818022
-0.27127582 -1.5289593 -0.12582268
-0.27726388 -1.5234407 -0.20556398
-0.29616371 -1.5276973 0.076625258
-0.30516532 -1.5294192 -0.043050252
-0.30815935 -1.52666 -0.082920901
-0.31415716 -1.5261412 -0.16269398
-0.31715608 -1.5258818 -0.20258053
-0.11862103 -1.5294887 0.30394712
-0.21039128 -1.5283337 0.15039966
-0.23828295 -1.5293124 0.31294516
-0.24128187 -1.529053 0.27305862
-0.24727967 -1.5285343 0.19328554
-0.25027859 -1.5282749 0.15339899
-0.27516159 -1.524513 0.35586283
-0.27816051 -1.5242537 0.31597629
-0.28415832 -1.5237349 0.23620321
-0.28715235 -1.5209757 0.19633256
-0.29316482 -1.5279567 0.1165118
-0.017849177 -1.528922 0.57717013
0.010042498 -1.5279433 0.4146246
-0.10662052 -1.5280262 0.46350917
-0.13750622 -1.5262456 0.58618402
-0.21127327 -1.5216469 0.67198759
-0.20826948 -1.5194063 0.71189004
-0.21727596 -1.5236281 0.59219861
-0.22027975 -1.5258687 0.55229616
-0.22928135 -1.5275905 0.43262067
-0.2481519 -1.5168476 0.71490526
-0.25415948 -1.5213287 0.63510036
-0.2571584 -1.5210694 0.59521383
-0.26316109 -1.5230505 0.51542491
-0.26616487 -1.5252912 0.47552246
-0.0058389069 -1.5224596 0.73676395
-0.085613526 -1.522342 0.74276263
-0.11650898 -1.5255612 0.86540568
-0.12249704 -1.5200427 0.78566438
-0.18729176 -1.5287217 0.99104816
-0.19627385 -1.5204438 0.87143618
-0.2301731 -1.5259036 0.95417684
-0.23616116 -1.520385 0.87443554
-0.23915519 -1.5176257 0.83456486
-0.24215409 -1.5173663 0.79467833
-0.24664757 -1.5144774 0.73486441
0.068568885 -1.5186386 1.2927862
0.059103008 -1.5188797 1.3336101
0.01814748 -1.5270344 1.0558404
-0.0097490735 -1.530513 1.21837
-0.021739827 -1.5269756 1.0588397
-0.058065958 -1.5187069 1.3424206
-0.086515024 -1.5256549 1.264287
-0.1478124 -1.5185747 1.3491691
-0.16029182 -1.5260561 1.3500588
-0.16628475 -1.5230374 1.2703016
-0.20318292 -1.5282379 1.3131557
-0.20017913 -1.5259973 1.3530581
-0.20618671 -1.5304785 1.2732533
-0.20918562 -1.5302191 1.2333667
-0.21218452 -1.5299597 1.1934801
-0.22118124 -1.5291816 1.0738206
0.20917976 -1.5205389 -1.2048477
0.16928756 -1.5229801 -1.2018642
0.12939538 -1.5254213 -1.1988808
-0.0040603019 -1.5283333 -0.30636427
-0.0070592104 -1.528074 -0.3462508
-0.013057027 -1.5275552 -0.4260239
0.04093308 -1.5272239 0.29196563
0.18459114 -1.5269753 0.60207582
0.17859821 -1.5239567 0.5223186
0.13272773 -1.5158793 0.44559255
0.11081435 -1.5273765 0.68784755
0.084860474 -1.5130539 0.40909615
0.049949322 -1.5180023 0.4116888
0.25446755 -1.5296278 0.99794185
0.20859705 -1.5215504 0.92121577
0.16269729 -1.5284728 0.84439439
0.13481049 -1.5269514 1.0069557
0.094923191 -1.5268927 1.0099552
0.088930249 -1.523874 0.93019795
0.085931346 -1.5236146 0.89031142
0.076929741 -1.5253365 0.7706359
0.39813536 -1.5243793 1.3080838
0.318351 -1.5292616 1.3140508
0.27846369 -1.5292028 1.3170501
0.19569992 -1.5238259 1.2831941
0.19869883 -1.5240853 1.3230805
0.18669344 -1.5280477 1.1635026
0.17769672 -1.5272696 1.043843
0.15280883 -1.5260077 1.2462909
0.10693346 -1.5204303 1.169549
0.10391992 -1.5276707 1.1296147
0.10993724 -1.5181898 1.2094514
0.33185521 -1.5134748 -1.1739116
0.26706052 -1.5221539 -0.96852779
0.27005455 -1.5249132 -0.92865711
0.26106268 -1.5216352 -1.0483009
0.25506976 -1.5186164 -1.1280581
0.25208062 -1.5133573 -1.1679128
0.24909146 -1.508098 -1.2077676
0.56581712 -1.5073891 -0.62987071
0.52140331 -1.5113038 -0.78701174
0.4506059 -1.5219641 -0.66141695
0.45360479 -1.5222235 -0.62153041
0.43262708 -1.512908 -0.90068853
0.40771478 -1.5241458 -0.69832003
0.35284269 -1.5177903 -0.89472163
0.32493639 -1.5262688 -0.73222381
0.5882808 -1.5136969 -0.43103218
0.57927918 -1.5154186 -0.5507077
0.57626563 -1.5226592 -0.59064192
0.49948505 -1.5253009 -0.54477257
0.37681934 -1.5273651 -0.57567698
0.53584528 -1.5075521 -0.59502596
0.49502084 -1.5074122 -0.60449117
0.58647776 -1.5203228 0.61201656
0.50368959 -1.5274457 0.57808101
0.42092586 -1.5220689 0.54422498
0.38402769 -1.5272692 0.58707905
0.63836563 -1.5189191 0.76857924
0.59246093 -1.5283413 0.69174194
0.55259317 -1.5182828 0.69480485
0.47580281 -1.5259244 0.74064243
0.47279903 -1.528165 0.70073998
0.43891931 -1.523625 0.78354424
0.41402164 -1.5273629 0.98596036
0.39904174 -1.5185664 0.78657532
0.39436084 -1.5156611 0.7242685
0.3930293 -1.5255474 0.70675457
0.3636393 -1.5157592 0.74914163
0.42301837 -1.5281411 1.10562
0.67703259 -1.5245923 -0.31743482
0.67305106 -1.508822 -0.43737403
0.63715994 -1.5170337 -0.3143878
0.62814856 -1.5237554 -0.43409511
0.62215561 -1.5207367 -0.5138523
0.61824393 -1.5078967 -0.5661239
0.60621041 -1.5077037 -0.59279609
0.83018094 -1.511603 -0.048069034
0.81471723 -1.5113252 -0.087018281
0.76882237 -1.5157475 -0.1638238
0.7379269 -1.5189668 -0.041180715
0.72891557 -1.5256885 -0.16088802
0.72292751 -1.52017 -0.24062932
0.72991991 -1.5099255 -0.28120214
0.69353747 -1.5103818 -0.19824225
0.65513873 -1.5260897 -0.075116232
0.64914095 -1.525571 -0.15488932
0.68107271 -1.5103635 -0.19730495
0.64614201 -1.5253116 -0.19477586
0.73494262 -1.5112077 -0.081019588
0.91497827 -1.5130026 0.14611481
0.86957473 -1.5251806 0.10933563
0.84468192 -1.5264186 0.31176767
0.82368469 -1.5271029 0.032546002
0.81179196 -1.5136154 0.2742101
0.78382665 -1.5120445 0.03564069
0.7918483 -1.513586 0.27570978
0.74391496 -1.5244855 0.038560584
0.80182499 -1.5111008 0.27497584
0.94245487 -1.5255924 0.54510415
0.89357573 -1.5222555 0.42845973
0.77991164 -1.5225979 0.51723087
0.70914352 -1.5182586 0.64292097
0.70312613 -1.5277396 0.5630843
0.94548309 -1.5108521 0.58508599
0.78292519 -1.5153575 0.55716509
0.91458273 -1.5165713 0.70771319
0.87768942 -1.5192719 0.75058317
0.8407864 -1.5269723 0.79342139
0.83649498 -1.5165997 0.73614806
0.75484604 -1.51632 0.71721768
0.71813536 -1.5215366 0.76256466
0.95447493 -1.5141302 0.70472974
0.95147598 -1.5138708 0.6648432
0.83782166 -1.5092133 0.75364608
0.98744339 -1.526983 1.1434181
1.01534 -1.5235044 0.98088849
0.96935415 -1.5141026 0.30247417
1.0551634 -1.5160137 0.57680601
1.0273097 -1.516148 0.6064775
1.0192404 -1.5204507 0.49925068
1.0162365 -1.5226914 0.45934823
1.0132377 -1.522432 0.4194617
1.059152 -1.5080098 0.49633077
0.98481786 -1.5143803 0.34142342
1.0492392 -1.5180446 0.89814788
1.0432365 -1.5200257 0.8183589
1.0715079 -1.5165795 0.66081506
1.0711281 -1.519047 0.6558134
1.0372533 -1.5120072 0.73863345
0.99735624 -1.5169483 0.74160105
1.2307926 -1.5206066 1.2455043
1.1559893 -1.5279962 1.2510804
1.1519932 -1.5197257 1.1310935
1.0642191 -1.5268412 1.0975329
1.0552322 -1.5210632 0.97790504
1.2357786 -1.520614 1.2451293
1.1898935 -1.5200365 1.1683556
1.1839151 -1.509518 1.0886461
1.1350262 -1.511181 0.9719699
1.0981232 -1.5188814 1.0148082
-9.4752884 -1.5450486 4.5427046
-9.5261269 -1.552081 4.3857899
-9.5688696 -1.53716 4.3487029
-9.605999 -1.5426025 4.3913269
-9.3817081 -1.552937 4.7367058
-9.3970165 -1.5373363 5.0986843
-9.3363132 -1.5530404 4.8137727
-9.2800465 -1.5363723 5.0505481
-9.2827454 -1.5436901 5.0106053
-9.3543825 -1.5347577 5.1358585
-8.7515259 -1.5382206 4.5731401
-8.7570305 -1.5353566 4.4933424
-8.7377701 -1.5441306 4.7726417
-8.7887011 -1.5361634 4.6158018
-8.8147888 -1.5523336 4.817997
-8.8202782 -1.5519696 4.7381864
-8.7614737 -1.5412831 6.1776075
-8.8467426 -1.5464404 6.1032596
-8.9402771 -1.5460516 5.9092207
-8.4377918 -1.5332713 4.4713922
-8.6111355 -1.533404 4.2828407
-8.6455202 -1.5390285 4.3653703
-8.6744146 -1.545017 4.52771
-8.6826801 -1.5394711 4.4080191
-8.7116203 -1.5379599 4.5703964
-8.4983864 -1.5350667 4.756217
-8.5327864 -1.5381913 4.8387585
-8.6690016 -1.5328815 4.607583
-8.6923285 -1.5517336 4.8496714
-8.7006102 -1.5436878 4.7299929
-8.3910351 -1.551365 5.1497073
-8.4474401 -1.5455338 4.9130445
-8.4818401 -1.5486584 4.9955859
-8.6868391 -1.5520977 4.9294815
-8.5247736 -1.542037 6.1212273
-8.6045685 -1.5450584 6.1267023
-8.4312544 -1.5399258 6.3152785
-8.4339218 -1.5522435 6.275311
-8.4366674 -1.5520614 6.2354059
-8.1721506 -1.5355365 4.252635
-8.2065811 -1.5336612 4.3352017
-8.2120399 -1.5382971 4.2553663
-8.2918806 -1.5338186 4.2608786
-8.3716908 -1.5343399 4.266366
-8.4061213 -1.5324646 4.3489327
-8.4088659 -1.5322827 4.3090277
-8.1681671 -1.5337094 4.893888
-8.2369509 -1.5424585 5.058959
-8.2686214 -1.5432653 5.1814189
-8.2796164 -1.5400373 5.0218101
-8.2878819 -1.5344914 4.9021192
-8.3277721 -1.5372521 4.9048505
-8.3566656 -1.5432405 5.0671902
-8.3594265 -1.5405587 5.0272975
-8.3649473 -1.5351948 4.9475121
-8.1296606 -1.5487572 5.4524994
-8.1461773 -1.5401654 5.2131052
-8.2575951 -1.551493 5.3410025
-8.2658453 -1.5484471 5.2212992
-8.189065 -1.5410438 6.3387094
-7.7718167 -1.5384206 4.826508
-7.7773376 -1.5330567 4.7467222
-7.7828116 -1.5351926 4.6668992
-8.0195122 -1.5344387 4.7232795
-8.0649071 -1.5343354 4.6462126
-7.7690873 -1.5361027 4.866426
-7.8777914 -1.5426126 5.0342531
-7.9548717 -1.5408159 5.0796585
-8.029192 -1.5417013 5.1649566
-8.0347128 -1.5363374 5.0851707
-8.0374422 -1.5386553 5.0452528
-8.0457077 -1.5331094 4.9255619
-7.7815118 -1.5431832 5.2681975
-7.7869864 -1.5453191 5.1883745
-7.8558316 -1.5440686 5.3534951
-7.9067321 -1.5411013 5.1966305
-7.9728017 -1.5450326 5.4016318
-7.9837971 -1.5418047 5.242023
-8.0099773 -1.5429753 5.4442935
-8.0072165 -1.5456573 5.4841862
-8.0127068 -1.5452932 5.4043756
-8.0154829 -1.5401114 5.3644953
-8.0182123 -1.5424293 5.3245773
-8.0209875 -1.5372474 5.2846971
-8.0264463 -1.5418833 5.2048616
-7.7650266 -1.5467752 5.5076165
-7.8819809 -1.5502391 5.5557404
-7.9590616 -1.5484426 5.6011457
-8.0044718 -1.5458393 5.5240912
-7.8009176 -1.5502087 6.1515884
-7.8381858 -1.5331519 6.1943245
-7.840838 -1.5479695 6.1543446
-7.9551558 -1.5341159 6.2424612
-7.5543776 -1.5304006 4.4908285
-7.5970273 -1.5304793 4.4536667
-7.6850719 -1.5304546 4.3394384
-7.7566471 -1.5315219 4.4646416
-7.5778127 -1.5317533 4.7330036
-7.6122122 -1.5348779 4.8155456
-7.7346873 -1.5329781 4.783884
-7.4759507 -1.5476876 5.0466838
-7.4815025 -1.537324 4.9669232
-7.4897528 -1.5342779 4.8472195
-7.5585055 -1.5480269 5.0122657
-7.6094675 -1.5350599 4.8554506
-7.6411376 -1.5358666 4.9779105
-7.7099056 -1.5471157 5.1429691
-7.7154264 -1.5417519 5.0631833
-7.7236924 -1.536206 4.9434924
-7.4277954 -1.5504729 5.1636434
-7.6535621 -1.5429473 5.3796821
-7.6590366 -1.5450832 5.299859
-7.6617503 -1.549901 5.2599287
-7.6879463 -1.5485718 5.4622111
-7.6961813 -1.5480257 5.3424954
-7.7044158 -1.5474797 5.2227798
-7.5654712 -1.5504717 5.4938731
-7.6797113 -1.5491178 5.5819273
-7.4101648 -1.5370563 6.0044851
-7.3784018 -1.5512491 5.8819509
-7.4872456 -1.5352597 6.0498905
-7.4898973 -1.5500772 6.0099101
-7.4926734 -1.5448954 5.9700298
-7.4981632 -1.5445313 5.8902192
-7.6151023 -1.5504953 5.9383311
-7.6468186 -1.5438021 6.0608277
-7.2144012 -1.5342803 4.1867604
-7.3231516 -1.5332904 4.3546252
-7.1333532 -1.53175 4.7826209
-7.2131629 -1.5322713 4.7881083
-7.3328776 -1.5330533 4.7963395
-7.4126878 -1.5335746 4.801827
-7.1539507 -1.5482842 5.0646267
-7.1167908 -1.5478415 5.0219779
-7.1195974 -1.5376599 4.9821224
-7.125103 -1.5347959 4.9023242
-7.1278167 -1.5396137 4.8623939
-7.1677065 -1.5423743 4.8651252
-7.2076111 -1.542635 4.8678689
-7.2503228 -1.532714 4.8307571
-7.2819157 -1.5460203 4.9531546
-7.3273568 -1.5384171 4.8761249
-7.3961253 -1.5496662 5.0411839
-7.4016304 -1.5468023 4.9613857
-7.4071512 -1.5414383 4.8815999
-7.4099116 -1.5387565 4.8417072
-7.1016936 -1.5488425 5.2414565
-7.103066 -1.5487516 5.2215042
-7.1457157 -1.5488303 5.1843424
-7.1058111 -1.5485696 5.1815987
-7.1064973 -1.548524 5.1716223
-7.1504531 -1.5490611 5.2247624
-7.3824005 -1.5505762 5.2407103
-7.3878903 -1.5502123 5.1608996
-7.1106143 -1.548251 5.1117644
-7.3097963 -1.5495771 5.1304712
-7.3479853 -1.5499516 5.1581559
-7.3973651 -1.550674 5.2417393
-7.1417174 -1.5495031 5.825583
-7.258718 -1.5454673 5.8737445
-7.3330688 -1.5413527 5.9590673
-7.335783 -1.5461706 5.9191375
-4.9196296 -1.5296503 -0.78426641
-4.9623594 -1.5295126 -0.82133603
-4.9937735 -1.5277455 -0.69879508
-4.9994292 -1.5298102 -0.77860731
-5.0022631 -1.5270926 -0.81849253
-5.036499 -1.5301077 -0.73587859
-4.9994292 -1.5298102 -0.77860731
-5.0421586 -1.5296724 -0.81567693
-5.0707388 -1.530623 -0.65325075
-5.0820584 -1.5297524 -0.81284738
-5.1021566 -1.5263559 -0.53069592
-5.1219583 -1.5298322 -0.81001776
-5.1477122 -1.5285004 -0.60767859
-5.181952 -1.5290157 -0.52505076
-5.1876159 -1.5260804 -0.60483509
-5.1904416 -1.5283626 -0.64474821
-5.1948595 -1.5305226 -0.7071045
-5.1989274 -1.5302097 -0.76445955
-5.2017574 -1.529992 -0.80435866
-5.0993266 -1.5265735 -0.4907968
-5.1392264 -1.5266534 -0.48796725
-5.1763 -1.524451 -0.44522461
-5.1791258 -1.5267333 -0.4851377
-4.8579478 -1.5306931 1.2164055
-4.8921919 -1.5287082 1.2990474
-4.8978558 -1.525773 1.219263
-4.9264193 -1.5367234 1.3816334
-4.9405732 -1.5331352 1.1821516
-4.9748087 -1.5361503 1.2647655
-5.0062189 -1.5368831 1.3872925
-5.0118785 -1.5364479 1.3074943
-5.0147166 -1.5312303 1.2676229
-5.0489526 -1.5342455 1.3502369
-5.0517945 -1.5265279 1.3103795
-4.8010764 -1.5269191 1.4529988
-4.8837137 -1.5218613 1.4187865
-4.9606752 -1.5272387 1.464317
-4.9864292 -1.5259069 1.6666561
-4.9949231 -1.5227541 1.5469726
-5.0263329 -1.5234869 1.6694996
-5.0235028 -1.5237045 1.7093987
-5.0291591 -1.5257692 1.6295866
-5.0319886 -1.5255516 1.5896873
-5.0376406 -1.5301161 1.5098612
-5.0404744 -1.5273986 1.4699761
-5.0433044 -1.5271809 1.430077
-4.6318502 -1.5247442 -0.68434805
-4.5976062 -1.5267289 -0.76698977
-4.66609 -1.5252594 -0.60172015
-4.6499705 -1.5293337 -0.76328993
-4.6830616 -1.5289533 -0.84114289
-4.7031598 -1.5255569 -0.55899149
-4.7600312 -1.5293307 -0.79558462
-4.8027606 -1.529193 -0.83265424
-4.791441 -1.5300636 -0.67305768
-4.8341703 -1.5299259 -0.71012723
-4.8419528 -1.5293274 -0.81984991
-4.8627625 -1.5233766 -0.54765934
-4.8712401 -1.5302235 -0.66739857
-4.8740702 -1.5300058 -0.70729768
-4.8825603 -1.5293528 -0.82699513
-4.9196296 -1.5296503 -0.78426641
-4.5693231 -1.5189056 -0.36794266
-4.5899739 -1.5267632 1.037016
-4.6298738 -1.5268431 1.0398456
-4.4960327 -1.5226917 1.2308805
-4.4847169 -1.5210624 1.390491
-4.2784128 -1.5235897 -0.78961229
-4.3239684 -1.5257343 -0.86659497
-4.3592653 -1.5286678 -0.79894322
-4.3638639 -1.5283141 -0.86377931
-4.3952861 -1.5215471 -0.74121058
-4.3656855 -1.5287645 -0.78345048
-4.4037681 -1.525894 -0.86093587
-4.4380116 -1.5239093 -0.77829409
-4.4835672 -1.5260539 -0.85527676
-4.5121593 -1.5195045 -0.69280887
-4.5234671 -1.5261338 -0.85244721
-4.5435648 -1.5227374 -0.57029575
-4.539238 -1.5297819 -0.6508432
-4.5527501 -1.5295298 -0.70000976
-4.5548849 -1.5218667 -0.72989237
-4.5577068 -1.526649 -0.76981932
-4.5633664 -1.5262136 -0.8496176
-4.5645113 -1.5296092 -0.68915075
-4.1740055 -1.5222702 1.2481432
-4.1456981 -1.5294466 1.6471068
-4.1541996 -1.5212938 1.5274512
-4.1856017 -1.5270265 1.6499503
-4.2025814 -1.5257207 1.4105554
-4.2283311 -1.5268888 1.6128807
-4.2396431 -1.5310181 1.4532562
-4.2654009 -1.5271864 1.6556094
-4.3053007 -1.5272663 1.6584389
-4.3222804 -1.5259603 1.419044
-4.3480344 -1.5246285 1.6213833
-4.3593502 -1.5262579 1.4617728
-4.387938 -1.5222086 1.6242267
-4.3964276 -1.5215555 1.5045294
-3.9507337 -1.5186036 -0.69252348
-3.9934552 -1.5234658 -0.72962087
-3.9592075 -1.5279505 -0.8122766
-4.0014067 -1.5278535 -0.84186506
-3.9634523 -1.527624 -0.87212527
-3.9748423 -1.5275351 -0.8913675
-3.9648674 -1.5275152 -0.89207488
-4.0272107 -1.52764 -0.88765371
-4.0817404 -1.5254725 -0.84367311
-4.0845666 -1.5277549 -0.88358623
-4.0845666 -1.5277549 -0.88358623
-4.1131544 -1.5237055 -0.72113222
-4.1216402 -1.5255524 -0.84084356
-4.1643658 -1.5279146 -0.87792712
-4.2014356 -1.5282122 -0.8351984
-4.2300272 -1.5216628 -0.67273051
-4.2316966 -1.5280495 -0.8731522
-4.2441649 -1.5280745 -0.87226796
-3.8802574 -1.5321718 0.86634487
-3.8431876 -1.5318743 0.82361615
-3.8853786 -1.5367774 0.79399979
-3.8491933 -1.5364118 0.73880261
-3.920157 -1.5322518 0.86917442
-3.9254551 -1.5368437 0.79433566
-3.9657166 -1.5318964 0.79220569
-3.9861071 -1.5241271 1.6358165
-4.0659108 -1.5217869 1.6414895
-3.6258724 -1.5208997 -0.6353755
-3.6343622 -1.5202467 -0.75507295
-3.6456738 -1.524376 -0.91469735
-3.6855817 -1.519456 -0.91183996
-3.6757348 -1.5284994 -0.63188034
-3.7141535 -1.5254065 -0.74944168
-3.7226553 -1.5172536 -0.86909735
-3.7254691 -1.5270357 -0.90905219
-3.7911348 -1.518284 -0.70384169
-3.7996128 -1.5251309 -0.82358086
-3.8052726 -1.5246956 -0.90337914
-3.8373508 -1.5274831 -0.86101806
-3.8652744 -1.5188791 -0.6183843
-3.8737602 -1.5207261 -0.73809564
-3.9079919 -1.5262412 -0.65549564
-3.9174864 -1.5274203 -0.89543498
-3.9249675 -1.5274353 -0.89490443
-3.66295 -1.5161973 -0.592619
-3.7028377 -1.5237771 -0.58983117
-3.7314215 -1.5222276 -0.42739114
-3.7399113 -1.5215747 -0.54708856
-3.8596146 -1.5193144 -0.53858596
-3.8853645 -1.5204825 -0.33626071
-3.8966882 -1.517112 -0.49584338
-3.8995183 -1.5168943 -0.53574252
-3.589087 -1.5212293 -0.11667273
-3.5947468 -1.5207939 -0.19647102
-3.6004107 -1.5178586 -0.2762554
-3.6745503 -1.5184537 -0.19079798
-3.7172799 -1.518316 -0.22786757
-3.7178366 -1.52707 0.89495361
-3.7662382 -1.5189971 0.77812755
-3.8032999 -1.5242946 0.82082838
-3.3550522 -1.5271873 -0.7749216
-3.4352055 -1.5273199 -0.77424991
-3.4690955 -1.5253624 -0.68662071
-3.4662695 -1.52308 -0.64670765
-3.4744151 -1.5276496 -0.72635692
-3.5460689 -1.5232399 -0.64104855
-3.5545628 -1.5200869 -0.76073205
-3.5630445 -1.5244339 -0.88045734
-3.5639248 -1.5268658 -0.89293975
-3.5916245 -1.5253844 -0.71803123
-3.6001222 -1.5197315 -0.83770078
-3.6057701 -1.5267961 -0.91754085
-3.3278141 -1.5292822 -0.39089236
-3.298193 -1.5159135 -0.53828669
-3.3409066 -1.5257756 -0.57541198
-3.3638225 -1.5296614 -0.33320147
-3.4065602 -1.5245237 -0.37024322
-3.4122281 -1.5190885 -0.45001367
-3.4436381 -1.5198214 -0.32748666
-3.5803208 -1.5162551 -0.55837893
-3.3191473 -1.5299488 -0.26870123
-3.3525028 -1.530532 -0.17360489
-3.3460302 -1.5298491 -0.29436341
-3.3892188 -1.5308567 -0.12588881
-3.3901031 -1.5307888 -0.13835728
-3.3980663 -1.5276766 -0.25055972
-3.4408121 -1.517539 -0.28757361
-3.4643843 -1.5309794 -0.12557077
