ply
format ascii 1.0
comment PCL generated
element vertex 1401
property float x
property float y
property float z
element camera 0
property float view_px
property float view_py
property float view_pz
property float x_axisx
property float x_axisy
property float x_axisz
property float y_axisx
property float y_axisy
property float y_axisz
property float z_axisx
property float z_axisy
property float z_axisz
property float focal
property float scalex
property float scaley
property float centerx
property float centery
property int viewportx
property int viewporty
property float k1
property float k2
end_header
-4.1311154 0.8267203 -4.0875511
-4.1701055 0.82663882 -4.0721879
-3.9740496 0.8669461 -4.13378
-4.0128584 0.86684805 -4.1159234
-4.0529342 0.86686581 -4.1155205
-4.0930104 0.86688358 -4.1151175
-4.1382132 0.86668652 -4.0817575
-3.8958097 0.66708052 -4.1608396
-3.8961513 0.70711273 -4.1655622
-3.9353018 0.74704683 -4.1524286
-4.0558715 0.78713232 -4.1559424
-3.8960903 0.82710999 -4.1647706
-4.0560322 0.8271479 -4.1581721
-3.9352407 0.86704409 -4.1516371
-3.9740496 0.8669461 -4.13378
-4.1341724 0.86700058 -4.1296749
-4.1737051 0.86696869 -4.1217918
-4.1760383 0.82695317 -4.1193814
-4.1336193 0.88695049 -4.1220627
-4.1735191 0.87695193 -4.1192327
-3.8448956 0.66721129 -4.184588
-3.8232198 0.74773794 -4.2658396
-3.8232198 0.74773794 -4.2658396
-3.8498418 0.74720961 -4.1836982
-3.77896 0.78733879 -4.208631
-3.706393 0.82299727 -4.3139281
-3.7255323 0.82746857 -4.2322965
-3.7113774 0.82799727 -4.3135328
-3.8193777 0.82738876 -4.2129507
-3.823179 0.82773614 -4.2653117
-3.6233218 0.86769605 -4.2745428
-3.7016635 0.86756611 -4.2488031
-3.7794623 0.86738664 -4.2155833
-3.8231778 0.83023608 -4.2652955
-3.8570008 0.66717857 -4.1786962
-3.8569398 0.78717583 -4.1779046
-2.9631507 0.62931842 -4.5722089
-2.9631305 0.66931754 -4.5719452
-2.9630897 0.74931568 -4.5714173
-2.9630692 0.78931481 -4.5711536
-2.9628475 0.86929643 -4.5681324
-2.9628475 0.86929643 -4.5681324
-3.0821497 0.82903641 -4.5196319
-3.1186259 0.86895388 -4.5041862
-3.0802605 0.70908868 -4.5280848
-3.0798578 0.7890538 -4.5225701
-3.0016563 0.86919838 -4.5502758
-5.3832192 0.30450493 -3.6567051
-5.4222293 0.26442435 -3.6416059
-5.4220076 0.34440598 -3.6385846
-5.3050179 0.38464954 -3.6844106
-5.3440075 0.38456807 -3.6690474
-5.4221683 0.38442162 -3.6408143
-5.3831377 0.46450126 -3.6556497
-5.4223084 0.46443632 -3.6427798
-5.3051376 0.50466335 -3.6861124
-5.3437653 0.50454879 -3.6657622
-5.4224691 0.50445193 -3.6450093
-5.3344955 0.54461372 -3.6761961
-5.3830972 0.54449946 -3.6551218
-5.4222679 0.54443449 -3.642252
-4.2476258 0.30642152 -4.0349183
-4.2494564 0.26658785 -4.0601163
-4.2552872 0.3064383 -4.036869
-4.329226 0.30658939 -4.0540595
-4.3684173 0.26652536 -4.0414538
-4.2492347 0.34656951 -4.0570951
-4.2506623 0.3867009 -4.0767784
-4.2887473 0.38653672 -4.0489483
-4.2098422 0.42661607 -4.0669436
-4.3280787 0.42648739 -4.0383077
-4.3685169 0.42653823 -4.0428915
-4.2872581 0.46640256 -4.0284734
-4.3684964 0.46653733 -4.0426278
-4.2876062 0.49393502 -4.0332785
-4.3285809 0.50653517 -4.04526
-4.2494946 0.54659802 -4.0607624
-4.3272934 0.54641849 -4.0275426
-4.4122515 0.54643762 -4.023881
-4.2904553 0.58669758 -4.0725627
-4.1310182 0.3066991 -4.0859952
-4.1310182 0.3066991 -4.0859952
-4.1703496 0.34664977 -4.0753546
-4.1317015 0.38676342 -4.0954409
-4.1509047 0.42669696 -4.083755
-4.1383967 0.50669473 -4.0841327
-4.1699061 0.50661302 -4.0693126
-4.1698861 0.54661208 -4.0690484
-2.9638772 0.26937631 -4.5820642
-2.9638569 0.30937538 -4.5818005
-2.9638162 0.38937357 -4.5812726
-2.9636147 0.4293561 -4.5785151
-2.963393 0.50933772 -4.5754943
-2.9635537 0.54935336 -4.5777235
-3.1147888 0.38904744 -4.5201817
-3.0922663 0.54904312 -4.5207553
-3.0802221 0.42907855 -4.5274386
-3.0803828 0.46909419 -4.5296683
-3.0411713 0.54915732 -4.5420103
-5.2638988 -0.055473946 -3.6702626
-5.2653265 -0.015342525 -3.6899457
-5.2919893 -0.015639363 -3.6428926
-5.2799253 -0.015375152 -3.6838729
-5.3838639 -0.055900224 -3.5963836
-5.4176655 -0.015999323 -3.5786252
-5.3019528 0.0043604835 -3.6420367
-5.3411136 0.024295077 -3.6290348
-5.4176455 0.023999762 -3.5783613
-5.3147926 0.064624086 -3.6808107
-5.3441706 0.064575374 -3.6711583
-5.3806262 0.064262301 -3.6208878
-5.4179869 0.064031929 -3.5830841
-5.3817058 0.076861262 -3.6357656
-5.4187045 0.07659781 -3.5929751
-5.4215994 0.079362422 -3.6328528
-5.4223108 0.10442802 -3.6426613
-5.1904826 0.14488304 -3.7294092
-5.4222908 0.14442711 -3.6423974
-5.226778 0.18478401 -3.7114697
-5.3439283 0.18455608 -3.6678734
-5.3830996 0.18449114 -3.6550035
-5.1954288 0.22488137 -3.7285194
-5.2662902 0.22475123 -3.7033226
-5.3442702 0.22458826 -3.6725962
-5.4222498 0.22442527 -3.6418698
-5.1483774 -0.05509714 -3.7362995
-5.1488795 0.024950657 -3.7432518
-5.148839 0.10494883 -3.7427239
-5.1879892 0.14488296 -3.7295902
-4.2492576 -0.0534379 -4.0572405
-4.2106094 -0.013324241 -4.0773268
-4.2479701 -0.013554608 -4.0395231
-4.2109776 -0.025790872 -4.082396
-4.2259116 0.026708385 -4.0809636
-4.2490358 0.026543729 -4.0542192
-4.2098446 0.066607766 -4.0668254
-4.2109408 0.04670747 -4.0819178
-4.2890911 0.066560574 -4.0535526
-4.3291674 0.066578336 -4.0531497
-4.3681369 0.10649593 -4.0375223
-4.3975148 0.10644722 -4.0278702
-4.4071264 0.10641444 -4.0221591
-4.2105279 0.1466721 -4.0762711
-4.3291264 0.14657651 -4.0526218
-4.2888489 0.18654129 -4.0502677
-4.3292871 0.18659213 -4.0548511
-4.4070859 0.1864126 -4.0216312
-4.289372 0.22658999 -4.0574837
-4.3682566 0.22650972 -4.0392241
-4.2478437 0.23393974 -4.03789
-4.2108464 0.23170324 -4.0806971
-4.0534029 -0.053113155 -4.1215901
-4.0533829 -0.013114071 -4.121326
-4.1237216 -0.053292908 -4.088913
-4.1116161 0.026969474 -4.1293654
-4.1706939 0.026673626 -4.0799589
-4.013628 0.066899426 -4.1261878
-4.1091027 0.066968486 -4.1292825
-4.1311407 0.066704579 -4.0875783
-4.0928545 0.10685132 -4.1126513
-4.171196 0.10672142 -4.0869117
-4.1307173 0.18666875 -4.0818
-4.0929742 0.22686511 -4.1143532
-4.1310592 0.22670092 -4.0865231
-3.9366145 -0.052852143 -4.1701732
-4.0943232 0.066984572 -4.1328621
-4.2108693 0.18670426 -4.0809941
-3.0081775 -0.01068209 -4.5706792
-2.9643614 0.029414875 -4.588634
-2.9643412 0.06941396 -4.5883703
-2.963918 0.18937813 -4.582592
-2.9638977 0.22937723 -4.5823278
-2.9980817 0.22931212 -4.5698204
-3.1199641 0.019056059 -4.5222602
-3.1223505 0.22905134 -4.5206938
-3.1205428 -0.050892714 -4.5302024
-3.0421398 0.069234438 -4.5551505
-3.0806861 0.2291162 -4.5337448
-5.1469111 -0.37523869 -3.71597
-5.1860819 -0.37530366 -3.7031002
-5.2102923 -0.37536904 -3.6913164
-5.2243481 -0.3754513 -3.6777635
-5.2522573 -0.33563328 -3.6479001
-5.2633376 -0.37553281 -3.6624002
-5.2797055 -0.37563151 -3.6461728
-5.3010607 -0.37573007 -3.6295831
-5.3790402 -0.37589306 -3.5988567
-5.3989673 -0.33589336 -3.5971446
-5.4160185 -0.33615741 -3.5558023
-5.1463275 -0.29529014 -3.7079623
-5.1860414 -0.29530546 -3.7025723
-5.302649 -0.29558304 -3.6514959
-5.3780942 -0.29597759 -3.5858619
-5.415998 -0.29615834 -3.5555384
-5.2244678 -0.25543749 -3.6794651
-5.3403511 -0.25578123 -3.6184151
-5.378798 -0.25591233 -3.5955718
-5.4161587 -0.25614271 -3.5577681
-5.1849146 -0.21540655 -3.6870844
-5.2625322 -0.21560262 -3.651371
-5.4166813 -0.216094 -3.5649843
-5.2244272 -0.17543933 -3.6789374
-5.3015018 -0.17568502 -3.6357439
-5.3814316 -0.17589755 -3.5973563
-5.4172039 -0.17604528 -3.5722005
-5.1855979 -0.13534221 -3.6965301
-5.1482396 -0.14011173 -3.7343669
-5.340652 -0.13575089 -3.6226101
-5.1581903 -0.095112458 -3.7333457
-5.224205 -0.095457703 -3.6759162
-5.2820563 -0.095637836 -3.6441445
-5.30128 -0.095703393 -3.6327229
-5.3404508 -0.095768347 -3.619853
-5.3787165 -0.095916003 -3.594516
-5.4168015 -0.096080199 -3.5666859
-5.1084518 -0.35010815 -3.7386487
-5.0704994 -0.25492957 -3.7683454
-5.1092267 -0.095031276 -3.7494333
-5.1184177 -0.33510819 -3.7378256
-5.1109171 -0.29510933 -3.7381046
-5.1208706 -0.25510994 -3.7371168
-4.2109532 -0.33330038 -4.0819311
-4.2497215 -0.25340024 -4.0635467
-4.2112746 -0.25326914 -4.08639
-4.2495198 -0.21341769 -4.0607896
-4.2492981 -0.13343607 -4.0577683
-4.2112136 -0.13327187 -4.0855985
-4.2891726 -0.093435764 -4.0546079
-3.9775405 -0.30026254 -4.1813765
-3.9002199 -0.25276601 -4.1866746
-3.8977201 -0.24026637 -4.1867733
-3.9776771 -0.21274802 -4.1832924
-3.9874697 -0.21276425 -4.1800752
-4.0868859 -0.37302214 -4.1338148
-4.0941849 -0.37303844 -4.1307783
-4.1043196 -0.33302253 -4.1322837
-4.1717825 -0.33323544 -4.0948009
-4.0319691 -0.25302655 -4.1370053
-4.084331 -0.25302497 -4.133204
-4.0943141 -0.27052426 -4.1325955
-4.1708364 -0.25331998 -4.0818062
-4.0693502 -0.21302633 -4.1340261
-4.0094876 -0.17302908 -4.1381068
-4.001987 -0.13303022 -4.1383862
-4.1092043 -0.13302694 -4.1306019
-3.9994729 -0.093031205 -4.1383033
-4.0140715 -0.093063831 -4.1322303
-4.0792627 -0.093028769 -4.1325107
-4.1312261 -0.1007916 -4.0886836
-4.1116776 -0.093027778 -4.130157
-4.1707549 -0.093323633 -4.0807509
-4.1711221 -0.10329032 -4.0858035
-3.9768534 -0.37282705 -4.1718812
-3.9768331 -0.33282799 -4.1716175
-4.0158434 -0.37290856 -4.156518
-4.0158229 -0.33290946 -4.1562538
-4.0551953 -0.37295696 -4.1461415
-4.0945268 -0.33300629 -4.1355009
-3.9367163 -0.25284758 -4.1714926
-3.9764302 -0.2528629 -4.1661029
-4.094305 -0.25302467 -4.1324797
-3.9368362 -0.13283378 -4.1731944
-4.2110729 -0.21328658 -4.0836329
-4.2010384 -0.093289629 -4.0835652
-3.8206925 -0.33251855 -4.230577
-3.8600242 -0.29256788 -4.2199364
-3.780576 -0.25253814 -4.2304521
-3.7803745 -0.2125556 -4.227695
-3.8585148 -0.17270295 -4.1991978
-3.8902259 -0.21276723 -4.1871347
-3.872731 -0.13276958 -4.1878743
-2.9645653 -0.37057596 -4.5912728
-2.964545 -0.3305769 -4.5910091
-2.9645245 -0.2905778 -4.5907454
-2.9646852 -0.25056219 -4.5929747
-2.9644837 -0.21057963 -4.5902176
-2.964443 -0.13058147 -4.5896897
-2.9642417 -0.090598918 -4.5869327
-3.0082183 -0.090680256 -4.571207
-3.145097 -0.37093425 -4.5230231
-3.1596956 -0.37096688 -4.5169501
-3.1250069 -0.090941273 -4.522624
-3.081897 -0.37078735 -4.5501699
-3.0816956 -0.33080482 -4.5474129
-3.0430269 -0.25069207 -4.567235
-3.1208258 -0.2508716 -4.5340152
-3.1200404 -0.13094051 -4.5232501
-3.0420403 -0.090778448 -4.5537124
-9.4287634 -0.57634336 -0.4506942
-9.4293356 -0.53632432 -0.45550498
-9.5073671 -0.57689369 -0.42772937
-9.5074234 -0.53690481 -0.42505801
-9.5874319 -0.57751942 -0.3896282
-9.5926485 -0.53755045 -0.38910675
-9.5465794 -0.45721734 -0.40449184
-9.5906105 -0.45753756 -0.38892421
-9.598321 -0.41758361 -0.38823065
-9.6259127 -0.39024925 -0.3862159
-9.6309719 -0.37777957 -0.38581634
-9.4695206 -0.33661982 -0.43939495
-9.5087366 -0.3369 -0.42666554
-9.5090532 -0.37186885 -0.43430281
-9.5474358 -0.33721042 -0.40645397
-9.5937891 -0.33755571 -0.38822019
-9.4307051 -0.2963306 -0.45444113
-9.5087929 -0.29691112 -0.42399418
-9.5870523 -0.29748157 -0.39604127
-9.1341438 -0.5729838 -0.82936871
-9.1961746 -0.49356711 -0.77715319
-9.1728392 -0.45333767 -0.79864907
-9.134656 -0.45299703 -0.82634276
-9.1741848 -0.4134343 -0.77834731
-9.1345968 -0.37302935 -0.818506
-9.173296 -0.37333977 -0.79829443
-9.196599 -0.37374642 -0.73654449
-9.1728354 -0.33338112 -0.78814095
-9.1843567 -0.33367252 -0.73722756
-9.1322985 -0.29319263 -0.77824664
-9.1324568 -0.29568249 -0.78075176
-9.1695356 -0.30858323 -0.73814923
-9.132987 -0.29315233 -0.78822285
-9.1377192 -0.29303637 -0.82047337
-9.1721983 -0.53431195 -0.5784952
-9.2001858 -0.57394731 -0.69701004
-9.2004137 -0.53394836 -0.69683278
-9.2716112 -0.53525388 -0.49395248
-9.3512478 -0.53574377 -0.48595193
-9.193408 -0.49469459 -0.51923406
-9.1851578 -0.49421179 -0.61753428
-9.3511324 -0.49576497 -0.48078653
-9.2008705 -0.45395046 -0.69647813
-9.2056866 -0.48397967 -0.69626695
-9.3910923 -0.456016 -0.47536194
-9.272296 -0.41525707 -0.49342057
-9.3118429 -0.44800618 -0.48831731
-9.3517609 -0.415757 -0.48292598
-9.1853218 -0.37456727 -0.53684872
-9.1960783 -0.37409875 -0.65639085
-9.1988325 -0.37393758 -0.69629562
-9.2722664 -0.39026779 -0.4908157
-9.1780682 -0.33452335 -0.5371877
-9.1948376 -0.33466858 -0.52600694
-9.1888247 -0.33405483 -0.65672982
-9.2335367 -0.334979 -0.50579536
-9.2732687 -0.33522895 -0.50054806
-9.3798237 -0.33591396 -0.48317254
-9.1710739 -0.29430324 -0.5776034
-9.1957541 -0.29462934 -0.53580582
-9.176322 -0.29415709 -0.61733609
-9.181571 -0.29401091 -0.65706873
-9.1818304 -0.29383475 -0.69714552
-9.1957541 -0.29462934 -0.53580582
-9.233593 -0.29499012 -0.503124
-9.3128853 -0.29550013 -0.4901354
-9.3276777 -0.29560015 -0.48660886
-9.352273 -0.29577023 -0.4799
-9.3525324 -0.31074968 -0.4849546
-9.3916616 -0.29604036 -0.4696646
-9.1687603 -0.29363397 -0.72561252
-8.8346043 -0.57103866 -0.88261276
-8.8933401 -0.57162499 -0.82593584
-8.9358263 -0.57171381 -0.86059332
-8.9389811 -0.53154361 -0.90281475
-8.9707394 -0.57224584 -0.78551275
-8.9763041 -0.53193462 -0.86265081
-9.012537 -0.57237494 -0.81019396
-9.0164967 -0.57214326 -0.86755705
-9.0266447 -0.57219315 -0.86936277
-8.9201183 -0.49137437 -0.9164843
-8.9767036 -0.4919256 -0.86496758
-8.974206 -0.49223271 -0.79246819
-9.0128212 -0.49238709 -0.80734533
-9.0167809 -0.49215543 -0.86470836
-9.0570288 -0.49237517 -0.86694324
-8.8546371 -0.45135805 -0.83563936
-8.8177166 -0.47093633 -0.88337404
-8.936511 -0.45171696 -0.86006141
-8.9392653 -0.45155582 -0.89996612
-9.0021286 -0.45222253 -0.83047479
-9.014513 -0.46729711 -0.82968092
-9.0123653 -0.45210633 -0.86986333
-8.8352575 -0.41121903 -0.84182674
-8.8161659 -0.41104871 -0.85567361
-8.8565865 -0.41125837 -0.86040246
-8.821846 -0.4107163 -0.93797708
-8.8937368 -0.41165945 -0.81774449
-8.972168 -0.41221982 -0.79228562
-8.9776344 -0.41939729 -0.87212837
-8.9783649 -0.41185719 -0.88207126
-9.0131054 -0.41239926 -0.80449665
-9.017581 -0.41213739 -0.86934185
-9.017581 -0.41213739 -0.86934185
-9.0422611 -0.41246349 -0.82754427
-8.8549213 -0.37137023 -0.83279067
-8.8482161 -0.37111887 -0.88086587
-8.8217306 -0.37073749 -0.93281168
-8.900506 -0.37127772 -0.91234094
-8.9008074 -0.37875739 -0.91736227
-8.9328365 -0.37196082 -0.79984969
-9.0135059 -0.37239024 -0.80681342
-9.0176373 -0.37214851 -0.86667049
-9.0179815 -0.37212837 -0.87165856
-9.04249 -0.37246454 -0.82736695
-9.0957251 -0.37272903 -0.83622354
-8.8546333 -0.3314015 -0.82513124
-8.8162775 -0.33107096 -0.85033089
-8.8459501 -0.33110493 -0.88086063
-8.8570433 -0.33126047 -0.86004788
-8.8210974 -0.33078891 -0.92016417
-8.8616905 -0.33098853 -0.92738712
-8.9342699 -0.33189136 -0.81713068
-8.9554272 -0.3319408 -0.83321238
-8.948205 -0.33171967 -0.8738054
-8.9767561 -0.33198017 -0.8517881
-9.0379896 -0.33225942 -0.86761063
-9.0961256 -0.33272001 -0.83854026
-8.8156452 -0.29112238 -0.83768332
-8.8536558 -0.29147306 -0.80749559
-8.8158894 -0.30860177 -0.842749
-8.8170223 -0.29104179 -0.85763574
-8.8581314 -0.29121119 -0.8723408
-8.8201208 -0.29086047 -0.90252852
-8.8612318 -0.32101899 -0.91986066
-8.9010925 -0.32875869 -0.9171406
-8.9344978 -0.29189241 -0.81695336
-8.9375963 -0.29171112 -0.86184621
-8.9398346 -0.29158017 -0.89426881
-8.9556551 -0.29194185 -0.83303505
-8.9782906 -0.30440032 -0.87161857
-8.9792223 -0.29185027 -0.88403338
-9.0184383 -0.29213047 -0.87130398
-9.0457001 -0.29230547 -0.86691707
-9.057826 -0.29240057 -0.86106861
-9.0963535 -0.29272106 -0.83836299
-8.5961866 -0.52907187 -1.0191854
-8.69835 -0.53017479 -0.90187597
-8.777298 -0.53070492 -0.88389921
-8.6707153 -0.48987502 -0.9336921
-8.7452755 -0.49050099 -0.88845295
-8.6537457 -0.44959497 -0.97479618
-8.6984615 -0.45019701 -0.89653325
-8.7772379 -0.45073724 -0.87606245
-8.6990347 -0.41017792 -0.901344
-8.7774658 -0.41073829 -0.87588519
-8.6664124 -0.36984819 -0.93350434
-8.5880404 -0.32897684 -1.0289633
-8.661912 -0.3296431 -0.97374803
-8.6996632 -0.33016995 -0.90348345
-8.7388792 -0.33045015 -0.89075404
-8.5100088 -0.28840744 -1.056739
-8.5490532 -0.28869772 -1.0415155
-8.5884409 -0.28896782 -1.03128
-8.6175079 -0.2891981 -1.016745
-8.6621408 -0.28964415 -0.9735707
-8.6641178 -0.28968936 -0.96591651
-8.6668682 -0.28985029 -0.93314976
-8.6995468 -0.29019114 -0.89831805
-8.7389355 -0.29046127 -0.88808268
-8.7778063 -0.29076159 -0.87036514
-8.8049364 -0.57068259 -0.9247545
-8.8106089 -0.45071572 -0.92387843
-8.8133316 -0.41073176 -0.92352909
-8.8037796 -0.29085109 -0.88360864
-8.2500696 -0.56645823 -1.163512
-8.1965742 -0.44609123 -1.176742
-8.2750063 -0.44665161 -1.1512831
-8.2360182 -0.40637249 -1.1638353
-8.3145065 -0.36694399 -1.135705
-8.3507118 -0.36723939 -1.1156656
-8.1979475 -0.3260541 -1.1861862
-8.3149061 -0.32693496 -1.1380217
-8.3537779 -0.32723528 -1.1203042
-8.36341 -0.32731542 -1.1146278
-8.1978312 -0.28607529 -1.1810209
-8.2368755 -0.28636557 -1.1657974
-8.2441854 -0.28642061 -1.1627871
-8.3153067 -0.28692594 -1.1403385
-8.3686266 -0.28734645 -1.1141064
-8.4694796 -0.48813209 -1.0678608
-8.3919649 -0.44753247 -1.1031187
-8.4699364 -0.40813419 -1.0675063
-8.3530331 -0.36726445 -1.1129994
-8.3928776 -0.28753668 -1.1024094
-8.4320936 -0.28781685 -1.08968
-8.490345 -0.32825622 -1.065775
-7.9628325 -0.56427604 -1.2860731
-8.0791588 -0.52520829 -1.2252611
-8.1575346 -0.56575751 -1.2024735
-8.0786982 -0.48524964 -1.2151076
-7.9248176 -0.44396877 -1.3057528
-7.9631724 -0.44429931 -1.2805531
-8.1582193 -0.4457607 -1.2019416
-7.9241848 -0.40402019 -1.2931052
-7.9223199 -0.39913112 -1.2656485
-8.0420609 -0.36486179 -1.2547396
-8.0800714 -0.3652125 -1.2245518
-7.9256744 -0.32396185 -1.3077148
-7.9638572 -0.32430246 -1.2800212
-8.1194162 -0.34299326 -1.2117226
-7.9259024 -0.28396291 -1.3075376
-7.9307184 -0.28400296 -1.3046993
-7.9640856 -0.28430352 -1.2798438
-8.0034733 -0.28457364 -1.2696085
-8.0426893 -0.28485382 -1.256879
-8.0426893 -0.28485382 -1.256879
-8.1197443 -0.28549477 -1.2114677
-8.1596479 -0.28573468 -1.2087145
-7.6932096 -0.31599963 -2.8047543
-7.6754913 -0.31607085 -2.765882
-7.6682372 -0.2760269 -2.766221
-7.7105837 -0.31594858 -2.8386385
-7.7110133 -0.30092883 -2.8435602
-7.6228318 -0.55842203 -2.1690633
-7.6713433 -0.55815828 -2.2910123
-7.6864519 -0.51809329 -2.3248913
-7.6989541 -0.55799109 -2.364285
-7.6869721 -0.51774096 -2.4050448
-7.6229444 -0.47844431 -2.1637206
-7.6412354 -0.43835402 -2.2074037
-7.6798325 -0.45769757 -2.4052951
-7.6235452 -0.43342534 -2.1685092
-7.6247778 -0.39836583 -2.1833184
-7.672945 -0.39812222 -2.3002791
-7.6898909 -0.3979353 -2.364264
-7.6773887 -0.35803753 -2.3248703
-7.6268272 -0.34076661 -2.208004
-7.6278162 -0.31821683 -2.2203743
-7.64218 -0.31818101 -2.2469485
-7.6799426 -0.31774157 -2.3946984
-7.6576328 -0.27809587 -2.2858155
-7.6744905 -0.27807501 -2.3122175
-7.6733775 -0.27765733 -2.4050136
-7.677845 -0.27803963 -2.3245158
-7.6855874 -0.27790847 -2.3640764
-7.6402183 -0.5574047 -2.4209619
-7.6401582 -0.47743702 -2.413125
-7.6801748 -0.39769915 -2.4050293
-7.6415315 -0.35739988 -2.4225695
-7.6417599 -0.31740093 -2.4223921
-7.6418157 -0.27741206 -2.4197206
-7.690443 -0.52220494 -1.4024363
-7.7296586 -0.52248514 -1.3897069
-7.8171496 -0.56314474 -1.3537608
-7.6127558 -0.48161542 -1.4352
-7.6531768 -0.48182508 -1.4399289
-7.8461576 -0.48340735 -1.331389
-7.7299433 -0.44249731 -1.3868582
-7.8300443 -0.44339901 -1.3122917
-7.6133847 -0.40160745 -1.4373394
-7.8086033 -0.40305874 -1.361222
-7.8451085 -0.42598945 -1.3111817
-7.7694435 -0.36278969 -1.3712801
-7.8468423 -0.3634105 -1.330857
-7.6528845 -0.3218998 -1.4217614
-7.7696714 -0.32279074 -1.3711028
-7.5873237 -0.28140539 -1.4486766
-7.6527686 -0.281921 -1.4165959
-7.6919847 -0.2822012 -1.4038665
-7.7017884 -0.28227124 -1.4006841
-7.770072 -0.28278172 -1.3734195
-7.8474708 -0.28340253 -1.3329964
-7.5732555 -0.56132305 -1.4507781
-7.5734839 -0.5213241 -1.4506007
-7.5739403 -0.4413262 -1.4502462
-7.5743408 -0.40131718 -1.4525629
-7.5749693 -0.32130921 -1.4547024
-7.5750256 -0.28132033 -1.452031
-9.5047369 -0.85694677 -0.41400626
-9.5656538 -0.89739102 -0.39242327
-9.560894 -0.85736209 -0.39259014
-9.5442371 -0.77723914 -0.39842817
-9.4276781 -0.73634923 -0.44890937
-9.544981 -0.73720998 -0.40573299
-9.5452099 -0.69721103 -0.4055557
-9.5742769 -0.69744128 -0.39102051
-9.4675226 -0.65662146 -0.43831939
-9.5869751 -0.65751731 -0.38998282
-9.4675655 -0.64912164 -0.43828613
-9.5772276 -0.6174584 -0.39049381
-9.467865 -0.59662306 -0.43805343
-9.5848379 -0.59500396 -0.38987786
-9.1700411 -0.85335737 -0.79294002
-9.184144 -0.85349768 -0.7794373
-9.1324301 -0.81299764 -0.82544446
-9.2065582 -0.81380981 -0.73763448
-9.1327143 -0.73300982 -0.82259583
-9.1823349 -0.73348582 -0.77907747
-9.1920509 -0.73372197 -0.7383123
-9.1802969 -0.65347296 -0.7788949
-9.1337433 -0.61299282 -0.827052
-9.1918144 -0.89464378 -0.53098327
-9.1653852 -0.8542735 -0.58025777
-9.1856289 -0.89404011 -0.65921211
-9.1911058 -0.85389495 -0.69876742
-9.2308578 -0.89493406 -0.51575983
-9.3091173 -0.89550447 -0.48780692
-9.2696133 -0.85525554 -0.49287689
-9.1833315 -0.81420338 -0.61895275
-9.2037897 -0.81647092 -0.69774085
-9.195281 -0.81463063 -0.53793871
-9.3095741 -0.81550658 -0.4874523
-9.3883505 -0.81604683 -0.46698153
-9.1937037 -0.77457643 -0.54790968
-9.1810656 -0.77418941 -0.61894751
-9.2039185 -0.79397154 -0.69764107
-9.2707586 -0.77521735 -0.50249845
-9.3098602 -0.79549706 -0.48985767
-9.3499498 -0.76323777 -0.48696038
-9.3888063 -0.73604894 -0.46662691
-9.1613102 -0.69424772 -0.57989269
-9.1934719 -0.69461882 -0.53757888
-9.1790285 -0.69417655 -0.618765
-9.3102589 -0.69550973 -0.48692036
-9.1936998 -0.65461987 -0.53740156
-9.2322273 -0.65494037 -0.51469594
-9.2047167 -0.65397519 -0.69702053
-9.2712708 -0.65523058 -0.4994725
-9.3106594 -0.65550071 -0.4892371
-9.3502188 -0.65576077 -0.48149577
-9.1864462 -0.61457592 -0.53774053
-9.1742363 -0.61432481 -0.57867771
-9.2021914 -0.61413741 -0.65693849
-9.3106594 -0.65550071 -0.4892371
-9.3507919 -0.61574167 -0.48630655
-9.1655092 -0.89360809 -0.73076618
-9.2056341 -0.61393595 -0.70681942
-9.2050591 -0.5939768 -0.69675457
-9.3509626 -0.58574247 -0.48617357
-8.8510933 -0.89140689 -0.82262546
-8.8581791 -0.85600489 -0.92223209
-8.8187628 -0.89072382 -0.93511671
-8.818819 -0.85073495 -0.93244535
-8.8896208 -0.89172739 -0.79991984
-8.8754053 -0.85128617 -0.88092858
-8.9269428 -0.89211839 -0.75975591
-8.9300976 -0.8519482 -0.80197734
-8.9361229 -0.85159564 -0.88926893
-8.9372358 -0.85201335 -0.79647303
-8.971035 -0.85212767 -0.81418836
-9.0094767 -0.86744773 -0.79154927
-8.9876366 -0.8519609 -0.8731851
-9.0270205 -0.85255307 -0.7902782
-9.0484343 -0.85274845 -0.77376527
-9.0472326 -0.85249686 -0.82897842
-9.0521927 -0.85752672 -0.82865644
-9.0719128 -0.85282296 -0.78718078
-9.0892859 -0.86792755 -0.78604275
-8.8527412 -0.84382761 -0.84236723
-8.8629036 -0.81138843 -0.84153485
-8.8783875 -0.81112605 -0.92065603
-8.9306698 -0.81192911 -0.80678815
-8.9180317 -0.81154209 -0.87782598
-8.9700584 -0.81219923 -0.79655278
-9.0089302 -0.81249952 -0.77883524
-9.0096617 -0.8349486 -0.7914052
-8.9925928 -0.81216806 -0.83258682
-9.0147829 -0.81215709 -0.8636328
-9.0515881 -0.81257826 -0.81598669
-8.8921986 -0.77161974 -0.8268224
-8.8811102 -0.77114213 -0.92030662
-8.9302101 -0.77197045 -0.79663467
-8.9182606 -0.77154315 -0.87764865
-9.0112238 -0.77237976 -0.80858648
-9.0304918 -0.77221787 -0.86990511
-9.0540543 -0.77244836 -0.84823197
-9.064887 -0.77278012 -0.78734243
-9.0932703 -0.77272856 -0.83550256
-8.8533831 -0.73133051 -0.84186858
-8.8943205 -0.73150998 -0.8540796
-8.8986244 -0.73125815 -0.91643071
-8.9306107 -0.73196143 -0.79895139
-8.9710312 -0.73217112 -0.8036803
-8.9767113 -0.7318387 -0.88598377
-8.9955435 -0.73218518 -0.8320601
-9.015727 -0.73712885 -0.87078249
-9.049119 -0.73275161 -0.77323329
-9.0517006 -0.73260051 -0.81064403
-9.0549717 -0.73240912 -0.85803086
-8.817667 -0.69086003 -0.90180755
-8.8940363 -0.69121915 -0.91909164
-8.9351416 -0.69171065 -0.86112523
-8.9380684 -0.69153941 -0.90352398
-8.9702263 -0.69223261 -0.78853869
-9.0097866 -0.6924926 -0.78079736
-9.011508 -0.69239193 -0.80573779
-9.0131006 -0.71479058 -0.830778
-9.0163279 -0.69210988 -0.87557107
-8.815485 -0.65100211 -0.86671364
-8.9536009 -0.65193236 -0.83463085
-8.9935055 -0.65217227 -0.83187759
-9.0158672 -0.65215123 -0.8654176
-9.0519848 -0.65261269 -0.80779535
-8.8203611 -0.61073118 -0.93387556
-8.8540678 -0.61133373 -0.84133667
-8.8950052 -0.61151314 -0.85354769
-8.9314671 -0.61195451 -0.80091351
-8.9354267 -0.61172283 -0.85827655
-8.9044695 -0.61128128 -0.91804868
-8.9756746 -0.61194259 -0.86051142
-9.0102434 -0.61249477 -0.78044271
-9.0523853 -0.61260366 -0.81011206
-9.0682945 -0.61279929 -0.78646111
-9.0943556 -0.61272269 -0.83728737
-8.8389597 -0.89195603 -0.68313092
-8.8813581 -0.8922109 -0.68020564
-9.0041695 -0.89274925 -0.71683872
-9.0440741 -0.89298916 -0.71408546
-9.0843229 -0.89320892 -0.71632028
-8.6614399 -0.84964442 -0.97588092
-8.7367725 -0.85038608 -0.90552926
-8.7629461 -0.8906104 -0.88884944
-8.6236572 -0.80929476 -1.0058913
-8.6972685 -0.81013715 -0.91059923
-8.7757587 -0.83068693 -0.88772309
-8.6237125 -0.76930588 -1.0032201
-8.6974964 -0.7701382 -0.91042191
-8.7755842 -0.77071875 -0.87997496
-8.6818161 -0.72994369 -0.93389559
-8.7758121 -0.7307198 -0.87979764
-8.6241693 -0.68930799 -1.0028654
-8.6673403 -0.68967861 -0.97482753
-8.7715693 -0.69066066 -0.88744664
-8.6245699 -0.64929897 -1.0051821
-8.6978369 -0.65016156 -0.90490192
-8.7377415 -0.65040141 -0.90214866
-8.776269 -0.65072191 -0.87944305
-8.6631527 -0.60963058 -0.97980517
-8.6725245 -0.60988688 -0.93405199
-8.7379704 -0.61040246 -0.90197134
-8.7763252 -0.61073303 -0.87677169
-8.8035669 -0.81067628 -0.92581838
-8.8040237 -0.73067838 -0.92546374
-8.8017578 -0.69066441 -0.92545855
-8.8044796 -0.65068048 -0.92510915
-8.195549 -0.68606478 -1.1827939
-8.1956615 -0.60608703 -1.1774513
-8.2747812 -0.60660714 -1.1619685
-8.2747812 -0.60660714 -1.1619685
-7.9228234 -0.88392699 -1.3151852
-8.0009108 -0.88450748 -1.2847383
-8.0394945 -0.8448391 -1.2593613
-8.1175814 -0.84541959 -1.2289144
-7.8844085 -0.80362874 -1.3325481
-8.001195 -0.80451965 -1.2818897
-8.1563368 -0.80574113 -1.2060314
-7.9231639 -0.76395029 -1.3096652
-7.961863 -0.76426065 -1.2894536
-8.0397787 -0.76485127 -1.2565126
-8.0783062 -0.76517177 -1.2338071
-8.1180382 -0.76542169 -1.2285597
-7.9230475 -0.72397149 -1.3044999
-8.0400219 -0.75234151 -1.2589513
-8.0788784 -0.72515267 -1.2386178
-8.1566219 -0.72575331 -1.2031828
-7.8847485 -0.68365204 -1.3270282
-7.9621477 -0.68427283 -1.286605
-8.0402641 -0.70984262 -1.258763
-8.1570215 -0.68574429 -1.2054995
-8.0789909 -0.64517492 -1.2332752
-8.1185503 -0.64543492 -1.2255337
-8.1575947 -0.64572519 -1.2103103
-7.8853774 -0.60364407 -1.3291676
-8.040864 -0.6048454 -1.2582974
-8.0797348 -0.60514575 -1.24058
-8.15765 -0.60573632 -1.207639
-8.040864 -0.6048454 -1.2582974
-7.639245 -0.87799013 -2.2895076
-7.6394734 -0.83799118 -2.2893302
-7.6544695 -0.87790394 -2.328552
-7.6348486 -0.86510813 -2.3699501
-7.636899 -0.83749807 -2.3972626
-7.6268287 -0.82309276 -2.2500474
-7.6551862 -0.79772985 -2.3682742
-7.635191 -0.80510968 -2.369684
-7.675827 -0.79780948 -2.3768737
-7.6748781 -0.79802597 -2.3268206
-7.6237564 -0.75829589 -2.1998785
-7.6242456 -0.79325473 -2.2100096
-7.6352482 -0.79510999 -2.3696396
-7.6377001 -0.75748003 -2.401896
-7.7077889 -0.75804579 -2.3644831
-7.6224356 -0.7183876 -2.1772547
-7.6573558 -0.71827543 -2.2475171
-7.6375837 -0.71750122 -2.3967307
-7.6977806 -0.71816301 -2.3249173
-7.698041 -0.71798682 -2.3649943
-7.698009 -0.67816406 -2.3247402
-7.6235805 -0.63834941 -2.1868763
-7.6689935 -0.63826698 -2.2639325
-7.638557 -0.63747311 -2.4038582
-7.6782889 -0.63772309 -2.3986108
-7.7034855 -0.63801897 -2.3642955
-7.6225038 -0.61592054 -2.1693182
-7.6428161 -0.59836477 -2.2079408
-7.638958 -0.62745321 -2.408802
-7.6962318 -0.59797502 -2.3646343
-7.6399899 -0.59740365 -2.4211392
-7.6228037 -0.56342191 -2.1690855
-7.6889052 -0.88216525 -1.4115142
-7.5717144 -0.80132681 -1.4493479
-7.7674494 -0.80274791 -1.3807126
-7.8448482 -0.80336869 -1.3402895
-7.5719423 -0.76132786 -1.4491706
-7.7678494 -0.76273888 -1.3830293
-7.5721707 -0.72132891 -1.4489933
-7.7677336 -0.72276008 -1.377864
-7.572227 -0.68134004 -1.446322
-7.689702 -0.68219066 -1.4056395
-7.7681341 -0.68275106 -1.3801807
-7.5726271 -0.64133102 -1.4486387
-7.6118431 -0.64161122 -1.4359093
-7.6911354 -0.6421212 -1.4229206
-7.768362 -0.64275211 -1.3800035
-7.5730276 -0.601322 -1.4509554
-7.5730276 -0.601322 -1.4509554
-7.6512871 -0.60189247 -1.4230025
-7.690331 -0.60218269 -1.407779
-7.7024565 -0.60227782 -1.4019306
-7.7290301 -0.60249311 -1.3875674
-7.7697525 -0.61018246 -1.3973176
-7.8458171 -0.60338402 -1.3369089
-7.571774 -0.88129449 -1.4571847
-9.4631224 -1.2166772 -0.42334336
-9.5488644 -1.2172927 -0.39487422
-9.5490923 -1.1772938 -0.39469689
-9.5417099 -1.1597492 -0.39513555
-9.5023346 -1.0970008 -0.4001058
-9.5025625 -1.0570019 -0.39992851
-9.5029631 -1.0169929 -0.40224525
-9.4249315 -0.9764235 -0.43002087
-9.4310083 -0.93640417 -0.44196963
-9.5041084 -0.93695474 -0.41186681
-9.5431519 -0.93724501 -0.39664334
-9.5429087 -0.94975471 -0.39420471
-9.5504618 -0.93730003 -0.39363307
-9.2293768 -1.2149055 -0.52216637
-9.2770271 -1.2146921 -0.63164514
-9.2775354 -1.215306 -0.49378434
-9.2164545 -1.1742276 -0.65821624
-9.2166824 -1.1342287 -0.65803891
-9.2374067 -1.1344644 -0.63154978
-9.256815 -1.0944697 -0.65510839
-9.2777119 -1.0946952 -0.63111323
-9.3845148 -1.0961704 -0.43580008
-9.1530628 -1.0542789 -0.56437433
-9.3829374 -1.0561161 -0.44577104
-9.2310343 -1.0148805 -0.52876198
-9.2687006 -1.0152514 -0.49358612
-9.3853149 -1.0161524 -0.44043356
-9.1146479 -0.97398055 -0.58173722
-9.1399879 -0.93412149 -0.58233321
-9.1540918 -0.9342618 -0.56883049
-9.1148338 -0.97147053 -0.58422017
-9.1203852 -0.96364844 -0.6639964
-9.1620102 -0.93379843 -0.68355662
-9.1921024 -0.93461251 -0.53864276
-9.1754246 -0.93397909 -0.66007769
-9.2302856 -0.93495315 -0.51094902
-9.3868046 -0.93609405 -0.4550432
-9.1550951 -0.90921211 -0.58118993
-9.1633005 -0.91872835 -0.70094842
-8.8056326 -1.1713914 -0.76925677
-8.80546 -1.1714014 -0.76676273
-8.8864183 -1.2117995 -0.7813859
-8.885169 -1.1893808 -0.76133382
-8.8056879 -1.1314025 -0.76658541
-8.8078661 -1.0513039 -0.79117125
-8.8095875 -1.0512031 -0.81611174
-8.8415174 -0.97161657 -0.76346713
-8.8517542 -0.9715004 -0.80285561
-8.9165668 -0.93206745 -0.75812745
-8.8124952 -0.90358609 -0.84538645
-8.8151636 -0.91842455 -0.88535768
-8.8179464 -0.9132635 -0.92524022
-8.8895922 -0.89672726 -0.79994196
-8.9267282 -0.89962828 -0.75729507
-8.801405 -1.1724434 -0.52647394
-8.7888775 -1.1823682 -0.52737868
-8.8144274 -1.2119888 -0.64602131
-8.8353243 -1.2122144 -0.62202621
-8.8350363 -1.1722456 -0.61436677
-8.8221693 -1.2118577 -0.68558186
-8.7998657 -1.1867234 -0.68701977
-8.8224297 -1.2116815 -0.72565871
-8.8414049 -1.171873 -0.70664644
-8.8671942 -1.1729388 -0.49938142
-8.8545923 -1.2120526 -0.68334484
-8.859808 -1.1720836 -0.68282342
-8.8814259 -1.2120917 -0.70905858
-8.9081316 -1.1731184 -0.51159245
-8.9125509 -1.2128453 -0.57910901
-8.8994846 -1.2123225 -0.68024743
-8.9438248 -1.1731218 -0.55674231
-9.0012188 -1.2132895 -0.59303862
-9.0732012 -1.2137444 -0.58306026
-9.0725689 -1.1737958 -0.57041276
-8.8311329 -1.1324885 -0.55433232
-8.8071413 -1.132122 -0.6061061
-8.8319941 -1.1324381 -0.56680256
-8.8344049 -1.1622863 -0.60434622
-8.8689289 -1.140349 -0.52168381
-8.8547878 -1.1322308 -0.64291346
-8.8770914 -1.1573651 -0.64147556
-8.8787842 -1.1322751 -0.66381115
-8.8996811 -1.1325006 -0.63981605
-8.9443054 -1.1335909 -0.45129886
-8.9258137 -1.1335465 -0.43753913
-8.9431725 -1.1511509 -0.43641216
-8.9465466 -1.1331378 -0.55639291
-8.9518795 -1.1331477 -0.56103688
-8.9682121 -1.1338013 -0.43461379
-8.9916992 -1.1332316 -0.59337234
-8.8256807 -1.092822 -0.47185153
-8.7873259 -1.0924914 -0.49705118
-8.8291388 -1.1201097 -0.52434838
-8.8330822 -1.0923887 -0.57909548
-8.8389359 -1.0920463 -0.66389304
-8.8717833 -1.1226883 -0.56151092
-8.8759136 -1.0924574 -0.61874104
-8.8788395 -1.0922862 -0.66113979
-8.8741884 -1.0928802 -0.52112907
-8.8968945 -1.0928391 -0.55965716
-8.9433718 -1.1161518 -0.436257
-8.9140921 -1.0931202 -0.51837581
-8.9937334 -1.0932879 -0.58304673
-8.9943361 -1.1082473 -0.59308946
-9.033638 -1.0935278 -0.58029354
-8.8255644 -1.0528431 -0.46668613
-8.7950277 -1.0695487 -0.60668945
-8.8376865 -1.0696275 -0.64384097
-8.8720827 -1.0701897 -0.56127822
-8.8775911 -1.0698674 -0.64108771
-8.905201 -1.053333 -0.45868558
-8.9064646 -1.0732518 -0.4787266
-8.9451056 -1.0535729 -0.45593232
-8.9855261 -1.0537826 -0.4606612
-8.9791651 -1.053511 -0.51372451
-9.0723934 -1.0538493 -0.5574106
-8.8658695 -1.013074 -0.46624961
-8.8940763 -1.0133547 -0.43924421
-8.9040241 -1.0184145 -0.43857807
-8.9451618 -1.013584 -0.45326099
-8.9115343 -1.0134596 -0.43803966
-8.9842052 -1.0138743 -0.43803748
-8.9912634 -1.0134612 -0.5402934
-9.0115557 -1.0138832 -0.47123337
-9.0726213 -1.0138505 -0.55723327
-8.8269978 -1.0127736 -0.48396713
-8.7899475 -0.99487305 -0.52654755
-8.7957563 -0.97204125 -0.6087513
-8.9096317 -1.0005926 -0.51830995
-8.9495506 -0.99833256 -0.51554561
-8.9552021 -0.9730109 -0.59524429
-8.9867582 -0.98873389 -0.47284332
-8.9923525 -0.97341198 -0.55258632
-8.7995996 -0.93183076 -0.66094899
-8.8755074 -0.95253164 -0.60066211
-8.9158697 -0.93275189 -0.6028083
-9.0792751 -0.93348992 -0.64666432
-8.8435869 -1.211731 -0.74174041
-8.8052883 -1.1714115 -0.7642687
-8.8047113 -1.0914741 -0.74894983
-8.8450127 -0.93174833 -0.73800516
-8.8850889 -0.93197817 -0.737746
-9.0440178 -0.93297803 -0.71675682
-9.0773325 -1.2135026 -0.64291739
-9.1015005 -1.2135369 -0.66630912
-9.1178656 -1.1337346 -0.64230353
-9.1192017 -1.1711429 -0.66491622
-8.8014069 -0.91673046 -0.68582296
-8.9239025 -0.91228908 -0.71744573
-8.9582129 -0.9278509 -0.63494951
-8.9610672 -0.91019022 -0.67477667
-8.998189 -0.91559118 -0.63214087
-9.0009575 -0.91293007 -0.6720345
-9.0353107 -0.92099208 -0.58950508
-9.0381784 -0.90083146 -0.62932116
-9.0751581 -0.93123174 -0.58679616
-9.0779266 -0.92857063 -0.62668979
-8.6222916 -1.169245 -1.0174633
-8.6940413 -1.210021 -0.93499082
-8.6743498 -1.2097249 -0.97644424
-8.6937819 -1.2101972 -0.89491397
-8.7316761 -1.1705691 -0.85956085
-8.7608595 -1.2107781 -0.85019106
-8.770031 -1.1708996 -0.8343612
-8.6605301 -1.1295967 -0.98709828
-8.6973925 -1.0900291 -0.93678087
-8.7019482 -1.0902452 -0.89386582
-8.7323046 -1.0905612 -0.86170024
-8.7706604 -1.0908916 -0.83650059
-8.6081839 -1.0491481 -1.0204579
-8.6613312 -1.0495787 -0.99173176
-8.733222 -1.0505219 -0.87149912
-8.7708883 -1.0508927 -0.83632332
-8.6109066 -1.0091642 -1.0201086
-8.6945782 -1.0102226 -0.88903934
-8.6877003 -1.0099813 -0.9346205
-8.7716331 -1.0108635 -0.84362811
-8.6232605 -0.96926033 -1.0140828
-8.6607552 -0.96964127 -0.97641283
-8.695323 -0.97019339 -0.89634418
-8.700139 -0.97023344 -0.89350599
-8.5914106 -0.92904633 -1.0211306
-8.6608257 -0.95714158 -0.97635746
-8.6962395 -0.93015414 -0.90614307
-8.734767 -0.93047464 -0.88343745
-8.7814331 -1.0112556 -0.76777428
-8.7821817 -0.97090441 -0.8477506
-8.7140617 -1.2115854 -0.60783952
-8.7149782 -1.1715461 -0.61763841
-8.7462044 -1.1847893 -0.49023828
-8.7505798 -1.1720378 -0.55253398
-8.7551708 -1.2117548 -0.62254459
-8.7590141 -1.1715443 -0.67474222
-8.7451153 -1.2112167 -0.73099309
-8.6874285 -1.1314024 -0.61436588
-8.7485695 -1.1321698 -0.51993412
-8.7480659 -1.1312338 -0.73046643
-8.6951389 -1.0914484 -0.61367232
-8.7162962 -1.0914979 -0.62975401
-8.7486258 -1.092181 -0.51726276
-8.7397709 -1.0918945 -0.57049811
-8.5515699 -1.0508516 -0.56327426
-8.5541525 -1.0507005 -0.600685
-8.6313791 -1.0513314 -0.55776781
-8.6083364 -1.0507486 -0.65959454
-8.6687012 -1.0517224 -0.51760387
-8.6725464 -1.0714902 -0.57505554
-8.682128 -1.0509367 -0.71213943
-8.7096968 -1.0718912 -0.53239757
-8.6931334 -1.0512583 -0.65374392
-8.7207136 -1.0712466 -0.69201648
-8.7086172 -1.0509959 -0.73286504
-8.7455835 -1.0523734 -0.46969858
-8.7430134 -1.0515583 -0.65030235
-8.7560043 -1.0512809 -0.72959554
-8.5901537 -1.0111833 -0.53789729
-8.5733881 -1.0107158 -0.62174952
-8.6301727 -1.0214127 -0.53768241
-8.6356382 -1.0285902 -0.61752516
-8.6410751 -1.0107784 -0.694763
-8.6696177 -1.0116831 -0.5274027
-8.6827002 -1.0109177 -0.71695018
-8.7071123 -1.0120641 -0.48973283
-8.7155046 -1.0190703 -0.6119743
-8.5903254 -1.0111731 -0.54039139
-8.5959911 -0.98335153 -0.62007892
-8.6302872 -1.0014133 -0.53759378
-8.6358957 -0.98359144 -0.61732566
-8.6383762 -0.97095072 -0.65218693
-8.6388931 -0.9709205 -0.65966904
-8.6756859 -1.0038308 -0.6146611
-8.6785393 -0.98617011 -0.65448827
-8.6812658 -0.99100876 -0.69441515
-8.7129068 -0.99173218 -0.57194769
-8.7183304 -1.0064094 -0.65182364
-8.7472601 -0.99979419 -0.48941824
-8.7528114 -0.99197209 -0.56919444
-8.7611742 -0.97398901 -0.68883109
-8.7247305 -1.0910043 -0.75196224
-8.7246141 -1.0510255 -0.74679685
-8.7650919 -1.0112463 -0.7488544
-8.7587461 -1.1723646 -0.48932248
-8.777277 -1.2115878 -0.68867928
-8.7727776 -1.1713827 -0.72892296
-8.7677574 -1.1315299 -0.689013
-8.7624769 -1.0918533 -0.60902619
-8.7605038 -1.091486 -0.68935192
-8.7629337 -1.0118554 -0.60867161
-8.7689304 -0.97135794 -0.72838056
-8.7816286 -0.93143392 -0.72734284
-7.922595 -0.92392594 -1.3153626
-7.7214794 -1.202397 -1.4030415
-7.7262955 -1.202437 -1.4002032
-7.5999889 -1.1214882 -1.4511955
-7.8055277 -1.1229794 -1.3793778
-7.843883 -1.12331 -1.3541782
-7.7269802 -1.0824401 -1.3996713
-7.7274518 -1.0299315 -1.4019326
-7.8445678 -1.0033131 -1.3536463
-7.7228489 -0.9624033 -1.4019775
-7.8052359 -0.96305406 -1.3612103
-7.6885052 -0.92217427 -1.4091974
-7.720583 -0.92238933 -1.4019724
-7.7669368 -0.92273468 -1.3837386
-7.5703487 -1.1612771 -1.4609199
-7.5707493 -1.121268 -1.4632366
-7.5710335 -1.0412802 -1.4603879
-7.5712619 -1.0012813 -1.4602106
-7.5715461 -0.92129344 -1.4573619
-7.8488712 -1.1233399 -1.353834
-7.8515935 -1.0833559 -1.3534846
-7.8493276 -1.043342 -1.3534794
-7.8500123 -0.92334515 -1.3529475
-7.8451099 -0.9083156 -1.3532251
-9.4597616 -1.5342596 -0.40230432
-9.5006847 -1.5369389 -0.41452643
-9.4722176 -1.5368345 -0.40145501
-9.5026054 -1.5018392 -0.43931174
-9.5794888 -1.5324793 -0.39403349
-9.619422 -1.5277193 -0.39125809
-9.6420393 -1.4978551 -0.38957641
-9.5021734 -1.4568806 -0.4291361
-9.6048574 -1.4576312 -0.39198026
-9.4629726 -1.4541005 -0.44185445
-9.5402412 -1.4172424 -0.39627698
-9.5402412 -1.4172424 -0.39627698
-9.5800314 -1.4374818 -0.39361238
-9.4260044 -1.3763776 -0.44409207
-9.4235096 -1.3763627 -0.44426414
-9.5010815 -1.3769734 -0.40633506
-9.5304928 -1.3771836 -0.396788
-9.5456858 -1.3372746 -0.39557821
-9.5359373 -1.2972156 -0.39608923
-9.4235058 -1.2564061 -0.43375605
-9.5021105 -1.2569563 -0.41079122
-9.5410681 -1.2722462 -0.39563423
-9.5436478 -1.2572616 -0.39539567
-9.1552916 -1.493507 -0.74391818
-9.2026072 -1.5062916 -0.74070412
-9.1125412 -1.4939165 -0.59651244
-9.189023 -1.5345765 -0.54629046
-9.1899405 -1.4945374 -0.55608928
-9.2266903 -1.5349474 -0.5111146
-9.3446817 -1.5357678 -0.47791439
-9.3837252 -1.5360581 -0.46269092
-9.3781929 -1.4959134 -0.48797029
-9.3853312 -1.4959786 -0.48246595
-9.1120243 -1.4639575 -0.58640331
-9.1174469 -1.4786348 -0.66627926
-9.3069553 -1.4554293 -0.50525349
-9.3459702 -1.4607195 -0.49005216
-9.3846989 -1.45603 -0.46981844
-9.1402636 -1.4137715 -0.66444242
-9.1893206 -1.4220997 -0.54080367
-9.2123623 -1.4542053 -0.65962946
-9.2756577 -1.4546858 -0.63270903
-9.2758865 -1.4146868 -0.6325317
-9.2689123 -1.4152558 -0.4951871
-9.2919111 -1.4548613 -0.61404616
-9.3529406 -1.4153278 -0.58712047
-9.3927889 -1.4555565 -0.58703858
-9.116497 -1.3737283 -0.64336741
-9.1578074 -1.3988769 -0.66317135
-9.1779022 -1.3739974 -0.66168392
-9.2362099 -1.3744479 -0.63510764
-9.2733603 -1.3748491 -0.59244967
-9.3447342 -1.3758224 -0.46473494
-9.2286921 -1.3349023 -0.52269828
-9.2750235 -1.3547589 -0.61480743
-9.3134928 -1.33509 -0.58951908
-9.1116171 -1.2940427 -0.56569737
-9.1169529 -1.2937304 -0.64301276
-9.1384544 -1.2937597 -0.66408259
-9.1626139 -1.2944381 -0.54213136
-9.2845612 -1.2953489 -0.49362272
-9.2928238 -1.2948655 -0.61333692
-9.3838902 -1.2961349 -0.44416875
-9.1502008 -1.2843634 -0.54294741
-9.1116724 -1.2540538 -0.56302601
-9.2052412 -1.254694 -0.5390287
-9.2872839 -1.255365 -0.49327335
-9.3067188 -1.2555151 -0.48441458
-9.3455906 -1.2558155 -0.46669707
-9.384119 -1.2861251 -0.44661847
-9.2023344 -1.4938121 -0.73566061
-9.1607647 -1.4536841 -0.71080202
-9.4033298 -1.4162416 -0.4458181
-9.3917723 -1.2561709 -0.44596925
-9.2932806 -1.2148676 -0.61298233
-9.3141775 -1.2150931 -0.58898717
-8.803463 -1.5213922 -0.76831418
-8.9631233 -1.5148519 -0.75726795
-8.9460859 -1.5318942 -0.83870369
-8.9669828 -1.5321199 -0.81470853
-8.8435669 -1.4866331 -0.76540577
-8.807478 -1.4511825 -0.82037884
-8.9251251 -1.452023 -0.78219056
-8.9412947 -1.4520425 -0.79861641
-8.8466349 -1.4314733 -0.8050667
-8.8087387 -1.4111232 -0.8351658
-8.8542318 -1.4115188 -0.80446184
-8.9663486 -1.4321929 -0.79680699
-8.8843002 -1.3718659 -0.76463681
-8.8475504 -1.3314558 -0.80961156
-8.8252802 -1.3309886 -0.88632578
-8.8525715 -1.3561529 -0.88454372
-8.8521938 -1.3315059 -0.80427927
-8.8519335 -1.3316821 -0.76420248
-8.8841276 -1.3718759 -0.76214278
-8.8172455 -1.2914733 -0.76643425
-8.8472204 -1.328976 -0.80461234
-8.8444948 -1.3241373 -0.76468545
-8.8327303 -1.2912109 -0.84555542
-8.8128815 -1.318414 -0.88713074
-8.852828 -1.3111541 -0.88434428
-8.833251 -1.2908585 -0.92570901
-8.8541479 -1.2910842 -0.90171391
-8.8623981 -1.291567 -0.80341369
-8.8856173 -1.2918175 -0.77675241
-8.8871527 -1.324216 -0.80183697
-8.8899212 -1.3215549 -0.84173059
-8.89147 -1.2914752 -0.86154997
-8.8070698 -1.2512784 -0.79704589
-8.8462849 -1.2515587 -0.78431648
-8.8447657 -1.2766385 -0.76447493
-8.810441 -1.2635766 -0.84698224
-8.8558111 -1.2709939 -0.92407167
-8.8902073 -1.2715563 -0.84150898
-8.887681 -1.2317184 -0.80142695
-8.8267851 -1.5325989 -0.52617687
-8.9123163 -1.4952573 -0.6003136
-8.949338 -1.5181577 -0.55775535
-8.983304 -1.5337397 -0.47027105
-8.9936247 -1.5337795 -0.47457081
-9.02493 -1.5338789 -0.49245825
-9.0263214 -1.5312984 -0.51239955
-9.0315275 -1.4935073 -0.58456063
-8.8325357 -1.4897776 -0.60579795
-8.8344717 -1.4521779 -0.63057214
-8.8725119 -1.4775178 -0.60298926
-8.9533243 -1.452948 -0.60984218
-8.9779558 -1.4926187 -0.71605891
-8.9988527 -1.4928442 -0.69206381
-9.0728655 -1.4536777 -0.59908837
-9.0784893 -1.4933342 -0.68406326
-9.0780296 -1.4533755 -0.67390978
-8.8207684 -1.4120286 -0.64639163
-8.8285103 -1.4118973 -0.68595219
-8.9154701 -1.4250979 -0.63990802
-8.9157133 -1.4125882 -0.64234668
-8.938508 -1.4123809 -0.71845758
-8.9993095 -1.4128463 -0.69170916
-9.0328445 -1.4134589 -0.59667623
-8.8737993 -1.3724803 -0.61250001
-8.8775864 -1.3722587 -0.66736901
-8.8861017 -1.3722433 -0.68181705
-8.9159412 -1.3725892 -0.64216936
-8.919385 -1.3723878 -0.69205028
-8.9594612 -1.3726176 -0.69179106
-8.9995375 -1.3728474 -0.6915319
-9.0332451 -1.3734499 -0.598993
-9.0721169 -1.3737503 -0.58127546
-9.0764198 -1.3734984 -0.64362663
-8.8332624 -1.3322918 -0.60260576
-8.8336067 -1.3322717 -0.60759383
-8.8387289 -1.3694584 -0.68507546
-8.8760509 -1.3398603 -0.64228451
-8.8663778 -1.3321244 -0.68301642
-8.9131861 -1.3427613 -0.59963763
-8.9197845 -1.3323787 -0.69436705
-8.9540091 -1.3329511 -0.60931027
-8.9997654 -1.3328484 -0.69135457
-9.03967 -1.3330884 -0.68860132
-9.0766487 -1.3334996 -0.64344931
-8.8312531 -1.2924238 -0.57000583
-8.8706408 -1.292694 -0.55977046
-8.8708134 -1.2926838 -0.5622645
-8.8666058 -1.2921253 -0.6828391
-8.8782148 -1.2922508 -0.66950846
-8.8960133 -1.2926576 -0.60062051
-8.8987675 -1.2924964 -0.64052528
-8.9157057 -1.2929537 -0.55916709
-8.9932804 -1.2932423 -0.5939095
-9.0561514 -1.2932649 -0.66976112
-9.0768766 -1.2935005 -0.64327198
-8.7893391 -1.2523159 -0.54015917
-8.8299322 -1.2525156 -0.54738212
-8.7911472 -1.2672048 -0.56766015
-8.8338909 -1.2522838 -0.60474515
-8.7977734 -1.2518224 -0.6623674
-8.8383665 -1.2520219 -0.66959035
-8.8420973 -1.2618001 -0.7245037
-8.8791332 -1.2822006 -0.68193436
-8.8992567 -1.2523214 -0.68042475
-8.9517107 -1.2531143 -0.56905091
-8.993165 -1.2532636 -0.5887441
-9.0724573 -1.2537736 -0.57575542
-8.9617023 -1.4924432 -0.73472178
-8.8417015 -1.4517548 -0.73532206
-8.921854 -1.4522145 -0.73480368
-8.961587 -1.4524645 -0.72955638
-8.8419857 -1.3717669 -0.73247343
-8.8836117 -1.3719062 -0.75466061
-8.9229994 -1.3721763 -0.74442524
-8.922883 -1.3321974 -0.73925984
-8.8434753 -1.2917087 -0.74708307
-8.8426704 -1.2517701 -0.73194152
-9.106636 -1.5339258 -0.58705771
-9.104599 -1.4539129 -0.5868752
-9.1151276 -1.4934434 -0.70659465
-8.8285828 -1.2176071 -0.52478057
-8.87391 -1.2325243 -0.60190326
-8.8766642 -1.2323631 -0.64180797
-8.9084053 -1.215587 -0.51926297
-8.9109745 -1.2479249 -0.55931181
-8.9936371 -1.230744 -0.59363246
-8.5000076 -1.5285461 -1.0198367
-8.5806618 -1.5014863 -1.0241845
-8.657444 -1.4896477 -0.97372973
-8.6935606 -1.4901092 -0.91610748
-8.6981525 -1.5298262 -0.98611808
-8.7015953 -1.5296247 -1.0359991
-8.7088938 -1.530646 -0.81497425
-8.727212 -1.5307006 -0.82623994
-8.5431223 -1.4486269 -1.0566336
-8.6206665 -1.4842266 -1.0213537
-8.6235056 -1.4690659 -1.0611919
-8.6578159 -1.4846277 -0.97869569
-8.6335964 -1.4491264 -1.0604149
-8.6934452 -1.4501305 -0.91094208
-8.699894 -1.4502358 -0.89546162
-8.7300787 -1.4505616 -0.86080199
-8.5825672 -1.4089081 -1.0437268
-8.6237202 -1.4315668 -1.0610257
-8.6634922 -1.4094836 -1.0180959
-8.733922 -1.4103512 -0.91299963
-8.7652187 -1.4110948 -0.7855441
-8.7597189 -1.4107729 -0.85107762
-8.616334 -1.3691996 -1.021188
-8.6610842 -1.3944689 -1.0182015
-8.6956224 -1.3700318 -0.93552792
-8.7320843 -1.3704731 -0.8828938
-8.7642431 -1.4011555 -0.77053553
-8.7725344 -1.3956721 -0.89022756
-8.7742262 -1.3705821 -0.91256315
-8.6595612 -1.3295814 -0.99047887
-8.7626696 -1.3307899 -0.85055089
-8.7728062 -1.3481734 -0.89001697
-8.583252 -1.2889113 -1.0431949
-8.6932249 -1.3076946 -0.89534616
-8.6910915 -1.2900039 -0.93551749
-8.7304754 -1.2905961 -0.85261065
-8.7701797 -1.3258351 -0.85001254
-8.7721014 -1.2907352 -0.87479782
-8.6218348 -1.2492429 -1.017818
-8.695447 -1.2500854 -0.92252582
-8.7456675 -1.2506871 -0.85140085
-8.770565 -1.2583369 -0.84971333
-8.6246529 -1.449006 -1.0760676
-8.5041351 -1.4083477 -1.0691857
-8.5045357 -1.3683387 -1.0715024
-8.779151 -1.4112451 -0.76954734
-8.8048391 -1.3710438 -0.84780288
-8.797554 -1.2911772 -0.80788767
-8.7961321 -1.3302803 -1.0086211
-8.8195238 -1.3305209 -0.98445392
-8.7728415 -1.2510282 -0.8094312
-8.7191439 -1.3462393 -0.69323552
-8.7200909 -1.3311894 -0.70563924
-8.7562227 -1.35914 -0.65063292
-8.7101622 -1.2917848 -0.55831325
-8.7042341 -1.291327 -0.65394735
-8.7363958 -1.2916981 -0.61163354
-8.7543707 -1.2917728 -0.6179111
-8.6837292 -1.2517365 -0.53491622
-8.7085981 -1.2643862 -0.53325087
-8.7113667 -1.2617251 -0.5731445
-8.7121124 -1.251685 -0.58307636
-8.7157269 -1.2514735 -0.63545132
-8.7168465 -1.2664026 -0.65297616
-8.7473688 -1.2521969 -0.51298386
-8.7164116 -1.2517554 -0.57275605
-8.762188 -1.2788198 -0.73008776
-8.7881498 -1.4916553 -0.68906003
-8.7785978 -1.3717747 -0.64913964
-8.7995272 -1.2915444 -0.72756201
-8.7198286 -1.2262425 -0.69270355
-8.7542248 -1.2268047 -0.61014086
-8.7624874 -1.2263212 -0.72985506
-8.1885185 -1.5261736 -1.1540948
-8.2348442 -1.486374 -1.1682783
-8.3067684 -1.5119843 -1.1233221
-8.3467436 -1.4997246 -1.1205134
-8.1920738 -1.4459944 -1.198633
-8.2600126 -1.446525 -1.1663803
-8.3482485 -1.4471555 -1.1377391
-8.1924744 -1.4059854 -1.2009497
-8.2329388 -1.4286844 -1.2082723
-8.2702169 -1.4065861 -1.1655147
-8.3890696 -1.4073561 -1.1447847
-8.2730427 -1.3939252 -1.205364
-8.3100052 -1.3668472 -1.157596
-8.3894701 -1.3673471 -1.1471014
-8.4223204 -1.3676779 -1.1147637
-8.3363504 -1.5273401 -1.0812469
-8.4226084 -1.5279253 -1.0602598
-8.464119 -1.4880856 -1.0772816
-8.386776 -1.4474759 -1.1150334
-8.4273653 -1.327719 -1.1117482
-8.4989185 -1.4483167 -1.0697072
-7.9515018 -1.5245932 -1.2055309
-8.0329456 -1.5099827 -1.2224044
-8.0360146 -1.4848121 -1.2646923
-8.1102591 -1.5256032 -1.1820477
-8.1137581 -1.4854128 -1.2292572
-8.0610113 -1.4449732 -1.2603002
-8.1528873 -1.4707035 -1.2139673
-8.0758591 -1.4050844 -1.2541022
-8.1147308 -1.4053848 -1.2363847
