ply
format ascii 1.0
comment PCL generated
element vertex 660
property float x
property float y
property float z
element camera 1
property float view_px
property float view_py
property float view_pz
property float x_axisx
property float x_axisy
property float x_axisz
property float y_axisx
property float y_axisy
property float y_axisz
property float z_axisx
property float z_axisy
property float z_axisz
property float focal
property float scalex
property float scaley
property float centerx
property float centery
property int viewportx
property int viewporty
property float k1
property float k2
end_header
-5.1651678 1.4099299 -0.77086574
-4.966795 1.4504102 -0.79975289
-3.1299305 1.4139775 -0.91018558
-3.3685246 0.69353801 -0.90220547
-3.2480698 0.77370822 -0.89778006
-3.2488415 0.81376195 -0.9075321
-3.3674634 0.25351855 -0.89966846
-3.367769 0.33353072 -0.90171665
-3.208765 0.37389043 -0.92029315
-3.2478609 0.5337261 -0.90161037
-3.3670776 0.013522783 -0.90100509
-3.3670292 0.093507767 -0.89806581
-3.2077682 -0.02612971 -0.91753346
-3.2085078 0.21389326 -0.92118424
-3.3666112 -0.38645655 -0.90572643
-3.3666756 -0.34645727 -0.90550363
-3.2066588 -0.38616416 -0.91205722
-3.2075591 -0.26611188 -0.92136371
-3.2867155 -0.22632679 -0.90550709
-7.222991 1.413692 -0.63387007
-5.4673166 1.3761358 -0.75793529
-5.7063699 1.3757697 -0.73606622
-5.4317365 1.4161174 -0.75015497
-5.1075354 1.4090687 -0.77306551
-5.267849 1.4164125 -0.77173603
-5.2721334 1.4163395 -0.76140934
-5.2671456 1.4163464 -0.76176101
-6.4568539 -0.80974346 -0.70701587
-6.4737744 -0.80983293 -0.69828737
-6.4792967 -0.80982226 -0.70541179
-6.4743257 -0.8048048 -0.70574826
-6.3371601 -0.80932337 -0.71557099
-6.3545589 -0.82688439 -0.71439332
-6.3546638 -0.79438484 -0.71426338
-5.7958989 -0.85242367 -0.75442708
-5.8656077 -0.88766825 -0.74957651
-5.8750472 -0.88773143 -0.74138272
-5.8732176 -0.84769505 -0.74888188
-5.8805695 -0.88772076 -0.74850714
-5.7560573 -0.83478391 -0.75720876
-5.8757191 -0.84520382 -0.74869365
-5.7787175 -0.76736355 -0.75533479
-5.7961569 -0.77242476 -0.75410718
-5.8360467 -0.77506477 -0.75126547
-5.8759284 -0.78020471 -0.74843377
-5.8884373 -0.76774865 -0.74749261
-5.9557004 -0.78798467 -0.74276036
-5.9956064 -0.78562474 -0.73989868
-6.0354719 -0.79576463 -0.73708695
-5.7562833 -0.76478487 -0.75692886
-5.9558053 -0.75548512 -0.74263042
-5.9956951 -0.75812513 -0.73978871
-6.0530162 -0.76832628 -0.7357294
-5.6364121 -0.81936401 -0.76570392
-5.7161674 -0.8321439 -0.76005048
-5.4545469 -0.76622587 -0.77850485
-5.4370351 -0.78366435 -0.77982241
-5.6364603 -0.8043642 -0.76564389
-5.43718 -0.73866498 -0.77964252
-5.7164092 -0.75714493 -0.7597506
-5.3569088 -0.88588291 -0.7859357
-5.4271169 -0.76612961 -0.78046536
-5.8755417 -0.90020305 -0.74891359
-5.3559375 -0.96591938 -0.77628106
-6.4301124 -1.3696482 -0.71103734
-6.4324279 -1.3696665 -0.7083655
-6.4325981 -1.372157 -0.71086907
-6.4326057 -1.369657 -0.71085912
-6.3926587 -1.3295269 -0.71105725
-6.392837 -1.3295175 -0.71355087
-6.3928289 -1.3320175 -0.71356088
-6.4326057 -1.369657 -0.71085912
-6.392837 -1.3295175 -0.71355087
-6.0730085 -1.5283946 -0.73716414
-6.1129146 -1.5260346 -0.73430246
-6.1478171 -1.5286571 -0.73181719
-6.1524482 -1.5286934 -0.72647351
-6.1727533 -1.5287447 -0.73003489
-6.1976895 -1.5288322 -0.72825259
-6.3448133 -1.5293485 -0.71773696
-6.3522944 -1.5293747 -0.71720225
-6.3252511 -1.4092802 -0.718683
-6.3128233 -1.3967365 -0.71952415
-6.3572817 -1.5293922 -0.71684581
-5.7538815 -1.5097746 -0.75990772
-5.7937307 -1.5249144 -0.75711602
-5.8336287 -1.5250545 -0.75426435
-5.8735189 -1.5276945 -0.75142264
-5.9134169 -1.5278344 -0.74857092
-5.9134169 -1.5278344 -0.74857092
-5.9533148 -1.5279745 -0.74571925
-6.0331106 -1.5282545 -0.74001586
-6.0331106 -1.5282545 -0.74001586
-5.4346576 -1.5211543 -0.78277129
-5.4745555 -1.5212942 -0.77991962
-5.5543513 -1.5215743 -0.77421623
-5.5942492 -1.5217143 -0.77136451
-5.6740932 -1.5069946 -0.76560116
-5.7139916 -1.5071346 -0.76274943
-7.3496466 -1.562875 -0.64602977
-7.3895607 -1.5580151 -0.64315808
-7.4693565 -1.5582951 -0.63745469
-7.5092545 -1.5584352 -0.63460296
-7.5890503 -1.5587152 -0.62889957
-7.628932 -1.5638552 -0.62606788
-7.0304546 -1.5642548 -0.66885334
-7.0703769 -1.5568949 -0.66597164
-7.1102991 -1.549535 -0.66308993
-7.1900868 -1.552315 -0.65739655
-7.2299767 -1.554955 -0.65455484
-7.3097644 -1.5577351 -0.64886147
-6.7512336 -1.5432749 -0.68873525
-6.7911315 -1.5434148 -0.68588352
-6.8709111 -1.5486948 -0.68020016
-6.9107933 -1.5538348 -0.67736846
-6.950707 -1.5489749 -0.67449677
-6.9906049 -1.5491149 -0.67164505
-6.4719558 -1.5397947 -0.70868713
-6.5916657 -1.5352149 -0.70011204
-6.6315556 -1.5378548 -0.69727033
-6.2325845 -1.5339546 -0.72577733
-6.2724824 -1.5340947 -0.72292566
-6.3123803 -1.5342346 -0.72007394
-6.0331106 -1.5282545 -0.74001586
-5.1154413 -1.5300338 -0.8056249
-5.1553392 -1.5301739 -0.80277318
-5.1952453 -1.5278139 -0.7999115
-5.2351356 -1.5304539 -0.79706979
-5.2750254 -1.5330939 -0.79422808
-5.3149314 -1.5307341 -0.7913664
-5.3548293 -1.530874 -0.78851467
-5.3947434 -1.5260141 -0.78564298
-9.2152243 -0.57483691 -0.51554424
-9.2181749 -0.49485403 -0.51501751
-9.2655611 -0.49513891 -0.51174802
-9.2755375 -0.49519888 -0.5110597
-9.2233915 -0.45488507 -0.51449603
-9.2186317 -0.41485614 -0.51466292
-9.2188597 -0.37485719 -0.5144856
-9.3013906 -0.33535302 -0.50862968
-9.3137751 -0.3504276 -0.50783581
-9.3238373 -0.33548796 -0.50708103
-9.2068462 -0.29478434 -0.51499134
-9.3139038 -0.32792819 -0.50773609
-9.2360735 -0.85496449 -0.51523668
-9.243783 -0.81501055 -0.51454312
-9.2542162 -0.73507261 -0.51350021
-9.2544441 -0.69507366 -0.51332289
-9.272131 -0.65517968 -0.51194102
-9.2199841 -0.61486584 -0.51537734
-9.272131 -0.65517968 -0.51194102
-9.2489834 -1.215045 -0.51579994
-9.2442236 -1.175016 -0.51596677
-9.2519341 -1.1350621 -0.51527327
-9.2523899 -1.0550642 -0.51491863
-9.2426424 -1.0150052 -0.51542968
-9.2106762 -0.93481249 -0.51731205
-9.2305002 -0.95743179 -0.51603514
-9.2308283 -0.89993334 -0.51578027
-8.9247599 -1.2130958 -0.5381701
-8.9449406 -1.1732168 -0.53661615
-8.8154793 -1.1324382 -0.54538691
-8.8057308 -1.0923793 -0.5458979
-8.8704615 -1.1127687 -0.54151255
-8.9404087 -1.093189 -0.53660572
-8.8059597 -1.0523803 -0.54572064
-8.8558397 -1.0526803 -0.54227906
-8.8706331 -1.0827694 -0.54137957
-8.950428 -1.0857491 -0.53588414
-8.9730597 -1.0533849 -0.53419137
-8.9782753 -1.0134159 -0.53366995
-8.7912951 -0.9997918 -0.54652035
-8.8312559 -0.99003196 -0.54372281
-8.8711605 -0.99027187 -0.54096955
-8.9110079 -1.0005115 -0.53826064
-8.9509554 -0.99325156 -0.53547412
-8.7154903 -1.1718374 -0.55244738
-8.7256947 -1.1318985 -0.55158174
-8.6935005 -1.0917046 -0.55364144
-8.5715208 -1.050971 -0.56189597
-8.6312637 -1.0713303 -0.55785477
-8.6711683 -1.0715702 -0.55510151
-8.584219 -1.011047 -0.56085825
-8.5917444 -1.0035921 -0.56030881
-8.671567 -1.001572 -0.55479121
-8.7115002 -0.99681205 -0.55201578
-8.7514191 -0.99455202 -0.54925144
-9.2487555 -1.255044 -0.51597726
-8.8032207 -1.5323677 -0.54784828
-8.8281898 -1.5275178 -0.54610538
-8.9080696 -1.5154979 -0.54054344
-8.9479313 -1.5232376 -0.53782344
-8.9878502 -1.5209776 -0.53505909
-9.0277405 -1.5237174 -0.53231692
-9.0526237 -1.5338671 -0.53064048
-8.7895117 -1.3122835 -0.54790556
-8.8696203 -1.2602648 -0.54216635
-8.8721571 -1.25278 -0.54196107
-8.7322636 -1.2919393 -0.55177474
-8.7496214 -1.3095437 -0.55064774
-8.7125397 -1.2518203 -0.55297405
-8.788228 -1.5372777 -0.54890293
-9.0675592 -1.5389569 -0.52963018
-8.4688358 -1.5628577 -0.57105082
-8.5087547 -1.5605978 -0.56828648
-8.5486593 -1.5608376 -0.56553328
-8.6284962 -1.5563176 -0.56000459
-8.6684151 -1.5540575 -0.55724025
-8.7482662 -1.5470375 -0.55170053
-8.1495724 -1.5659385 -0.593099
-8.189476 -1.5661783 -0.59034574
-8.2293663 -1.5689182 -0.58760357
-8.3091898 -1.5668981 -0.58208603
-8.3491087 -1.564638 -0.57932168
-8.4289312 -1.5626179 -0.57380408
-7.8303509 -1.5615194 -0.61511391
-7.9101596 -1.5619992 -0.6096074
-7.9500642 -1.5622391 -0.60685414
-8.0298586 -1.5652188 -0.60135877
-8.0697775 -1.5629587 -0.59859443
-7.5111442 -1.5546004 -0.63711774
-7.5510483 -1.5548402 -0.63436449
-7.5909386 -1.5575801 -0.63162231
-7.6707473 -1.5580598 -0.6261158
-7.7106519 -1.5582998 -0.6233626
-7.7904606 -1.5587796 -0.61785609
-5.085093 1.4166008 -0.77459884
-5.1274805 1.4090421 -0.77165949
-5.2072868 1.4139309 -0.76599896
-4.9279995 1.434319 -0.78556049
-4.8481998 1.4369301 -0.79117095
-4.4092536 1.3975416 -0.8223877
-4.0501437 1.3955414 -0.8477267
-4.1698465 1.3953749 -0.83928591
-4.2496505 1.3977637 -0.83364207
-3.6511514 1.4135962 -0.87574571
-3.7708447 1.4034299 -0.86737174
-3.8107388 1.3958745 -0.86460823
-3.8905404 1.3957635 -0.85898107
-3.9304528 1.4082077 -0.85608399
-3.6062675 1.4186585 -0.87887758
-3.6116068 1.4186846 -0.88351339
-3.1424201 1.4193039 -0.91158563
-2.6935079 1.3899292 -0.94343895
-2.9329407 1.4195954 -0.92635697
-3.2516687 0.89916337 -0.90732199
-3.3735704 0.57900083 -0.90084302
-3.3861868 0.73897976 -0.89889497
-3.3862605 0.81897789 -0.89836055
-3.3713114 0.83399832 -0.89931542
-3.3314381 0.86405319 -0.9019286
-3.2438927 0.57918125 -0.90998721
-3.2290034 0.65920019 -0.91050786
-3.2119722 0.73925561 -0.91619194
-3.2515628 0.7841661 -0.90809017
-3.2840145 0.81912017 -0.90557033
-3.2516317 0.8591643 -0.9075892
-3.2915397 0.86660862 -0.90472549
-3.3882387 0.25898749 -0.90192562
-3.388386 0.41898376 -0.90085679
-3.3859658 0.49898535 -0.90049821
-3.3461018 0.53903991 -0.90304458
-3.3710167 0.51400584 -0.90145308
-3.3710721 0.57400441 -0.9010523
-3.2115302 0.25926682 -0.91939843
-3.2115672 0.29926589 -0.91913122
-3.2118535 0.41927961 -0.92082334
-3.2513373 0.53917181 -0.90972686
-3.2513487 0.5516715 -0.90964335
-3.3880913 0.098991215 -0.90299445
-3.388165 0.17898935 -0.90246004
-3.2112725 -0.020726629 -0.92126894
-3.2233899 -0.020776972 -0.91540217
-3.2682781 -0.02083943 -0.91223687
-3.2907341 -0.0083709517 -0.91057074
-3.2113461 0.059271503 -0.92073447
-3.2112072 0.099254072 -0.91797352
-3.2110682 0.13923664 -0.91521257
-3.2385368 0.17919753 -0.91301101
-3.3876863 -0.34099853 -0.9059338
-3.3304346 -0.22592139 -0.90921009
-3.1931326 -0.38072693 -0.91991723
-3.2098858 -0.3808172 -0.90871131
-3.2106376 -0.32825243 -0.91833562
-3.2206383 -0.30076697 -0.91744846
-3.2082059 -0.26075056 -0.91806054
-3.2106929 -0.26825386 -0.91793478
-9.193408 -0.49469459 -0.51923406
-9.1948376 -0.33466858 -0.52600694
-9.1918144 -0.89464378 -0.53098327
-9.2308578 -0.89493406 -0.51575983
-9.2322273 -0.65494037 -0.51469594
-9.2293768 -1.2149055 -0.52216637
-9.2310343 -1.0148805 -0.52876198
-8.8311329 -1.1324885 -0.55433232
-8.9912634 -1.0134612 -0.5402934
-8.7505798 -1.1720378 -0.55253398
-8.5515699 -1.0508516 -0.56327426
-8.6313791 -1.0513314 -0.55776781
-9.1893206 -1.4220997 -0.54080367
-9.2286921 -1.3349023 -0.52269828
-8.8706408 -1.292694 -0.55977046
-8.8299322 -1.2525156 -0.54738212
-8.7101622 -1.2917848 -0.55831325
-9.1087847 -1.5491165 -0.54687536
-5.900166 -0.77148646 -0.73565066
-5.4609156 -0.77063483 -0.76178837
-5.3410358 -0.88289315 -0.77090353
-5.375936 -0.89046293 -0.76846945
-5.4206219 -1.0155506 -0.76598233
-5.4206381 -1.0055507 -0.76592666
-5.3817434 -0.93040419 -0.78080702
-5.3410034 -0.90289277 -0.77101493
-5.3809195 -0.89297283 -0.76812965
-5.3405252 -1.5303409 -0.78199065
-5.3499694 -1.5304017 -0.77380216
-6.8973045 -1.6533868 -0.68477482
-5.1005926 -1.5324023 -0.79150081
0.41752827 0.83624578 -1.1475247
0.41765344 0.51618844 -1.139587
0.49494505 -0.083801635 -1.1668497
0.41652924 0.036215875 -1.1451309
0.41523305 -0.24371272 -1.1568822
0.61450571 -0.42402539 -1.1705285
0.41471013 -0.70374107 -1.1548185
0.37468252 -1.0637225 -1.1466286
0.3726992 -1.5036149 -1.1643828
-9.2044802 1.3252995 -0.5211429
-9.1247272 1.3657682 -0.52397805
-8.5652056 1.3690764 -0.5500533
-9.3216791 1.004548 -0.50432545
-9.2831478 1.124825 -0.51652294
-9.2408457 0.76505423 -0.51588386
-9.2414742 0.8450622 -0.51802331
-9.2810345 0.84480214 -0.51028192
-9.2386227 0.28509706 -0.52549368
-9.2785273 0.28485718 -0.52274042
-9.2389631 0.40507376 -0.5199737
-9.2395926 0.48508173 -0.52211308
-9.2368498 0.12505092 -0.51373267
-9.2765818 0.12480094 -0.50848538
-9.2378225 0.20507902 -0.5208602
-9.1948948 -0.35465628 -0.52858979
-9.234395 -0.27494863 -0.51301169
-9.2748718 -0.23516944 -0.51506925
-9.2350798 -0.1549518 -0.51247978
-3.3264401 -0.44639188 -0.90639609
-3.3665166 -0.44645819 -0.90606022
-3.3666453 -0.36645958 -0.90561473
-3.2466247 -0.56621635 -0.91521722
-3.2863474 -0.56630987 -0.90989393
-3.2073522 -0.28612781 -0.91898108
-3.2463675 -0.28627571 -0.90368307
-4.2036543 -0.80814332 -0.84615082
-3.6451714 -0.84701043 -0.88848102
-3.4060144 -0.80651814 -0.90772927
-3.3263438 -0.72635972 -0.91294283
-3.2069983 -0.72609282 -0.9264189
-3.3653913 -0.9264769 -0.90374601
-3.1652656 -1.206086 -0.91695946
-3.2453222 -1.0462487 -0.91040927
-3.2058406 -1.0061423 -0.9180035
-3.2064998 -0.92610288 -0.92503905
-4.8419528 -1.5293274 -0.81984991
-3.9634523 -1.527624 -0.87212527
-3.5639248 -1.5268658 -0.89293975
-3.0852091 -1.3659234 -0.92350966
-3.0065997 -1.2856835 -0.94368541
-3.1661983 -1.286003 -0.93236721
-2.6863086 -1.5250944 -0.95768362
-3.6839616 -1.6470625 -0.89260048
-3.8036606 -1.6473023 -0.88411182
-3.8435605 -1.6473821 -0.88128227
0.41156033 1.2834858 -1.1461585
0.41156033 1.2834858 -1.1461585
0.37174237 1.3535074 -1.1427691
0.33185565 1.3585305 -1.1398001
0.25208488 1.3710766 -1.1338457
0.41096824 0.72349846 -1.1497792
0.41358837 0.8434943 -1.1491868
0.41109514 0.84349579 -1.1490033
0.41077116 0.36349034 -1.1496135
0.41062993 0.40350574 -1.1518481
0.40822124 0.48350537 -1.1511474
0.41112387 0.5234704 -1.1460859
0.410207 0.0035148198 -1.1544343
0.41477057 -0.39647901 -1.1573876
0.41015115 -0.39650872 -1.1520342
0.39981109 -0.39647031 -1.1562864
0.3599191 -0.39644712 -1.1533495
0.50710541 -0.31653446 -1.1636617
0.36997667 -0.31645471 -1.1535665
0.36748344 -0.31645328 -1.153383
0.52956581 -0.29654798 -1.1651843
0.36997667 -0.31645471 -1.1535665
0.41008013 -0.11648246 -1.1552101
-2.0059156 -1.524164 -0.99412376
-2.1655016 -1.531419 -0.98246747
-1.367642 -1.530143 -1.0409762
-1.4075298 -1.5275818 -1.0380337
-1.527203 -1.5248983 -1.0292387
-1.1681684 -1.525449 -1.055575
-1.2080661 -1.5278878 -1.052665
-0.88892436 -1.5283774 -1.076075
-0.29053852 -1.5317953 -1.119985
-0.52988982 -1.5289282 -1.1024112
-1.9500877 1.3716756 -0.99830955
-0.28235862 -1.5316579 -1.1106122
-0.48183498 -1.5313481 -1.0961546
-2.6336596 1.3921132 -0.94315881
-2.7533689 1.3945181 -0.93478698
-2.7932725 1.3969864 -0.93198431
-1.8754994 1.3752154 -0.99619234
-1.9154009 1.3701838 -0.99344414
-2.0351067 1.3600891 -0.98516327
-2.075011 1.3650573 -0.98234236
-2.1323757 1.3800113 -0.97823048
-2.1548247 1.3924932 -0.97657323
0.41208667 -0.57648033 -1.1583673
0.40969914 -0.47648117 -1.1575372
0.34738904 -0.45644537 -1.1528192
0.50699931 -0.41653907 -1.1643077
0.35989758 -0.41645351 -1.1534784
0.39983189 -0.37647763 -1.1561565
0.50708389 -0.33654088 -1.1637905
0.36994988 -0.34146103 -1.1537277
0.52954429 -0.3165544 -1.1653131
0.41487595 -0.29648814 -1.1567405
0.41025653 -0.29651788 -1.1513871
0.39991647 -0.29647943 -1.1556393
0.36995783 -0.33396119 -1.1536791
0.36251771 -0.29645771 -1.152886
0.58914965 -0.5365842 -1.1711407
0.61911094 -0.49660251 -1.1730846
0.56924599 -0.49657351 -1.1694137
0.61670226 -0.41660288 -1.1723838
0.40942425 -0.73647529 -1.1592183
0.41024297 -0.65654236 -1.1487283
0.64142334 -0.61661285 -1.1755124
0.58906507 -0.61658239 -1.1716579
0.42890504 -1.1764768 -1.1635314
0.42666554 -0.93648088 -1.1617962
-0.38925612 -1.5309932 -1.1056228
-0.070117548 -1.5286789 -1.1291008
0.32957086 -1.4964769 -1.1482857
0.27897173 -1.4963826 -1.1545875
0.24903159 -1.5163648 -1.1525142
0.39370349 -1.4564502 -1.1627722
0.31391951 -1.4564039 -1.1568986
0.4037188 -1.4164569 -1.1632477
0.32890016 -1.4364129 -1.1578705
0.40872642 -1.3964603 -1.1634855
0.33149913 -1.3364167 -1.1574075
0.3290059 -1.3364153 -1.1572241
-7.3414006 1.3977668 -0.63627464
-7.4212179 1.4050856 -0.63062859
-7.5009732 1.3799047 -0.62514907
-7.5408893 1.3873141 -0.62230682
-7.5807905 1.3872235 -0.61950302
-7.6206875 1.3846329 -0.61671203
-7.4212179 1.4050856 -0.63062859
-7.0221558 1.3809919 -0.6587947
-7.062057 1.3809013 -0.6559909
-7.2616124 1.405448 -0.6418438
-7.3015184 1.4078573 -0.63902718
-6.7428498 1.3841261 -0.67840856
-6.7827516 1.3840355 -0.67560476
-6.8625546 1.3838543 -0.66999716
-6.9024558 1.3837637 -0.66719335
-6.9822493 1.3785826 -0.66161132
-6.3837128 1.3724416 -0.70370686
-6.4635253 1.3772604 -0.69807363
-6.5034413 1.3846697 -0.69523138
-6.5832391 1.3819885 -0.68963659
-6.6231456 1.3843979 -0.68681997
-6.074543 1.4081433 -0.72525704
-6.1443419 1.392985 -0.72042722
-6.2241163 1.3778039 -0.71489644
-6.2640038 1.3702135 -0.71213108
-6.3438163 1.3750322 -0.70649785
-6.0645823 1.4156657 -0.72591954
-6.1437464 1.4479343 -0.71017015
-6.1444378 1.4429841 -0.72017103
-6.1469412 1.4479784 -0.71997017
-5.7452941 1.3763912 -0.74855494
-5.9049191 1.3860286 -0.73728848
-5.9348879 1.4084604 -0.73507035
-5.9448681 1.4109377 -0.73435658
-5.9847937 1.4233469 -0.7314887
-6.0246949 1.4232563 -0.7286849
-5.5457768 1.3718443 -0.76259959
-5.5856929 1.3792535 -0.75975734
-5.6655006 1.3815724 -0.75413692
-5.7054019 1.3814818 -0.75133312
-3.3263056 -0.52639055 -0.90684533
-3.3443084 -0.40640041 -0.90992653
-3.3843367 -0.32648173 -0.90665144
-3.3819075 -0.28647742 -0.90660554
-3.2069523 -0.53112352 -0.92034924
-3.2464421 -0.56623006 -0.91272724
-3.1896329 -0.4460901 -0.92111379
-3.2022302 -0.36611646 -0.91978407
-3.2074587 -0.32611355 -0.92170125
-3.2075231 -0.28611428 -0.92147851
-3.2198148 -0.28615284 -0.9181006
-4.4034162 -0.86101472 -0.83728653
-4.443356 -0.83609504 -0.83431774
-4.20397 -0.82811582 -0.85125327
-4.1841168 -0.7680769 -0.8523339
-4.2048383 -0.72806317 -0.86067116
-4.2340555 -0.72817749 -0.84857422
-4.2041469 -0.71811771 -0.85064071
-4.2588644 -0.80822599 -0.8472513
-4.2439661 -0.76819676 -0.84808958
-3.6453424 -0.84699684 -0.89097846
-3.6454308 -0.79199785 -0.89067215
-3.3735259 -0.84645253 -0.91025478
-3.6053865 -0.88191634 -0.89400291
-3.6055391 -0.78691804 -0.89347386
-3.3263659 -0.7088601 -0.91284913
-3.206269 -0.84613156 -0.91960984
-3.2067354 -0.8860901 -0.92731369
-3.2459435 -0.76624012 -0.91134739
-3.2069926 -0.72609288 -0.92642266
-3.2465625 -0.7112003 -0.91852212
-3.2866752 -0.5787825 -0.91495466
-4.944447 -0.92959714 -0.7992866
-4.9743719 -0.9296571 -0.79716444
-3.3357983 -1.0463741 -0.91402131
-3.3257589 -1.0863534 -0.91495144
-3.6051371 -1.0369136 -0.89486611
-3.6076148 -1.0469184 -0.89474499
-3.1659675 -1.2060317 -0.926938
-3.1934626 -1.1660874 -0.92476988
-3.2850232 -1.1663265 -0.90825176
-3.2060158 -1.1136132 -0.92359328
-3.1962137 -1.0060952 -0.923702
-3.2859237 -1.0462743 -0.91755825
-3.2057223 -0.96615666 -0.91529077
-3.206671 -0.92608935 -0.92753649
-3.3232653 -1.0863484 -0.91512829
-3.2859237 -1.0462743 -0.91755825
-5.081522 -1.5297931 -0.80536997
-4.7414904 -1.5291821 -0.81695271
-4.0432458 -1.5277839 -0.86646992
-3.9310281 -1.5275592 -0.87442803
-3.0856535 -1.5258663 -0.93437922
-3.1731269 -1.4060432 -0.92752129
-3.045995 -1.375789 -0.93637341
-3.0858586 -1.3983685 -0.93366915
-3.1262286 -1.3259225 -0.9354232
-3.2106616 -1.3261195 -0.92442304
-3.0454321 -1.285845 -0.92589736
-3.1159642 -1.2859304 -0.93092048
-3.1658347 -1.2885302 -0.92739743
-3.1658387 -1.2860303 -0.92738348
-3.1658387 -1.2860303 -0.92738348
-3.2060921 -1.286083 -0.92954135
-3.0362291 -1.2457714 -0.93635678
-3.1259551 -1.2759506 -0.93015736
-3.1662567 -1.2460039 -0.93214816
-3.2581711 -1.2462158 -0.9206174
-3.0861518 -1.2158718 -0.93265277
-2.6859491 -1.5251217 -0.95269996
-5.1205335 -1.532441 -0.79008585
-5.2003326 -1.5326009 -0.78442675
-4.8811393 -1.5294617 -0.80704927
-4.0432458 -1.5277839 -0.86646992
-4.1230454 -1.5279436 -0.86081082
-4.2028365 -1.5331033 -0.85517955
-3.7438054 -1.6471825 -0.88835984
-3.7238917 -1.624643 -0.88964933
-3.2851198 -1.5462655 -0.9203428
-2.6866527 -1.5275673 -0.96268868
-9.2832861 1.2997696 -0.50327522
-9.1564617 1.3655326 -0.5117631
-9.2037621 1.3502481 -0.50856012
-9.2435951 1.3375086 -0.50586224
-9.1240959 1.3757273 -0.51395577
-8.8044596 1.3676265 -0.53103799
-8.8097916 1.3676167 -0.53568196
-8.8446798 1.3624068 -0.53329504
-8.8496962 1.3673768 -0.53292871
-8.8048038 1.3676467 -0.53602612
-8.8846979 1.3821665 -0.53045309
-8.9246454 1.3894264 -0.52766663
-8.9645071 1.3816867 -0.52494663
-9.0044117 1.3814468 -0.52219337
-9.0842342 1.383467 -0.51667577
-8.4852238 1.3695457 -0.55306399
-8.5005322 1.3694758 -0.55701965
-8.4855537 1.3670659 -0.55806321
-8.6047649 1.3688159 -0.54231024
-8.6252337 1.3687261 -0.54841572
-8.6850901 1.3683664 -0.54428583
-8.5255585 1.3843255 -0.55523235
-8.5654202 1.3765858 -0.55251235
-8.6451998 1.3711061 -0.54702801
-8.6850901 1.3683664 -0.54428583
-8.7998152 1.3676766 -0.53637028
-8.1663332 1.371485 -0.58007812
-8.3159742 1.3705853 -0.56975341
-8.3256063 1.3705052 -0.56407702
-8.335927 1.3704654 -0.56837678
-8.3658266 1.3652856 -0.56633401
-8.3259506 1.3705254 -0.56906509
-8.4058304 1.3825452 -0.56350321
-8.4457493 1.3848053 -0.56073886
-8.0715599 1.3720547 -0.58661705
-8.0865097 1.3694649 -0.58559567
-8.1264 1.366725 -0.5828535
-7.8870306 1.3781642 -0.5993287
-7.9269209 1.3754243 -0.59658653
-8.0067291 1.3749444 -0.59108001
-8.0466337 1.3747046 -0.58832675
-7.527905 1.3828231 -0.62409687
-7.5678377 1.3875831 -0.62132144
-7.6476183 1.3821034 -0.6158371
-7.6875229 1.3818635 -0.61308384
-7.7673316 1.3813838 -0.60757732
-7.8072219 1.3786439 -0.60483515
-9.3124437 1.1645932 -0.5018087
-9.25914 0.56490892 -0.50790989
-9.2496204 0.64496678 -0.50824356
-9.2498484 0.68496573 -0.5080663
-9.2602806 0.76490366 -0.50702333
-9.2605095 0.80490261 -0.50684601
-9.280818 0.86728102 -0.50519234
-9.252326 0.24494733 -0.50967246
-9.3570747 0.24431761 -0.50244522
-9.3570747 0.24431761 -0.50244522
-9.3570747 0.24431761 -0.50244522
-9.2505169 0.36495918 -0.50931263
-9.2407684 0.40501809 -0.50982368
-9.2437191 0.485001 -0.50929695
-9.2489357 0.52496994 -0.50877547
-9.228054 -0.074909307 -0.51263964
-9.2232943 -0.03488037 -0.51280648
-9.3477669 -0.075628988 -0.50437993
-9.3553066 -0.06567423 -0.50381935
-9.3602371 -0.075703956 -0.50351954
-9.2359638 4.3742064e-05 -0.51179099
-9.2384863 0.0050286171 -0.51159674
-9.2262449 0.045102533 -0.51227981
-9.236577 0.10754091 -0.51131445
-9.2441597 0.12499547 -0.51072067
-9.2344112 0.1650544 -0.51123166
-9.2372618 0.22753775 -0.51078254
-9.3570747 0.24431761 -0.50244522
-9.2262278 -0.39490089 -0.51405811
-9.2738428 -0.35518682 -0.5106113
-9.2266846 -0.31490299 -0.51370347
-9.2738428 -0.35518682 -0.5106113
-9.2345371 -0.24994968 -0.51289916
-9.2495871 -0.23504004 -0.51180017
-9.2572975 -0.19508606 -0.51110661
-9.2500439 -0.15504214 -0.51144558
-9.2328138 -0.11493824 -0.51247281
-9.2352505 -0.12495297 -0.51234508
-9.3552065 -0.083173774 -0.50389689
0 0 0 1 0 0 0 1 0 0 0 1 0 0 0 0 0 660 1 0 0
