ply
format ascii 1.0
comment PCL generated
element vertex 1422
property float x
property float y
property float z
element camera 0
property float view_px
property float view_py
property float view_pz
property float x_axisx
property float x_axisy
property float x_axisz
property float y_axisx
property float y_axisy
property float y_axisz
property float z_axisx
property float z_axisy
property float z_axisz
property float focal
property float scalex
property float scaley
property float centerx
property float centery
property int viewportx
property int viewporty
property float k1
property float k2
end_header
1.7608284 -0.6094389 2.4751651
1.7720028 -0.56955183 2.4896269
1.7327062 -0.44889086 2.3980961
1.7532338 -0.40917689 2.4369247
1.7327843 -0.4088918 2.3983505
1.750819 -0.36917415 2.4373665
1.755883 -0.32918242 2.4372458
1.778357 -0.56946558 2.4741073
1.7942892 -0.32974893 2.5145819
1.5172647 -0.92473924 1.8094944
1.5228347 -0.88500321 1.8494477
1.5125129 -0.80473471 1.810632
1.5380266 -0.76502812 1.8490857
1.569563 -0.6456188 1.9327327
1.5691881 -0.64558637 1.9277469
1.5382607 -0.64503092 1.8498484
1.5218035 -0.64487916 1.8310299
1.5692077 -0.63558662 1.9278104
1.7343029 -0.64863414 2.3565636
1.7186517 -0.64834023 2.3151214
1.7729871 -0.92968929 2.5097749
1.7722061 -0.84961009 2.4978189
1.7734965 -0.76470935 2.5133166
1.7729027 -0.80945259 2.4729567
1.2462785 -1.2399992 1.1458857
1.3082894 -1.161112 1.3021911
1.3524218 -1.0419444 1.419989
1.4697648 -1.2038509 1.6833882
1.4548634 -1.2036217 1.6519177
1.423936 -1.2030662 1.5740192
1.4728981 -1.1639041 1.6909337
1.4702178 -1.1638842 1.6886283
1.4214431 -1.2030625 1.5742067
1.470415 -1.1589005 1.6911529
1.4761313 -1.0441663 1.731583
1.4737164 -1.0041635 1.7320247
1.4762874 -0.96416813 1.7320914
1.3905157 -1.2025071 1.4963082
1.4166914 -1.083058 1.5753443
1.3832711 -1.0824989 1.4976333
1.3834271 -1.0025008 1.4981418
1.4737993 -0.9616645 1.7322948
1.5014106 -1.1244569 1.7692739
1.5188831 -1.0846906 1.8008112
1.5351433 -0.9650197 1.848002
1.5122007 -0.96473098 1.809615
1.496737 -0.96445322 1.7706658
1.773155 -0.93970525 2.5122044
1.7825218 -1.2497127 2.5094841
1.782756 -1.1297154 2.510247
1.7803411 -1.0897127 2.5106885
1.7854052 -1.049721 2.5105679
1.3413194 -1.3616664 1.378631
1.310392 -1.361111 1.3007325
1.2485373 -1.36 1.1449355
1.3593541 -1.3219488 1.417647
1.2486154 -1.320001 1.1451898
1.3229566 -1.2813383 1.3328989
1.2616642 -1.2802759 1.1845807
1.2486933 -1.2800019 1.1454439
1.3722469 -1.362222 1.4565294
1.3720281 -1.2821914 1.4520521
1.3724225 -1.2722241 1.4571015
1.4804146 -1.4041651 1.7289199
1.4624579 -1.4038838 1.6901581
1.4225522 -1.4031876 1.5928787
1.4879715 -1.3641771 1.7286118
1.4236238 -1.3630625 1.5730022
1.4211162 -1.3705586 1.5731421
1.4571222 -1.3236226 1.6509675
1.42378 -1.2830644 1.5735108
1.4083163 -1.2827866 1.5345615
1.5965672 -1.4463751 2.040822
1.560226 -1.4055575 1.9234787
1.5472553 -1.4052835 1.884342
1.5188452 -1.3922319 1.8063354
1.7708163 -1.3695655 2.4895279
1.7822876 -1.3697098 2.5087214
-0.77566385 1.2257824 -4.2031751
-0.74696636 1.3449851 -4.0841489
-0.77021295 1.3455149 -4.1626701
-0.81883758 1.266312 -4.279984
-0.79846686 1.3060459 -4.2410932
-0.6918276 1.2240436 -3.9460764
-0.69144517 1.2640096 -3.9408257
-0.71915609 1.3047205 -4.046329
-0.64173448 1.3431133 -3.8085518
-0.62655199 1.3428648 -3.7720561
-0.6419155 1.3431299 -3.8110452
-0.49620467 1.260746 -3.461215
-0.49371123 1.2607459 -3.461396
-0.49622506 1.2207469 -3.4614789
-0.52693164 1.2612761 -3.5391929
-0.54406446 1.2614751 -3.5680275
-0.6062628 1.2226024 -3.7342207
-0.51404119 1.3010103 -3.4997592
-0.50117117 1.3007452 -3.4605892
-0.56511849 1.3018055 -3.616364
-0.61118853 1.3425997 -3.733067
-0.75507367 0.90526003 -4.1265841
-0.78073221 1.0657862 -4.2038684
-0.74749148 1.1052552 -4.1258073
-0.7444346 1.1452045 -4.1182446
-0.79319948 1.1460164 -4.237524
-0.79336011 1.1860319 -4.2397532
-0.82398748 0.94631952 -4.281733
-0.80361676 0.98605341 -4.2428422
-0.79356152 1.1460494 -4.2425108
-0.81638491 1.1863137 -4.2806926
-0.65750313 0.90340501 -3.8529367
-0.64459234 0.9831382 -3.8132391
-0.69356883 1.0041976 -3.9699681
-0.65492815 1.0634012 -3.8520622
-0.69548869 1.1443763 -3.9964719
-0.66773707 1.1836635 -3.8904407
-0.6934644 1.2091929 -3.9686158
-0.52419835 0.94101882 -3.50141
-0.55494571 0.90154982 -3.5796518
-0.58066535 0.94207883 -3.657728
-0.52168453 0.98101783 -3.501327
-0.57815158 0.98207784 -3.6576452
-0.61386538 0.98260808 -3.735261
-0.51667732 1.0210167 -3.5014253
-0.51416349 1.0610157 -3.5013425
-0.51414311 1.1010149 -3.5010786
-0.59347171 1.067341 -3.6960733
-0.49875924 1.1407489 -3.4618256
-0.54484969 1.141544 -3.5787926
-0.5755766 1.1420741 -3.6567707
-0.60381013 1.1426041 -3.7349296
-0.51410234 1.181013 -3.5005507
-0.58842629 1.1823381 -3.6956768
-0.75024986 0.58526725 -4.1290569
-0.79183525 0.62587947 -4.218514
-0.75268215 0.70526457 -4.1280842
-0.80380017 0.62606174 -4.2452168
-0.82408941 0.74632412 -4.2830524
-0.80120486 0.82605702 -4.2440786
-0.82402825 0.86632138 -4.2822604
-0.79079765 0.88579077 -4.2043319
-0.67592591 0.58394212 -3.9339311
-0.70665288 0.58447218 -4.011909
-0.72199595 0.62473631 -4.0506339
-0.68334508 0.70393956 -3.9325962
-0.69372165 0.70420444 -3.9719474
-0.64469421 0.78314281 -3.8145585
-0.69617438 0.78420269 -3.9712386
-0.67290735 0.82367188 -3.8924537
-0.7011205 0.86420101 -3.9703488
-0.71149707 0.86446589 -4.0096998
-0.72935396 0.86473101 -4.0485077
-0.74188238 0.82496381 -4.0829549
-0.61155534 0.62261629 -3.737817
-0.55752063 0.7415536 -3.5805264
-0.54213679 0.78128761 -3.5412736
-0.51136911 0.86075568 -3.4627678
-0.57032955 0.86181581 -3.6189048
-0.60105646 0.86234587 -3.6968827
-0.61641997 0.86261094 -3.7358718
-1.2347829 0.47355291 -5.3479376
-1.2498252 0.47401637 -5.4170284
-1.2340971 0.39848846 -5.338459
-1.2346224 0.43353727 -5.3457084
-1.2352853 0.55360067 -5.3548903
-1.1398894 0.27216557 -5.145606
-1.1383801 0.39203048 -5.1248674
-1.1856968 0.39270991 -5.2241993
-1.1853144 0.4326759 -5.2189488
-1.1343977 0.47189623 -5.1045732
-1.1374342 0.47194591 -5.1118727
-1.1472678 0.4721612 -5.1437435
-1.1675978 0.51242548 -5.1821065
-1.1858166 0.51272368 -5.2259011
-1.2162224 0.43322253 -5.2994204
-1.2008386 0.47295657 -5.2601671
-1.0398051 0.31030956 -4.8718762
-0.73754281 0.26500967 -4.0919981
-0.743213 0.34507415 -4.1010818
-0.7810787 0.38580197 -4.2083545
-0.75033134 0.42527094 -4.1301126
-0.74351394 0.46510446 -4.1052771
-0.76816785 0.46553516 -4.1686568
-0.76812714 0.5455333 -4.168129
-0.80146974 0.30606902 -4.247509
-0.8039428 0.34606817 -4.2470641
-0.80390209 0.42606631 -4.2465363
-0.8038817 0.46606541 -4.2462726
-0.80384094 0.54606354 -4.2457447
-0.61712849 0.26288936 -3.7799051
-0.69285977 0.26411536 -3.9598899
-0.70928895 0.30447873 -4.0135751
-0.63741767 0.3831518 -3.8177404
-0.62454766 0.38288683 -3.7785704
-0.6656512 0.3836818 -3.8958993
-0.64220315 0.42313448 -3.8146212
-0.6577273 0.46341515 -3.8558395
-0.6963374 0.46421006 -3.9733496
-0.72455055 0.50473917 -4.0512447
-0.62197274 0.54288304 -3.7776959
-0.6425041 0.54316479 -3.8188162
-0.69326013 0.54415852 -3.9655228
-0.50419444 0.26076928 -3.4672692
-0.50417405 0.30076838 -3.4670053
-0.50914055 0.34076759 -3.4663794
-0.5436281 0.34141356 -3.56163
-0.56311417 0.34182754 -3.6228783
-0.54197854 0.38126376 -3.5389256
-0.55521059 0.38156182 -3.5830824
-0.5630734 0.42182571 -3.6223505
-0.59629375 0.42235589 -3.7001474
-0.54479325 0.46129507 -3.5432036
-0.57592303 0.46208975 -3.6612568
-0.52940941 0.50102913 -3.5039506
-0.5551495 0.50155902 -3.5822906
-0.56550568 0.54182303 -3.6213779
-0.58086914 0.54208809 -3.6603668
-0.59229106 0.54222071 -3.6795897
-1.1376585 0.031956069 -5.1147752
-1.1847534 0.11261711 -5.2110863
-1.1524177 0.15216872 -5.1454926
-1.1393667 0.23211688 -5.1383896
-1.1677405 0.23243193 -5.1839538
-1.1985897 -0.0070324419 -5.263515
-1.2035358 0.072965868 -5.2626252
-1.1880908 0.23269713 -5.2225804
-1.1398945 0.26216581 -5.1456718
-1.0449141 0.070315234 -4.8730974
-1.0706543 0.070845179 -4.9514375
-1.0706339 0.11084425 -4.9511733
-1.0399005 0.12281387 -4.8731132
-1.0398318 0.25781077 -4.8722224
-0.82443583 0.066339828 -4.2875385
-0.69404775 0.064219214 -3.9761696
-0.70939082 0.10448334 -4.0148945
-0.64415598 0.14330636 -3.8414021
-0.65041 0.14342231 -3.8584938
-0.72722739 0.14474754 -4.0534387
-0.72720701 0.18474662 -4.053175
-0.65535611 0.22342061 -3.857604
-0.68358964 0.22395062 -3.9357629
-0.72718662 0.22474569 -4.0529108
-0.49930948 0.060773745 -3.4689505
-0.54485685 0.061519261 -3.5784373
-0.5453999 0.06156889 -3.5859175
-0.56076336 0.061833937 -3.6249065
-0.57612687 0.062098984 -3.6638956
-0.4992891 0.10077282 -3.4686868
-0.60184652 0.10262801 -3.7419717
-0.51463223 0.14103694 -3.5074117
-0.49926874 0.1407719 -3.4684229
-0.5948481 0.14244497 -3.7146425
-0.60180581 0.18262616 -3.7414439
-0.51459146 0.22103511 -3.5068841
-0.50421482 0.22077021 -3.4675331
-0.53244835 0.22130023 -3.545692
-0.54387021 0.22143286 -3.5649149
-0.55030525 0.22156535 -3.5845001
-0.55818844 0.22183017 -3.624032
-0.57604533 0.2220953 -3.6628399
-0.59390223 0.22236042 -3.701648
-1.1219556 -0.36834937 -5.0709448
-1.1040988 -0.36861449 -5.0321369
-1.1398126 -0.36808425 -5.1097531
-1.1371905 -0.11559016 -5.1082683
-1.1371765 -0.088090785 -5.1080866
-1.1841311 -0.087444447 -5.2024322
-1.1933833 -0.36728889 -5.2261767
-1.1908491 -0.28729081 -5.2258301
-1.2215761 -0.28676072 -5.3038082
-1.1908287 -0.24729173 -5.2255664
-1.2240491 -0.24676156 -5.3033633
-1.1882945 -0.16729365 -5.2252197
-1.2190011 -0.12676448 -5.3029337
-1.0501252 -0.36967447 -4.875638
-1.0422421 -0.3699393 -4.8361058
-1.0733719 -0.36914459 -4.9541593
-1.0887353 -0.36887956 -4.9931479
-1.0383005 -0.28984204 -4.8509007
-1.037222 -0.30494094 -4.8360391
-1.0384612 -0.24982642 -4.8531299
-1.0450568 -0.20967831 -4.8749447
-1.0376964 -0.16989443 -4.8426285
-1.055413 -0.16941434 -4.9140315
-1.0378569 -0.1298788 -4.8448582
-1.0553926 -0.12941526 -4.9137678
-1.0400177 -0.10718083 -4.8746305
-0.78645277 -0.37418035 -4.213006
-0.79198265 -0.37413058 -4.2201242
-0.79286736 -0.33404878 -4.2323275
-0.80179584 -0.33391622 -4.2517314
-0.53019947 -0.25868878 -3.5490396
-0.54552215 -0.17842558 -3.5875008
-0.49939099 -0.099222563 -3.4700062
-0.54549032 -0.11592702 -3.5870886
-0.54548144 -0.098427422 -3.5869732
0.42319477 1.3383287 -1.0820081
0.37431562 1.3416655 -1.1986525
0.57587397 1.350299 -0.65215892
0.55542922 1.353084 -0.69071734
0.5258702 1.3537331 -0.78376073
0.6457184 1.3514212 -0.45683441
0.62513775 1.3519297 -0.5304969
0.61677802 1.3522288 -0.57499433
0.72553474 1.3525288 -0.26225975
0.84674644 1.3478106 0.049505781
1.2022552 1.2614245 0.94482994
1.1220689 1.2628493 0.74528533
1.1732802 1.3018169 0.89211476
1.1713425 1.2694799 0.86697912
1.1509563 1.3022642 0.82861137
1.1232716 1.3027512 0.76049703
1.1380637 1.3425373 0.78972888
1.2770807 1.2600396 1.1397636
1.3209983 1.2692097 1.2568624
1.2721728 1.300046 1.1403928
0.5768944 0.91264713 -0.63001055
0.5545705 0.91309434 -0.69351399
0.51830739 0.99391097 -0.81060308
0.57221633 1.0130663 -0.69419062
0.52344942 1.0739018 -0.81046951
0.52344942 1.0739018 -0.81046951
0.67337221 0.9508788 -0.38129085
0.68891394 0.99060017 -0.34208739
0.6759432 0.99087423 -0.3812241
0.64450985 0.99168539 -0.49919659
0.69647086 1.0305882 -0.34239551
0.61334831 0.87224364 -0.57785779
0.61101145 0.95224547 -0.57716185
0.77352101 0.89170271 -0.14852324
0.76599818 0.8692143 -0.14810388
0.72590506 0.86992663 -0.24787617
0.82158005 0.94844556 -0.043962039
0.80954653 0.94863856 -0.070634201
0.71976328 0.95004559 -0.26444313
0.72501469 0.99002111 -0.26207089
0.72482723 0.99003732 -0.2645638
0.72321844 1.0301822 -0.28674576
0.92470562 0.90630257 0.26139861
0.91814214 0.86644053 0.24157603
0.90026361 0.90672106 0.20306849
0.95670456 0.94587219 0.31942064
0.9182983 0.94643867 0.24208452
0.8559376 0.94780535 0.046213534
0.92336226 0.98643041 0.24196383
0.89991379 0.98697484 0.16350298
0.97216827 0.94559443 0.35836989
0.97149658 0.98565835 0.34865248
0.97213697 1.0256088 0.35638544
1.0448506 0.86395931 0.59305656
1.0779212 0.94365394 0.63120204
1.0649503 0.943928 0.59206533
1.0236763 0.94453061 0.50993085
1.0731695 1.0636585 0.63233972
1.0242171 1.0294962 0.51545697
1.0189091 0.86450744 0.51478314
1.0054325 0.86503714 0.43557242
0.98248988 0.86532593 0.39718556
1.0215583 0.94450188 0.51510417
1.0163006 1.0647621 0.4761678
0.9934361 1.10505 0.43803516
1.0164567 1.1447603 0.47667629
1.1816089 0.90146238 0.94404143
1.1247889 0.9275654 0.78802842
1.1478388 0.98227537 0.82676488
1.1218778 0.97282368 0.74842793
1.085984 0.98338628 0.67096794
1.1194824 1.0228262 0.7489332
1.225507 0.90063286 1.0610766
1.1995656 0.90118098 0.98280323
1.225507 0.90063286 1.0610766
1.2046295 0.94117266 0.98268253
1.3024757 0.97949797 1.2162573
1.271524 0.96755373 1.1382794
1.2226642 0.98089033 1.0216986
0.52312171 0.71387774 -0.80777186
0.5737707 0.75289404 -0.66842115
0.52582377 0.75364989 -0.77261692
0.52582377 0.75364989 -0.77261692
0.49497449 0.79420441 -0.85026115
0.47714958 0.86198425 -0.88859391
0.57431751 0.55281764 -0.65722781
0.6439634 0.71169192 -0.50097626
0.67694294 0.83076447 -0.36479068
0.61603492 0.71198803 -0.53898823
0.7720089 0.78931856 -0.1666251
0.77152467 0.82936627 -0.17384958
0.724554 0.85004061 -0.26545367
0.92787981 0.74642867 0.24006347
0.91806412 0.82644147 0.24132179
0.88413781 0.82725632 0.12353676
0.87419039 0.83977073 0.12436604
0.9754172 0.78529018 0.40471816
0.97362095 0.82545137 0.38004333
0.96944112 0.82560092 0.35779461
0.97166854 0.78561443 0.35486001
1.0241451 0.7044552 0.52086997
1.0256913 0.82433891 0.53908306
1.0103779 0.58478069 0.47349182
1.002393 0.58504742 0.4339802
1.0209337 0.62450933 0.51307023
0.99257731 0.66506022 0.43523851
0.98766947 0.70506662 0.43586767
1.0057042 0.7447843 0.47488371
0.9799189 0.82533056 0.39711878
1.2786744 0.53979701 1.1750739
1.2607177 0.54007846 1.136312
1.2248923 0.58564019 1.0590745
1.2504742 0.66034603 1.0977505
1.2095749 0.66091621 1.020602
1.2506304 0.74034417 1.0982591
1.2637572 0.82006824 1.1379043
1.1944236 0.82119018 0.98266965
1.020153 0.22451873 0.51052779
0.99187475 0.30506867 0.43295035
0.99460191 0.42506218 0.43352559
0.98229325 0.50507867 0.43497139
1.072036 0.22342248 0.66707462
1.1808283 0.50147176 0.94149905
1.2720175 0.2599082 1.1587116
1.2727358 0.3398577 1.1666988
1.1909938 0.34120512 0.97980624
1.2605616 0.46008033 1.1358036
1.2706066 0.49756473 1.1352921
1.2222334 0.50064588 1.0587217
1.0245049 0.024325222 0.53898406
1.0238332 0.064389125 0.52926666
0.99713242 0.18480843 0.47188669
1.1771643 -0.098510519 0.93787289
1.1358372 -0.057685588 0.82090443
1.1278524 -0.057418875 0.78139281
1.1217419 -0.057314262 0.7668103
1.0788903 -0.096581049 0.6644783
1.0744667 -0.096622333 0.67233199
1.1740777 -0.018443875 0.92859715
1.1247095 0.022440707 0.80471241
1.0691527 0.023430839 0.66599089
1.1335785 0.062315274 0.82185465
1.1751983 0.17148682 0.93977648
1.2619617 -0.099910229 1.1320567
1.2243052 -0.099408574 1.0646923
1.2235847 -0.084344082 1.0548159
1.2546389 -0.019901084 1.1331276
1.2236774 -0.036845196 1.0551178
1.200263 -0.018801153 0.9767682
1.3110799 0.019250067 1.2494798
1.2715491 0.01991383 1.1571862
1.2442392 0.020368369 1.0940577
1.3111579 0.059249129 1.2497339
1.2234929 0.060684942 1.0507518
1.1904473 0.061211672 0.97802651
1.2214528 0.10065526 1.0561793
1.2734702 0.13976513 1.1803851
1.2704148 0.13981743 1.1730938
1.2729859 0.17981282 1.1731606
1.2625082 0.1800832 1.1338364
1.2370726 0.18037565 1.095637
0.37940073 -0.40381595 -1.1301582
0.37653291 -0.40377986 -1.1349566
0.37315914 -0.40348807 -1.1798289
0.37369013 -0.32352239 -1.1743346
0.36409318 -0.32354009 -1.1685989
0.40507045 -0.2841112 -1.0911961
0.38462085 -0.28382611 -1.1297704
0.37376821 -0.28352332 -1.1740804
0.37415284 -0.27855584 -1.1690627
0.47655016 -0.40564817 -0.87172109
0.47280154 -0.40532395 -0.92157924
1.0706909 -0.20631176 0.62426752
1.0608556 -0.1362987 0.62546229
1.1765398 -0.41850302 0.93583894
1.1731877 -0.37841922 0.92381608
1.1840967 -0.37851498 0.93553078
1.1407826 -0.33794206 0.85882384
1.1377838 -0.33768269 0.8189373
1.1223005 -0.34740472 0.77992451
1.1737968 -0.25845447 0.92956465
1.1125044 -0.25739214 0.78124636
1.0965347 -0.25685871 0.70222312
1.0996116 -0.21711901 0.74236393
1.1844871 -0.17851967 0.93680203
1.1430819 -0.1776938 0.81957936
1.1745933 -0.13850591 0.93780607
1.1245847 -0.13757175 0.80618834
1.0716865 -0.17639351 0.63692278
1.0727017 -0.1364755 0.64964151
1.2952634 -0.42071757 1.2478079
1.3053133 -0.38073322 1.2473122
1.2748187 -0.41793254 1.2092494
1.266829 -0.42016578 1.1697218
1.2463794 -0.41988069 1.1311475
1.2514434 -0.37988898 1.1310269
1.2383946 -0.41961399 1.0916359
1.2229894 -0.38933694 1.0528773
1.1969894 -0.41878811 0.97441328
1.2723459 -0.34020743 1.1748413
1.2222279 -0.29925799 1.0409849
1.2950697 -0.26046562 1.2087508
1.2491846 -0.25988811 1.1319771
1.2207502 -0.25933632 1.0538911
1.1948087 -0.25878817 0.97561771
1.2901618 -0.22045922 1.2093799
1.2708932 -0.22006434 1.1531678
1.3081967 -0.18074158 1.2483959
1.2672974 -0.1801714 1.1712474
1.2413559 -0.17962328 1.0929739
1.2333711 -0.17935656 1.0534623
1.2029496 -0.17905676 1.0156378
1.22329 -0.13932659 1.0519735
1.1925499 -0.13878731 0.97656786
0.39451313 -0.58409619 -1.0923514
0.39665627 -0.50384605 -1.1321044
0.37615031 -0.50376803 -1.1380835
0.42565033 -0.4771542 -1.0137696
0.42263189 -0.48689458 -1.0537198
0.37191746 -0.46339613 -1.1951661
0.39233243 -0.42409626 -1.0911471
0.37293267 -0.4234781 -1.1824473
0.38450375 -0.34383142 -1.1301502
0.37365112 -0.3435286 -1.1744602
0.36405414 -0.34354633 -1.1687244
0.47181845 -0.33273509 -0.93607432
0.42292953 -0.33439815 -1.0527505
0.39755255 -0.30410641 -1.0907592
0.3739166 -0.30354577 -1.171713
0.36911812 -0.30355462 -1.1688452
0.52414572 -0.58640647 -0.76866782
0.49792919 -0.50603491 -0.81882334
0.53092164 -0.46633929 -0.78093207
0.49808532 -0.42603675 -0.81831485
0.47343415 -0.46539411 -0.91198742
0.47284055 -0.38533112 -0.92145056
1.1708772 -0.50574464 0.8955853
1.1454953 -0.47795284 0.85756069
1.1250458 -0.47766775 0.81898636
1.1271108 -0.43741667 0.77897912
1.1221005 -0.44990903 0.77927458
1.1562073 -0.35822603 0.89764756
1.174242 -0.31850839 0.93666357
1.1483005 -0.31796026 0.85839021
1.1453016 -0.31770089 0.81850362
1.122734 -0.31744456 0.78510261
1.1223493 -0.32241201 0.78008497
1.122359 -0.31741214 0.7801168
1.1967162 -0.55879152 0.97352499
1.1894715 -0.43878332 0.97485012
1.2718539 -0.40018031 1.1694757
1.220477 -0.39933974 1.0530028
1.2050133 -0.39906201 1.0140536
1.271932 -0.36018124 1.1697299
1.271932 -0.36018124 1.1697299
1.2459905 -0.35963312 1.0914565
1.225541 -0.35934803 1.0528822
1.1896276 -0.35878518 0.97535861
1.2697608 -0.31998765 1.1400692
1.2385898 -0.31962302 1.0922731
1.2026764 -0.31906021 1.0147495
1.1746169 -0.31854081 0.94164944
0.37582257 -0.863792 -1.1353859
0.37590066 -0.82379293 -1.1351316
0.37560385 -0.78376144 -1.1398631
0.39420086 -0.74409246 -1.0933684
0.43833318 -0.62492478 -0.9755705
0.37610355 -0.62378144 -1.1363533
0.57315499 -0.90730071 -0.64406985
0.52220917 -0.90628552 -0.78815216
0.47583982 -0.86566031 -0.87215036
0.57331109 -0.82730258 -0.64356136
0.55117458 -0.82687163 -0.7045719
0.52217788 -0.82627118 -0.79013658
0.57473046 -0.77241737 -0.62576145
0.52158427 -0.74620825 -0.79959971
0.53851616 -0.6666013 -0.74269164
0.49212506 -0.66576809 -0.85953939
0.55655086 -0.62688369 -0.70367563
0.47160697 -0.82528841 -0.92923301
0.47229409 -0.66532457 -0.92323023
1.0217018 -0.83556408 0.51856202
1.0206212 -0.81296736 0.50374758
1.0206944 -0.77546823 0.50398588
1.0051136 -0.83518904 0.46465531
0.9902339 -0.79516798 0.46603429
1.129251 -0.87766576 0.81606901
1.1240777 -0.87764215 0.81395102
1.1088014 -0.87738067 0.77749467
1.1398069 -0.83793706 0.85564744
1.1393789 -0.79768229 0.81582767
1.0725236 -0.80406386 0.66035795
1.1424559 -0.75794262 0.85596848
1.1525058 -0.71795827 0.85547286
1.1706185 -0.63824153 0.89474314
1.1711246 -0.63849723 0.93481714
1.1747421 -0.63859814 0.94958711
0.37468252 -1.0637225 -1.1466286
0.42634675 -0.98478818 -0.99455917
0.37566644 -0.94379014 -1.1358943
0.5223031 -1.1463286 -0.78219885
0.52211076 -1.1488123 -0.78470767
0.52106911 -1.106216 -0.79939497
0.52245921 -1.0663304 -0.78169036
0.57348305 -1.0273465 -0.63735384
0.52178758 -1.0262665 -0.79140776
0.57281142 -0.98728263 -0.64707124
0.52299023 -0.98636472 -0.77619606
0.48651463 -0.98575324 -0.86119837
0.53847563 -0.94685042 -0.70439732
0.53547674 -0.94659108 -0.74428385
0.52213115 -0.94628459 -0.78840637
0.47605857 -0.94569087 -0.86767304
0.57531059 -1.1475221 -0.61069459
1.0334294 -1.1559891 0.58078134
1.0221393 -0.99562514 0.52751666
1.0181999 -1.0357141 0.54259479
1.1824183 -1.2385015 0.93006623
1.2836913 -1.2406904 1.2433473
1.2244855 -1.159585 1.0878713
0.42120838 -1.5044193 -1.0527083
0.39521056 -1.5040783 -1.0983864
0.3726992 -1.5036149 -1.1643828
0.4003526 -1.4240875 -1.0982529
0.56581712 -1.5073891 -0.62987071
0.52140331 -1.5113038 -0.78701174
0.51892012 -1.5063002 -0.78679246
0.47552794 -1.5057263 -0.86375368
0.47254854 -1.4954672 -0.90357667
0.49364072 -1.4260097 -0.82448339
0.47262174 -1.4579681 -0.90333831
0.47166994 -1.4653869 -0.91585052
0.62215561 -1.5207367 -0.5138523
0.72292751 -1.52017 -0.24062932
0.92444193 -1.534036 0.30572131
0.82368469 -1.5271029 0.032546002
1.0536448 -1.2762713 0.61859292
1.0715079 -1.5165795 0.66081506
1.0711281 -1.519047 0.6558134
1.0727105 -1.4766778 0.67602676
1.0732416 -1.3967121 0.68152106
1.07257 -1.3566481 0.67180365
1.1648115 -1.3184739 0.93086994
1.1776261 -1.3987461 0.96949816
1.283457 -1.3606876 1.2425846
1.2239078 -1.3595641 1.0841073
1.286028 -1.3206922 1.2426513
1.2705643 -1.3204144 1.2037021
1.1957389 -1.3190295 1.0087684
1.2861061 -1.2806931 1.2429056
1.244701 -1.2798673 1.125683
-0.53851193 1.2201182 -3.563396
-0.54096287 1.2601187 -3.5629539
-0.46141329 1.298775 -3.3680117
-0.47681612 1.2990433 -3.406985
-0.5255363 1.2823499 -3.5238349
-0.52551776 1.2998495 -3.5237219
-0.54092062 1.3001179 -3.5626953
-0.37945506 1.2574315 -3.1737702
-0.40776742 1.2579666 -3.2519007
-0.32029477 1.2963589 -3.0174344
-0.35359365 1.2968969 -3.0951977
-0.41520488 1.2979701 -3.2510912
-0.31482267 1.3360956 -2.977468
-0.32775602 1.3138629 -3.0167704
-0.23092176 1.2947997 -2.7908897
-0.23531537 1.3347527 -2.7827842
-0.23036058 1.3047506 -2.7833455
-0.27829641 1.3354908 -2.8899155
-0.2020165 1.3342147 -2.7050209
-0.081316344 1.3045706 -2.3932278
-0.099183328 1.3323396 -2.4318399
-0.15830132 1.3334113 -2.5879171
-0.12703124 1.3526148 -2.4697661
-0.12998103 1.340376 -2.5097382
0.023954561 1.2501951 -2.1205695
0.0060162097 1.2104658 -2.1596181
-0.019802909 1.2109995 -2.237932
0.047322724 1.2896621 -2.0418134
0.020111565 1.2900993 -2.1049845
0.014023854 1.2902001 -2.1195767
-0.032184575 1.2910049 -2.2364972
-0.062990196 1.2915415 -2.3144438
0.006586398 1.3302035 -2.1187675
0.085523508 1.209123 -1.9649345
0.068446174 1.2893256 -1.9932343
0.14271843 1.3277905 -1.767823
0.16808103 1.3150166 -1.7296646
0.086093694 1.3288606 -1.9240838
0.070690885 1.329129 -1.9630573
0.055288076 1.3293972 -2.0020306
0.11939257 1.3283226 -1.8463205
0.17104402 1.3397551 -1.6896117
0.26563883 1.2858883 -1.4938756
0.235093 1.2861817 -1.534241
0.26714942 1.3257569 -1.4736714
0.25801784 1.3259081 -1.4955596
0.21844773 1.3265632 -1.5904082
0.26844475 1.3356425 -1.4561543
0.20183642 1.3267188 -1.6117456
0.19889987 1.3269798 -1.6516368
0.3246156 1.3248321 -1.3400328
0.30671951 1.3251019 -1.3788228
0.36583751 1.3240302 -1.2227454
-0.54882324 0.90013123 -3.5647309
-0.54628772 0.94012886 -3.5646558
-0.43593252 0.97824854 -3.2917666
-0.5308426 0.97985971 -3.5254238
-0.54624546 0.98012799 -3.5643971
-0.54370987 1.0201256 -3.564322
-0.52826476 1.0598564 -3.52509
-0.54117435 1.0601233 -3.5642471
-0.42832589 1.0982414 -3.2915413
-0.52554572 1.0998378 -3.5225217
-0.53863883 1.1001209 -3.564172
-0.47698528 1.1390469 -3.4080195
-0.52572393 1.104854 -3.5249827
-0.53859651 1.14012 -3.5639133
-0.42574805 1.1782383 -3.2912078
-0.44115087 1.1785065 -3.3301811
-0.4769747 1.1490467 -3.4079549
-0.49234581 1.1793143 -3.4467344
-0.5077486 1.1795825 -3.4857078
-0.52619529 1.1799012 -3.5319774
-0.53855425 1.180119 -3.5636547
-0.47693506 1.1865458 -3.4077125
-0.37685683 0.93717778 -3.1359479
-0.38976637 0.93744463 -3.1751049
-0.41019797 0.8977167 -3.2139699
-0.42557436 0.92298442 -3.2527816
-0.35642523 0.9769057 -3.0970831
-0.35388967 1.0169033 -3.097008
-0.41550091 1.0179765 -3.2529016
-0.41296539 1.0579741 -3.2528267
-0.37907362 1.0973862 -3.167325
-0.34877631 1.1368977 -3.0965991
-0.37960306 1.1174347 -3.1746752
-0.42555851 0.93798411 -3.2526848
-0.4269422 1.0181128 -3.2721131
0.051970888 0.96966642 -2.0442495
0.023658518 0.97020155 -2.1223798
0.054506429 1.0096641 -2.0441744
0.054548722 1.0496632 -2.0439157
0.11856028 0.88836527 -1.8541517
0.095601484 0.88886487 -1.9276628
0.064795867 0.88940144 -2.0056098
0.067500569 1.0893954 -2.0045002
0.11697868 1.128523 -1.877532
0.098348483 1.128858 -1.9262947
0.0673737 0.96939814 -2.005276
0.17261553 0.88752341 -1.7327956
0.17020686 0.9675231 -1.7320949
0.21633071 0.88672006 -1.6156918
0.21618946 0.92673546 -1.6179264
-0.53612518 0.69986898 -3.5268669
-0.55152798 0.70013726 -3.5658405
-0.55148566 0.74013633 -3.5655818
-0.47442934 0.77879399 -3.370456
-0.52063775 0.77959883 -3.4873762
-0.52349812 0.77963293 -3.4921792
-0.5514434 0.78013539 -3.5653231
-0.53599828 0.81986624 -3.5260911
-0.47434476 0.85879219 -3.3699386
-0.48974755 0.85906047 -3.4089122
-0.53595603 0.85986531 -3.5258324
-0.54886556 0.86013216 -3.5649896
-0.41548052 0.61772597 -3.2154131
-0.33343768 0.65638071 -3.0206544
-0.43084103 0.65799332 -3.254128
-0.39999312 0.69745588 -3.1759224
-0.3333531 0.73637891 -3.0201371
-0.37956151 0.73718375 -3.1370575
-0.3128792 0.8161059 -2.9810135
-0.37606603 0.81709892 -3.1242578
-0.39737299 0.81745172 -3.1753302
-0.42817861 0.81798828 -3.2532771
-0.32750559 0.85630804 -3.0097556
-0.31034365 0.8561036 -2.9809384
-0.37602374 0.85709804 -3.1239991
-0.42490894 0.85792065 -3.2432292
-0.32819742 0.89637238 -3.0194697
-0.22819585 0.57450604 -2.748174
-0.25393039 0.65503788 -2.8259709
-0.26683995 0.65530473 -2.8651278
-0.28224275 0.65557301 -2.9041011
-0.278606 0.69547278 -2.8890669
-0.25384581 0.73503608 -2.8254535
-0.24877472 0.81503135 -2.8253033
-0.27958032 0.81556791 -2.9032502
-0.24623919 0.85502899 -2.8252282
-0.2795592 0.83556747 -2.903121
-0.2924476 0.85583383 -2.9421487
-0.20501725 0.85422707 -2.7079408
-0.13056667 0.61287624 -2.5119486
-0.13097604 0.57290977 -2.5171938
-0.084499486 0.65208679 -2.3972628
-0.1307079 0.65289164 -2.5141833
-0.17904252 0.6536653 -2.6259336
-0.1639645 0.69342875 -2.5916879
-0.11272727 0.73262006 -2.4748762
-0.1434906 0.77315575 -2.5525644
-0.13141413 0.85296863 -2.5253561
-0.14340602 0.85315394 -2.5520473
-0.179325 0.7336961 -2.6304028
-0.1796075 0.8137269 -2.634872
0.051674843 0.68967277 -2.0460598
-0.053651571 0.6915493 -2.3190575
0.079987213 0.6891377 -1.9679294
0.087952569 0.72887284 -1.9281467
0.064668991 0.76940411 -2.0063856
0.16717738 0.8075608 -1.7379322
0.13424557 0.80806619 -1.8107091
0.1190263 0.80831814 -1.8471893
0.10593321 0.80860126 -1.8888395
0.067204528 0.80940175 -2.0063105
0.11886392 0.82833397 -1.8495532
0.17248866 0.76752615 -1.7335715
0.21662757 0.64667654 -1.6097639
0.2168534 0.68665934 -1.607012
0.21634507 0.72670734 -1.614233
0.21628842 0.84672093 -1.6159503
0.18277809 0.64726353 -1.6950068
0.18282038 0.68726259 -1.6947482
0.18294726 0.80725986 -1.6939723
-0.50872129 0.25960341 -3.4916561
-0.53952694 0.26013997 -3.569603
-0.53948462 0.30013907 -3.5693443
-0.44907543 0.33827034 -3.2949867
-0.53944236 0.34013814 -3.5690858
-0.50815111 0.3793411 -3.4508054
-0.51856744 0.37960649 -3.4901459
-0.53397024 0.37987477 -3.5291195
-0.54687983 0.38014159 -3.5682764
-0.52101839 0.41960701 -3.4897039
-0.54933077 0.42014214 -3.5678344
-0.54928845 0.46014121 -3.5675757
-0.54924619 0.50014031 -3.567317
-0.55169713 0.54014087 -3.566875
-0.41586116 0.25773412 -3.2177408
-0.35162979 0.37665683 -3.0612547
-0.38742191 0.37719628 -3.1388345
-0.37479484 0.45696026 -3.1041467
-0.40274012 0.45746276 -3.1772907
-0.326785 0.49621832 -2.997124
-0.34900966 0.49665266 -3.0606623
-0.32655919 0.53620112 -2.9943721
-0.33605781 0.53638494 -3.0212467
-0.40016231 0.53745949 -3.1769569
-0.43346116 0.53799748 -3.2547202
-0.22926833 0.25457856 -2.7602158
-0.29263866 0.25558788 -2.9059532
-0.23886591 0.33477685 -2.7890663
-0.30546364 0.33585289 -2.944593
-0.22840731 0.37451056 -2.7494671
-0.30791461 0.37585342 -2.9441507
-0.22818148 0.41449335 -2.7467153
-0.28997627 0.41558278 -2.9051023
-0.2566351 0.45504388 -2.8270802
-0.24119 0.49477467 -2.7878482
-0.24364094 0.5347752 -2.7874062
-0.25655052 0.53504205 -2.8265631
-0.27195331 0.53531033 -2.8655365
-0.28735614 0.53557861 -2.90451
-0.30525219 0.53584832 -2.9432998
-0.20814487 0.25424212 -2.7116365
-0.2234631 0.33450857 -2.7500927
-0.17942314 0.29367346 -2.6282611
-0.13049564 0.33284995 -2.5087726
-0.14644906 0.33316717 -2.5552256
-0.13096166 0.41289708 -2.5157349
-0.17911273 0.41365442 -2.6249921
-0.087204188 0.45209277 -2.3983724
-0.13083479 0.53289437 -2.5149591
-0.1791694 0.53366804 -2.6267095
-0.17966335 0.41370335 -2.6324718
-0.17953646 0.53370064 -2.631696
0.22885965 0.52646136 -1.5788623
0.21686776 0.52664661 -1.6055534
-0.4370321 -0.061727852 -3.2984908
-0.46285123 -0.061194189 -3.3768048
-0.47729406 -0.021008385 -3.4030535
-0.52750629 -0.060070667 -3.5399945
-0.53737199 -0.059854228 -3.5718555
-0.43694752 0.018270332 -3.2979736
-0.49357226 0.019340562 -3.4542344
-0.47812715 0.059071373 -3.4150023
-0.52591115 0.059796095 -3.519273
-0.53724515 0.06014305 -3.5710797
-0.44683594 0.09827432 -3.2967222
-0.52752066 0.099942021 -3.5414534
-0.5396961 0.1001436 -3.5706375
-0.44928688 0.13827486 -3.2962799
-0.53965384 0.14014268 -3.5703788
-0.47257048 0.17880617 -3.3745189
-0.47524726 0.17882393 -3.3768284
-0.49090984 0.17933547 -3.4533834
-0.52919519 0.1798764 -3.5307796
-0.54210478 0.18014322 -3.5699368
-0.47505578 0.18630745 -3.3742869
-0.49042425 0.21907499 -3.4130502
-0.52610904 0.21982509 -3.5232251
-0.33669218 -0.063601479 -3.025126
-0.36745551 -0.02306582 -3.1028142
-0.37585294 -0.022979898 -3.1147296
-0.32692543 0.016196584 -2.9952412
-0.3520104 0.016664991 -3.0635822
-0.38780254 0.017204454 -3.1411619
-0.43151772 0.01800785 -3.258266
-0.39025348 0.057204999 -3.1407199
-0.41607261 0.057738662 -3.2190337
-0.40312076 0.097470924 -3.1796181
-0.32606441 0.1361286 -2.9844923
-0.35188353 0.13666227 -3.0628064
-0.38767564 0.13720173 -3.1403861
-0.43633503 0.17800713 -3.2568643
-0.32099333 0.21612389 -2.9843423
-0.37541565 0.21699834 -3.1106846
-0.3033933 -0.064139493 -2.9473627
-0.30580199 0.015860144 -2.9466619
-0.27994058 0.055325571 -2.8680892
-0.23911966 0.0947823 -2.7906179
-0.2293952 0.13458127 -2.7609916
-0.27736273 0.1353223 -2.8677557
-0.22953644 0.17459668 -2.7632263
-0.22967769 0.21461208 -2.7654607
-0.25688884 0.21504931 -2.8286321
-0.27478489 0.21531904 -2.8674219
-0.27746168 0.21533681 -2.8697317
-0.30808377 0.21585706 -2.9451852
-0.13080604 0.21286897 -2.5120416
-0.13117312 0.21290161 -2.5170281
-0.16197874 0.21343817 -2.594975
-0.17969127 0.21369159 -2.6312716
-0.18067916 -0.026237711 -2.6427963
-0.18004397 0.05371153 -2.6347992
-0.17987479 0.21370789 -2.6337647
-0.5247162 -0.30011562 -3.5342503
-0.46538678 -0.10119183 -3.3768797
-0.47719511 -0.10102288 -3.4010775
-0.52663094 -0.10015133 -3.5277872
-0.52699798 -0.1001187 -3.5327735
-0.53990757 -0.099851869 -3.5719306
-0.52698213 -0.085119039 -3.5326767
-0.33436811 -0.2235993 -3.0263441
-0.3781018 -0.2402955 -3.1435611
-0.3271369 -0.18379888 -2.9965341
-0.3765727 -0.18292733 -3.1232438
-0.42420712 -0.14199287 -3.259851
-0.36504686 -0.10306545 -3.1035151
-0.39834571 -0.10252744 -3.1812785
-0.4216716 -0.10199523 -3.2597759
-0.2726723 -0.14467424 -2.8699331
-0.30597115 -0.14413622 -2.9476964
-0.22983249 -0.10539697 -2.7650366
-0.25473392 -0.10494488 -2.8308845
-0.30343562 -0.10413858 -2.9476213
-0.18052354 -0.2262658 -2.6391029
0.030586969 -0.39029112 -2.0515742
0.11816691 -0.35168818 -1.849703
0.11552408 -0.39189646 -1.8171829
0.10760102 -0.39163253 -1.856707
0.071811542 -0.38859314 -1.9342706
0.071441829 -0.39106044 -1.9392731
0.11762424 -0.3441394 -1.857134
0.16173251 -0.3927013 -1.7002625
0.25913587 -0.3943139 -1.466789
0.23581 -0.39378169 -1.5452865
0.21791393 -0.39351195 -1.5840764
0.21722208 -0.35344762 -1.5937907
0.26670021 -0.31432006 -1.4668224
0.20001787 -0.39324221 -1.6228663
0.16925454 -0.35270655 -1.7005546
0.20508896 -0.31324694 -1.6227162
0.36696875 -0.38369215 -1.1938941
0.318988 -0.39545083 -1.3007389
0.36997667 -0.31645471 -1.1535665
0.31584519 -0.31538594 -1.3100109
0.36997667 -0.31645471 -1.1535665
0.31834108 -0.31288746 -1.3101783
-0.50208426 1.2250557 -3.4566605
-0.57622206 1.22616 -3.6518586
-0.58123338 1.2486521 -3.6513648
-0.50216979 1.3050541 -3.4561756
-0.58128417 1.2961512 -3.6510768
-0.58129483 1.3061509 -3.6510162
-0.52003247 1.3452696 -3.4947581
-0.53535879 1.3454897 -3.533762
-0.56351775 1.3459337 -3.6119485
-0.58133763 1.3461502 -3.6507738
-0.58133763 1.3461502 -3.6507738
-0.55038559 1.0657156 -3.5744638
-0.58085954 1.0661409 -3.6499779
-0.53759569 1.1054909 -3.5350387
-0.58104622 1.0736557 -3.652426
-0.58179551 1.1062148 -3.6622033
-0.5069859 1.1450498 -3.4567883
-0.58148104 1.1461841 -3.6569736
-0.52235496 1.1852691 -3.4955497
-0.53768122 1.1854893 -3.5345535
-0.50608748 0.30506706 -3.4618819
-0.57020813 0.26618728 -3.6580369
-0.58214766 0.26633653 -3.6847517
-0.58219039 0.30633569 -3.684509
-0.58187592 0.34630501 -3.6792793
-0.53058791 0.38540867 -3.5223069
-0.55750382 0.38596094 -3.6181269
-0.58156139 0.38627434 -3.6740499
-0.56502742 0.42594886 -3.6173484
-0.58035368 0.42616901 -3.6563523
-0.55722469 0.46571666 -3.5775661
-0.57790285 0.46617192 -3.6562884
-0.58075374 0.46619803 -3.6610968
-0.57259375 0.50593597 -3.6163275
-0.58040714 0.47616798 -3.656049
-0.51118267 0.065307118 -3.5030556
-0.49834999 0.065083236 -3.4638731
-0.54183525 0.06574738 -3.5810633
-0.55965519 0.065963767 -3.6198885
-0.51122546 0.1053063 -3.5028131
-0.54437166 0.10574281 -3.5806422
-0.49594197 0.14508533 -3.4635665
-0.58184063 0.14632405 -3.6829858
-0.5330537 0.18563673 -3.5609231
-0.58206207 0.18633817 -3.6852367
-0.50101471 0.2250762 -3.4627242
-0.58192623 0.22632241 -3.6825006
-0.53156555 -0.52237529 -3.5331089
-0.5382573 -0.56223595 -3.5554159
-0.54201561 -0.56213033 -3.5726891
-0.48797399 -0.5181272 -3.4159267
-0.5346669 -0.48251361 -3.507586
-0.55931264 -0.48210475 -3.5709691
-0.45461637 -0.4436363 -3.3376987
-0.53888869 -0.44236514 -3.5321119
-0.54427326 -0.44212872 -3.571826
-0.43924814 -0.43888828 -3.2986791
-0.53638053 -0.43486914 -3.5322499
-0.43608406 -0.48414907 -3.2540536
-0.43644544 -0.48411998 -3.2590404
-0.43642089 -0.47162023 -3.2589693
-0.43781242 -0.44400448 -3.2787602
-0.47076079 -0.84337693 -3.3789642
-0.48611918 -0.84312499 -3.4179554
-0.50155616 -0.88287234 -3.4571738
-0.54763132 -0.88211662 -3.5741472
-0.54755276 -0.84211737 -3.5739198
-0.45532379 -0.80362958 -3.3397458
-0.46818873 -0.8033815 -3.3789175
-0.54747415 -0.80211812 -3.5736923
-0.54739553 -0.76211888 -3.5734649
-0.48837683 -0.72312337 -3.4170923
-0.54731697 -0.72211963 -3.5732374
-0.45259452 -0.68363565 -3.3392441
-0.43972957 -0.68388373 -3.3000722
-0.53777033 -0.68229187 -3.5461245
-0.54723835 -0.68212038 -3.57301
-0.43970501 -0.67138392 -3.3000011
-0.51644295 -0.64262491 -3.4948003
-0.54466629 -0.64212501 -3.5729632
-0.44047585 -0.60381252 -3.3120844
-0.51387089 -0.60262954 -3.4947536
-0.54458767 -0.6021257 -3.5727358
-0.43921912 -0.88395262 -3.2887423
-0.4392426 -0.80393958 -3.290781
-0.4395254 -0.76391131 -3.2955403
-0.43954888 -0.68389827 -3.2975788
-0.44573832 -1.2038662 -3.3026676
-0.48787448 -1.2032306 -3.3998742
-0.48833796 -1.1631879 -3.4071271
-0.53786904 -1.192355 -3.5365572
-0.53853285 -1.1622974 -3.5463605
-0.53788865 -1.2023548 -3.5366142
-0.54576671 -1.2021146 -3.5761473
-0.54818153 -1.1621114 -3.5757391
-0.48771727 -1.1232321 -3.3994193
-0.5148927 -1.1226199 -3.4977105
-0.55059642 -1.1221082 -3.575331
-0.45298287 -1.0838568 -3.3014431
-0.48800007 -1.0832038 -3.4041789
-0.53801423 -1.082328 -3.5409186
-0.45828885 -1.0436212 -3.3409297
-0.50187057 -1.0428693 -3.4580836
-0.54794574 -1.0421137 -3.5750568
-0.53250879 -1.0023663 -3.5358384
-0.54786718 -1.0021144 -3.5748296
-0.48866773 -0.96313339 -3.4159634
-0.53777844 -0.96233022 -3.5402362
-0.44020119 -0.92387921 -3.3014369
-0.48883861 -0.95811898 -3.4184284
-0.51948661 -0.92261583 -3.4962118
-0.54770994 -0.92211586 -3.5743747
-0.43731821 -1.2041502 -3.2556541
-0.43782097 -1.1841069 -3.2630208
-0.43710589 -1.0041393 -3.2570102
-0.43752131 -1.0316098 -3.2621536
-0.43832377 -1.1640637 -3.2703872
-0.43824515 -1.1240644 -3.2701597
-0.43754587 -1.0441096 -3.2622247
-0.43919563 -0.96396571 -3.2867038
-0.43983981 -0.92390829 -3.2964501
-0.48646054 -1.4033723 -3.3760774
-0.51504523 -1.4028432 -3.4592271
-0.54326856 -1.4023433 -3.53739
-0.55613351 -1.4020953 -3.5765617
-0.46889147 -1.3635998 -3.3420265
-0.45602652 -1.3638477 -3.3028545
-0.49711481 -1.3630998 -3.4201894
-0.52284467 -1.3626038 -3.4985328
-0.5382129 -1.3673518 -3.5375524
-0.48720682 -1.3233011 -3.3880897
-0.53902793 -1.3222799 -3.5497637
-0.54849595 -1.3221084 -3.576649
-0.48159921 -1.2833532 -3.3807433
-0.51770055 -1.2826129 -3.4984393
-0.4661622 -1.2436059 -3.3415248
-0.45080382 -1.2438577 -3.3025336
-0.48813376 -1.2432154 -3.402595
-0.50226361 -1.2428657 -3.4592209
-0.54584533 -1.2421138 -3.5763748
-0.43680772 -1.404219 -3.2443242
-0.43709052 -1.3641908 -3.2490838
-0.44058955 -1.3241004 -3.2636361
-0.43729469 -1.2841632 -3.2536156
-0.44051093 -1.2841011 -3.2634087
-0.43739679 -1.2441494 -3.2558815
-0.43250975 1.2774053 -3.3030121
-0.43250403 1.2574059 -3.3031576
-0.43249831 1.2374064 -3.3033032
-0.48059276 1.2782239 -3.4174395
-0.52866429 1.2390436 -3.5321574
-0.43060672 1.3172052 -3.2752888
-0.47886378 1.3180419 -3.3922098
-0.50600833 1.3185126 -3.4579778
-0.42973936 1.3271145 -3.2627466
-0.42979595 0.91714376 -3.2682228
-0.42998147 0.95716077 -3.2704258
-0.47787896 0.91796237 -3.3826499
-0.52700621 0.91888952 -3.5120404
-0.53390855 0.91908455 -3.5391247
-0.53641397 0.95908153 -3.5386598
-0.43034101 0.99719584 -3.2751224
-0.48816839 0.99824369 -3.4214478
-0.50342274 0.99852329 -3.4604795
-0.53393149 0.99908239 -3.5385427
-0.43104866 1.0372671 -3.284807
-0.53394294 1.0390813 -3.5382519
-0.43193033 1.0773565 -3.2969854
-0.53146046 1.0790821 -3.5381351
-0.43211582 1.1173735 -3.2991884
-0.44771829 1.1176893 -3.3432076
-0.49846926 1.118524 -3.4599547
-0.52897799 1.119083 -3.538018
-0.52897799 1.119083 -3.538018
-0.43247038 1.139909 -3.3040123
-0.43264943 1.1574267 -3.3063788
-0.5240016 1.159086 -3.5380752
-0.43300897 1.1974617 -3.3110757
-0.44774121 1.197687 -3.3426259
-0.51125264 1.1988033 -3.4985785
-0.52900094 1.1990808 -3.5374362
-0.52900094 1.1990808 -3.5374362
-0.54132164 0.6790852 -3.5403483
-0.54133308 0.71908408 -3.5400574
-0.54134452 0.75908303 -3.5397666
-0.54135597 0.79908192 -3.5394754
-0.47715986 0.83789223 -3.3732564
-0.49560434 0.83824217 -3.4220896
-0.52611309 0.83880126 -3.5001528
-0.54136747 0.83908081 -3.5391846
-0.42961046 0.87712675 -3.2660198
-0.45762527 0.87768787 -3.3442574
-0.47537357 0.87796545 -3.3831148
-0.52363062 0.87880218 -3.500036
-0.52612025 0.86380059 -3.4999709
-0.538885 0.87908173 -3.5390675
-0.42961761 0.90212607 -3.2658379
-0.42778981 0.59695351 -3.2431178
-0.42816082 0.67698753 -3.2475238
-0.42834631 0.71700454 -3.2497265
-0.42854327 0.79702044 -3.2516387
-0.42890283 0.8370555 -3.2563353
-0.49294999 0.27825946 -3.4263368
-0.52700841 0.31892404 -3.5188985
-0.53123128 0.27910405 -3.5439539
-0.53124279 0.31910297 -3.543663
-0.52348167 0.35881639 -3.5038183
-0.52614963 0.35883248 -3.5061381
-0.43944868 0.39713198 -3.268815
-0.53874749 0.39909485 -3.5425591
-0.43946013 0.4371309 -3.2685242
-0.53875893 0.43909374 -3.542268
-0.43697765 0.47713178 -3.2684073
-0.5412643 0.47909066 -3.5418031
-0.43700057 0.55712962 -3.2678254
-0.42682791 0.27687183 -3.2329762
-0.42701343 0.31688881 -3.2351789
-0.4275814 0.47693872 -3.2414968
-0.42743027 0.55691844 -3.238421
-0.51339132 -0.041164774 -3.5074239
-0.52847165 -0.040903307 -3.5439618
-0.52864569 -0.040885217 -3.5464556
-0.43685162 0.037143812 -3.2716076
-0.47850856 0.078075804 -3.4012291
-0.51591963 0.078829966 -3.506377
-0.528332 0.079075322 -3.5405951
-0.52868009 0.079111502 -3.5455828
-0.47515586 0.11798624 -3.388643
-0.52868581 0.099110954 -3.5454373
-0.52765876 0.15900077 -3.5300376
-0.52869296 0.12411027 -3.5452554
-0.53119695 0.15910734 -3.5448267
-0.4393914 0.19713746 -3.2702699
-0.46990013 0.19769657 -3.3483334
-0.47575822 0.19778307 -3.3604546
-0.52871448 0.19910823 -3.5447099
-0.48267204 0.23797701 -3.387248
-0.51596546 0.23882559 -3.5052133
-0.52802974 0.23903476 -3.5344436
-0.42728129 0.036932658 -3.2422035
-0.42695612 0.11689429 -3.2366338
-0.42731568 0.15692937 -3.2413306
-0.42699051 0.236891 -3.2357609
-0.52789223 -0.24095212 -3.537935
-0.53108233 -0.24088173 -3.5477364
-0.47007632 -0.20200105 -3.3913186
-0.4303568 -0.16273624 -3.2885478
-0.44209591 -0.082565434 -3.3122084
-0.47915891 -0.081847459 -3.4123685
-0.52862853 -0.10088357 -3.5468922
-0.53112817 -0.080886103 -3.5465724
-0.47672185 -0.52110177 -3.3913267
-0.52619994 -0.56022936 -3.5182948
-0.54538077 -0.55984539 -3.574537
-0.54533845 -0.51984632 -3.5742784
-0.44994277 -0.48171794 -3.300288
-0.47411007 -0.48133111 -3.3561633
-0.49864444 -0.48091164 -3.4170249
-0.47573018 -0.45118496 -3.378408
-0.53733081 -0.44011205 -3.5342371
-0.55772012 -0.43984088 -3.5728436
-0.52733403 -0.41761836 -3.5348258
-0.47811991 -0.28096041 -3.4122136
-0.5246954 -0.28012294 -3.5341203
-0.34461635 -0.48359448 -3.0272903
-0.38833153 -0.48279107 -3.1443942
-0.43703321 -0.48198476 -3.261131
-0.39621231 -0.44252804 -3.1836598
-0.22866738 -0.56554025 -2.7455714
-0.27626786 -0.56483185 -2.8473489
-0.22641474 -0.51823711 -2.7153459
-0.23679668 -0.48547244 -2.7544763
-0.27806091 -0.52466959 -2.8720224
-0.29591468 -0.48440078 -2.9105537
-0.31131747 -0.4841325 -2.949527
-0.32580262 -0.48394579 -2.9760344
-0.20104685 -0.52601099 -2.677155
-0.21387184 -0.44574597 -2.7157948
-0.16984022 -0.56680626 -2.5593922
-0.12879348 -0.48736674 -2.4791689
-0.1782293 -0.48649517 -2.6058786
-0.12145498 -0.44735569 -2.4819543
-0.19067284 -0.56627548 -2.6380732
-0.02871111 -0.55922246 -2.20875
-0.026618212 -0.48940352 -2.1808722
0.02047394 -0.45006388 -2.0863156
0.02302493 -0.46779189 -2.0515242
-0.023608308 -0.44922784 -2.208406
-0.062336989 -0.44842735 -2.325877
0.043031719 -0.41030478 -2.0526206
-0.079908267 -0.48818934 -2.3599391
0.053722177 -0.57082611 -1.9742398
0.043348156 -0.53056163 -2.0133219
0.13082081 -0.49216935 -1.7788554
0.11875268 -0.49175712 -1.8406348
0.071726605 -0.46859819 -1.9347873
0.11554487 -0.37190378 -1.8170531
0.10762181 -0.37163985 -1.8565772
0.12053666 -0.36690679 -1.8173878
0.11015736 -0.33164221 -1.8565021
0.11764503 -0.32414672 -1.8570042
0.16993926 -0.57279003 -1.6895105
0.17139319 -0.41290784 -1.6710236
0.16996719 -0.37277824 -1.6907105
0.16792038 -0.57261056 -1.7169356
0.22029276 -0.57374316 -1.5503349
0.21680559 -0.57343316 -1.5977057
0.26648575 -0.51682234 -1.4681312
0.2362318 -0.41404769 -1.5053406
0.25915664 -0.37432122 -1.4666592
0.21793473 -0.37351927 -1.5839466
0.2616922 -0.33432359 -1.4665841
0.21742642 -0.33347124 -1.5911676
0.26690453 -0.29434371 -1.4641994
0.26671305 -0.30182722 -1.4667411
0.26672098 -0.29432738 -1.4666926
0.24633168 -0.29405621 -1.5052989
0.19243205 -0.49324247 -1.6229616
0.21829346 -0.45377705 -1.5443891
0.19251662 -0.41324428 -1.6224444
0.20003867 -0.37324956 -1.6227365
0.20257421 -0.33325189 -1.6226614
0.16927534 -0.3327139 -1.7004247
0.2026165 -0.29325283 -1.6224028
0.3165949 -0.57525784 -1.3318205
0.28476432 -0.57485038 -1.3896383
0.4001483 -0.4967345 -1.1168576
0.3902176 -0.45672959 -1.1158648
0.36560699 -0.45608318 -1.2118148
0.31951711 -0.41550618 -1.2933881
0.36696047 -0.39119887 -1.1939421
0.36994988 -0.34146103 -1.1537277
0.36698955 -0.3636995 -1.1937642
0.32033584 -0.33557326 -1.2828981
0.36995783 -0.33396119 -1.1536791
0.32833222 -0.29540053 -1.3107988
0.3187263 -0.29542735 -1.3050783
0.31835923 -0.29539472 -1.3100647
0.27112582 -0.29471895 -1.4068558
-0.47618482 -0.88117522 -3.3811882
-0.51740676 -0.88037324 -3.4984756
-0.52635479 -0.88023841 -3.5178704
-0.54821235 -0.87983668 -3.5764225
-0.54817009 -0.83983761 -3.5761638
-0.44030809 -0.80171651 -3.303091
-0.54812777 -0.79983848 -3.5759053
-0.48896748 -0.76091111 -3.4195693
-0.53517592 -0.76010627 -3.5364897
-0.54808545 -0.75983942 -3.5756466
-0.50183475 -0.72064519 -3.4584677
-0.5351336 -0.72010714 -3.536231
-0.50175017 -0.64064699 -3.4579504
-0.52591747 -0.64026016 -3.5138257
-0.45300621 -0.6014542 -3.340955
-0.48381183 -0.60091764 -3.4189019
-0.38328233 -0.84304541 -3.1070142
-0.41163701 -0.88250935 -3.1854031
-0.43242735 -0.8419795 -3.2638257
-0.41199574 -0.80225158 -3.2249608
-0.42666441 -0.80204856 -3.2539613
-0.37865457 -0.7627905 -3.1469388
-0.42735624 -0.76198423 -3.2636755
-0.42785019 -0.88194889 -3.2694378
-0.31672689 -0.88412052 -2.9517462
-0.22837052 -0.80558372 -2.7396436
-0.26041859 -0.76493388 -2.834784
-0.30867696 -0.76438719 -2.9114461
-0.30413377 -0.76413047 -2.9518881
-0.22516584 -0.72586292 -2.6967418
-0.27782905 -0.72492462 -2.8332407
-0.27657825 -0.68481278 -2.8506181
-0.22657861 -0.67323357 -2.7163479
-0.23696585 -0.64546883 -2.7555108
-0.22676893 -0.85322946 -2.7175119
-0.20632941 -0.80600172 -2.6785984
-0.22673985 -0.82573009 -2.717334
-0.20379385 -0.76600409 -2.6785233
-0.21666113 -0.72573817 -2.7174218
-0.20861119 -0.60600483 -2.6771216
-0.080698259 -0.88814765 -2.3675117
-0.080698259 -0.88814765 -2.3675117
-0.11150388 -0.88761109 -2.4454584
-0.12938936 -0.87734157 -2.4841838
-0.17577231 -0.76673353 -2.570291
-0.17801438 -0.80403692 -2.6004517
-0.11133471 -0.7276147 -2.4444239
-0.17628063 -0.72668552 -2.5775118
-0.11378567 -0.68761414 -2.4439819
-0.1699248 -0.64680445 -2.5599093
-0.17582898 -0.64671993 -2.5720084
-0.17762204 -0.60655773 -2.5966816
-0.19819488 -0.60627019 -2.6377811
-0.028692948 -0.8892476 -2.2058973
-0.028467121 -0.8492648 -2.2031455
-0.026871964 -0.72939807 -2.1824241
-0.020840913 -0.60948527 -2.1695492
-0.080472432 -0.84816486 -2.3647599
-0.028732255 -0.57922202 -2.2088795
0.14330745 -0.89242709 -1.7422847
0.11998158 -0.89189488 -1.8207822
0.11998158 -0.89189488 -1.8207822
0.11998158 -0.89189488 -1.8207822
0.096655704 -0.89136267 -1.8992797
0.12208505 -0.81207615 -1.7928398
0.071340695 -0.83358991 -1.9371471
0.040601157 -0.77055478 -2.0146899
0.12235317 -0.73209429 -1.7898294
0.11868247 -0.73176801 -1.8396933
0.13817368 -0.61217099 -1.780182
0.071546867 -0.63859433 -1.9358864
0.16985469 -0.65278822 -1.6900277
0.16787809 -0.61260962 -1.7171943
0.2208721 -0.89381748 -1.5399379
0.21958736 -0.89370328 -1.5573902
0.22132376 -0.81385189 -1.5344342
0.21930487 -0.81367242 -1.5618594
0.26864174 -0.7345295 -1.4371258
0.26918176 -0.74457824 -1.4297109
0.22085774 -0.73380476 -1.5413966
0.2334848 -0.65404081 -1.5067087
0.22020818 -0.65374136 -1.5508522
0.26803446 -0.61446697 -1.4463227
0.22560404 -0.61377776 -1.5459743
0.21766776 -0.62601358 -1.5855792
0.2167633 -0.61343229 -1.5979643
0.26641172 -0.58682078 -1.4685837
0.38725916 -0.89671814 -1.1185261
0.38730145 -0.85671908 -1.1182674
0.32066143 -0.89564216 -1.2740527
0.29190573 -0.89484745 -1.3922579
0.389837 -0.81672144 -1.1181924
0.39237252 -0.7767238 -1.1181173
0.3202377 -0.7755959 -1.2807565
0.39241481 -0.73672467 -1.1178586
0.32027999 -0.73559684 -1.2804979
0.3924571 -0.69672561 -1.1176001
0.29461044 -0.69485343 -1.3911483
0.32839492 -0.65565193 -1.2730516
0.2926451 -0.61511338 -1.3503728
0.27140912 -0.89478689 -1.3982691
0.27094311 -0.81473976 -1.4052315
0.2704348 -0.77469176 -1.4124525
-0.44821078 -1.2017031 -3.3051267
-0.45609155 -1.16144 -3.3443921
-0.4789741 -1.1611674 -3.3828149
-0.48693946 -1.2009026 -3.4225976
-0.52499896 -1.1603789 -3.497242
-0.4757044 -1.121235 -3.3727672
