ply
format ascii 1.0
comment PCL generated
element vertex 1391
property float x
property float y
property float z
element camera 0
property float view_px
property float view_py
property float view_pz
property float x_axisx
property float x_axisy
property float x_axisz
property float y_axisx
property float y_axisy
property float y_axisz
property float z_axisx
property float z_axisy
property float z_axisz
property float focal
property float scalex
property float scaley
property float centerx
property float centery
property int viewportx
property int viewporty
property float k1
property float k2
end_header
-10.756131 0.62593812 -0.45993912
0.42130566 0.67060393 -0.45320815
-10.757601 0.8284297 -0.45897391
0.42512751 0.91062033 -0.45478284
-2.440182 1.4367683 -0.45964319
-4.0796719 -1.2514707 -0.44814509
-5.7588906 -1.2128125 -0.44095293
0.44707537 -0.90876114 -0.44981334
-9.1605854 -0.84616584 -0.44419396
-9.1790018 -0.72630495 -0.44349626
-0.75075436 -0.39272094 -0.44605502
-5.8462033 -0.37598455 -0.44843623
-9.1317863 -0.36592883 -0.44371212
-3.2558167 -0.32487071 -0.44180986
-3.1758893 -0.31949526 -0.44457045
-7.3282309 -0.17099445 -0.44295436
-7.3685155 -0.13633645 -0.44194868
0.40636396 0.15053728 -0.44956857
0.41241646 0.21108963 -0.44385782
-0.67806435 0.74654573 -0.44373128
-0.70338345 0.82643658 -0.44251341
-0.58095884 0.82696545 -0.44676414
-8.5769138 -1.2817047 -0.43836054
-4.4920974 -1.2184092 -0.43426982
-4.4521341 -1.2157205 -0.43565044
0.51189566 -0.70856857 -0.43120369
-6.203351 -0.69904488 -0.43937585
-3.7342687 -0.68970466 -0.43829739
-9.7042198 -0.35786587 -0.43079957
-9.4243565 -0.3481968 -0.43707991
-3.4958825 -0.28349966 -0.43386722
-0.63533068 0.74669749 -0.43771097
-10.756863 0.80581594 -0.43408766
-8.9363918 -1.3245033 -0.42536336
-5.7186093 -1.2150191 -0.42933464
-4.7720432 -1.197225 -0.42484507
0.47292805 -0.90876001 -0.42569667
-10.886753 -0.53524023 -0.42226934
0.51123381 -0.5085938 -0.42532963
-10.837639 -0.41487765 -0.42284358
-10.707695 -0.4114188 -0.42581311
-9.9212532 -0.41204977 -0.42603862
-10.614446 -0.17322913 -0.42685944
-10.610029 -0.093195155 -0.42659229
-10.616189 0.066761509 -0.4257156
-10.631945 0.17165525 -0.42487067
-10.642776 0.28657687 -0.42409357
-10.63336 0.36664772 -0.42394069
-10.754904 0.58325523 -0.42015269
-10.632893 0.64665508 -0.42266369
-8.7764072 -1.2833009 -0.41386524
-8.736475 -1.2829852 -0.41726595
-8.72892 -1.282933 -0.41493389
-8.5964575 -1.2819066 -0.4179154
-8.5489721 -1.281538 -0.41898516
-5.0118141 -1.2158517 -0.41655055
-5.0093164 -1.2158388 -0.41663542
0.51232862 -0.64615417 -0.41094214
-4.0539713 -0.60861915 -0.41286609
-4.0641484 -0.57116812 -0.41274539
-5.9644518 -0.49712259 -0.41380882
-6.6054921 -0.41000193 -0.4195503
-2.9742401 -0.40081257 -0.41093829
-5.8053994 -0.37578332 -0.41181391
-2.9194436 -0.36555642 -0.41302067
-3.014596 -0.32350332 -0.41002592
-4.1864285 -0.091744505 -0.41145739
-4.1764841 -0.081698462 -0.41185737
0.41884804 0.43082821 -0.41165769
0.41865301 0.47082651 -0.41189101
0.42056417 0.59083581 -0.41267812
0.42497349 0.71085566 -0.41355184
0.43359518 0.99089473 -0.41553113
0.4333992 1.0308932 -0.41576508
-8.7762928 -1.2833133 -0.40886763
-4.2509995 -1.1920424 -0.40263203
-1.346427 -1.1553683 -0.40544093
-9.1812172 -0.64642072 -0.4032492
-7.2535238 -0.6280269 -0.40627477
-9.1816387 -0.59142268 -0.40310961
-7.243969 -0.57544416 -0.40628651
-0.74930334 -0.40785545 -0.40613291
-9.1283875 -0.36600381 -0.40377775
-0.74958611 -0.34035707 -0.40589419
-3.2943928 -0.33231843 -0.40042478
-3.2144773 -0.32444209 -0.40319934
-3.0545588 -0.32619095 -0.40864596
-2.9342039 -0.32555199 -0.40025038
-3.1345494 -0.3190667 -0.40595928
-9.9442215 -0.29227373 -0.40523401
-9.1439981 -0.28612357 -0.40323883
-7.3270454 -0.20864178 -0.40311137
-7.3675613 -0.14648448 -0.40199798
-7.317554 -0.14855948 -0.40309367
0.41880083 0.21094166 -0.40405595
-0.6918335 0.78631055 -0.40306053
-0.63461924 0.84655887 -0.40479234
-0.72214985 0.86617941 -0.40166831
-0.71981907 0.90618908 -0.40158045
-8.5759001 -1.2818104 -0.39337242
-4.9310088 -1.2153251 -0.39429682
-5.8047571 -0.41333711 -0.39696315
-6.6052899 -0.38257653 -0.39944744
-5.8051987 -0.36083966 -0.39675871
0.1436429 -0.31025076 -0.39671054
-4.1358619 -0.091405392 -0.39567441
-0.67408466 0.78635424 -0.39617193
-0.63477182 0.98650354 -0.39168492
-10.718685 1.1659349 -0.39829984
-10.198649 1.2071725 -0.39004907
-10.158807 1.2274661 -0.39087152
-4.0100803 -1.2507783 -0.38798618
-1.4032836 -1.1556761 -0.38595685
-4.0522366 -0.77094966 -0.384433
-9.8224201 -0.47138572 -0.38839388
0.51245499 -0.46876389 -0.3851786
-9.9609566 -0.33245605 -0.38494718
-5.8851705 -0.33655953 -0.38492692
-2.9737551 -0.32566464 -0.38639161
-3.6144357 -0.2863214 -0.38978159
-4.2152772 -0.13171892 -0.3827149
-4.0951781 -0.131126 -0.381814
-10.609401 -0.053380702 -0.3864122
-10.612624 0.046603739 -0.38587856
-10.615271 0.066578239 -0.38572541
-10.644649 0.3263728 -0.38385651
-10.631393 0.5664739 -0.38305625
-10.753985 0.5830707 -0.38016334
-10.629476 0.6464901 -0.38273174
-10.453012 1.1277974 -0.38457114
-8.6954899 -1.2877753 -0.3756887
-4.0518727 -0.75837475 -0.37201229
-2.9553611 -0.40549105 -0.37153038
-2.9807377 -0.3256098 -0.37114474
-3.9742341 -0.25048435 -0.37271616
-7.2064867 -0.1877508 -0.37064546
-7.3269548 -0.14874746 -0.37538257
-4.1349354 -0.12376829 -0.3729977
-4.2225423 -0.091680363 -0.37020051
0.41639185 0.19105163 -0.37010598
-10.754295 0.62556958 -0.37996137
0.42422962 0.63108569 -0.37302187
0.43804598 0.87115026 -0.37493739
0.43726158 1.031145 -0.37587473
0.42898273 1.191106 -0.37655339
-9.1356144 -1.2586858 -0.36570704
-5.6143317 -1.2543958 -0.36423242
-5.4968638 -1.2533956 -0.3667829
-5.4493761 -1.2529902 -0.3678143
-5.3570294 -1.2372047 -0.36976296
-5.7570882 -1.2206107 -0.36100221
-4.929987 -1.2151449 -0.36431375
0.19609499 -1.170199 -0.36215538
-9.1537848 -0.84631479 -0.36432755
-9.1725101 -0.68645567 -0.36352858
-9.1728191 -0.6464566 -0.36342695
-7.2425504 -0.64059067 -0.36655053
-7.2430987 -0.57559419 -0.36629558
-5.9634733 -0.49729019 -0.36882037
-9.176548 -0.48648149 -0.36296755
-9.1177979 -0.32602274 -0.36391217
-3.2705665 -0.32697141 -0.36124745
-3.1731369 -0.32401407 -0.36458993
-3.0532444 -0.31595123 -0.36872935
-9.1430588 -0.29121721 -0.3632614
-9.9470053 -0.27869388 -0.36265397
-4.2143612 -0.23164175 -0.36963853
-7.2464085 -0.18311122 -0.36475909
-4.2321439 -0.17172489 -0.36939111
-2.4299519 -0.16003424 -0.36442572
-7.3667798 -0.14911518 -0.36701673
0.40137148 -0.069310918 -0.36461478
0.41428566 0.11104248 -0.36955267
0.42468214 0.59113252 -0.36529207
-0.67342567 0.89871532 -0.3631987
-0.72625923 0.98598593 -0.36099273
-0.6739583 1.0262128 -0.36263952
-9.0951338 -1.2859045 -0.35418028
-4.5493588 -1.2132094 -0.35229927
-4.5293469 -1.2181163 -0.35295245
-9.659833 -0.69523346 -0.35257292
-5.7042313 -0.37513685 -0.35899714
-5.7243733 -0.35780764 -0.3584953
-5.964581 -0.3273527 -0.3531583
-5.924634 -0.32201284 -0.35400617
-4.2143388 -0.13155466 -0.35523266
-0.6732769 0.94617122 -0.35299662
-10.717651 1.1657281 -0.35331222
-1.9962854 1.4381632 -0.35498378
-8.3349609 -1.2500806 -0.3437106
-5.7566953 -1.2156856 -0.34098709
-10.901337 -1.0282379 -0.34418011
-10.893929 -1.0156829 -0.34429318
-10.661623 -0.9964698 -0.34954011
-9.659647 -0.69025636 -0.34256333
-10.864505 -0.59295875 -0.34302425
-2.3879242 -0.50491571 -0.34954619
-9.8215771 -0.46398079 -0.34838599
-10.835802 -0.41524559 -0.34286559
-9.9194527 -0.41223675 -0.34605986
-0.12712431 -0.35409909 -0.34746587
-6.3245249 -0.32541823 -0.3453241
-9.912878 -0.29218328 -0.34592414
-9.9028234 -0.29960522 -0.34616911
-2.4466658 -0.20016734 -0.34647107
-10.610111 -0.17357862 -0.34693778
-10.609062 0.026432924 -0.3460418
-10.611996 0.086418584 -0.34569967
-10.613157 0.24641259 -0.34493726
-10.615948 0.28639215 -0.34468889
-10.516785 1.0871361 -0.34328341
-5.6361732 -1.2546992 -0.3337515
-6.8568926 -0.6249615 -0.33486712
-7.0022945 -0.57369912 -0.33151406
-5.9627671 -0.49741137 -0.33632731
-0.55403852 -0.43229759 -0.3329491
-2.9713888 -0.42533094 -0.33083987
-5.6836925 -0.37505901 -0.33443779
-0.62672472 -0.37761045 -0.33023977
-2.9318163 -0.34264642 -0.33268881
-4.2125921 -0.33141333 -0.33157533
-0.54709864 -0.29976755 -0.3327406
-4.1358356 -0.17103848 -0.33265871
-2.3889294 -0.11998083 -0.33069354
-10.753376 0.62538534 -0.33997238
0.43940973 0.87138999 -0.33496195
0.44362402 1.0314087 -0.33606863
0.44073343 1.1113957 -0.33645093
0.43803835 1.1513826 -0.3366006
0.13743687 -1.1506286 -0.32001036
-9.1556902 -0.80642992 -0.32417917
-9.1659946 -0.76650906 -0.32385451
-9.1744165 -0.64657027 -0.32338154
-10.864229 -0.57554018 -0.32544565
-9.172533 -0.56655443 -0.32323575
-0.54619646 -0.43229938 -0.32321608
-3.0113645 -0.42551851 -0.32947415
-9.1215858 -0.36615396 -0.3239122
-5.6434836 -0.36227548 -0.32025957
-3.1717846 -0.32127339 -0.32462758
-0.63949013 -0.31266654 -0.32957596
-9.9458694 -0.30887693 -0.32280707
-9.9535122 -0.28893235 -0.32254028
-9.9460688 -0.28137773 -0.32267559
-2.3884196 -0.19999588 -0.32597965
-2.3486118 -0.15982562 -0.32722598
0.41814804 0.1112951 -0.3296631
0.42044973 0.15130615 -0.32998192
0.42174578 0.17060272 -0.32428139
0.42407703 0.21061276 -0.32419163
-8.4940662 -1.2813851 -0.31269318
-9.6215401 -0.35752785 -0.31263018
-6.0836153 -0.33602393 -0.31059283
-5.7637248 -0.33079904 -0.31752843
-6.0037017 -0.32784289 -0.31230003
-5.8037338 -0.32863921 -0.31665087
-2.0348721 1.4378216 -0.31361979
-8.1963673 -1.2791095 -0.30689007
-4.6879849 -1.1986275 -0.30763352
0.23815632 -1.1502917 -0.3009941
-10.660759 -0.98915434 -0.30951631
-6.921505 -0.58563799 -0.30080765
-10.864149 -0.51564598 -0.30266601
-9.9009991 -0.41969645 -0.3064822
-0.27065802 -0.35121793 -0.30249268
-0.3056469 -0.34886867 -0.30127025
-2.4847505 -0.32047349 -0.30553299
-2.4472737 -0.32031238 -0.30683327
-10.623316 -0.29386738 -0.30717754
-2.4074655 -0.28014058 -0.30808026
-2.4456127 -0.12030426 -0.30621201
-2.4281962 -0.10272995 -0.30675799
-10.610644 0.026230253 -0.30599576
-10.608436 0.066246845 -0.30586308
-10.629171 0.16860344 -0.30491519
-10.630514 0.35359555 -0.30403477
-10.619268 0.52618122 -0.30349904
-10.75215 0.58270252 -0.3001855
-10.617352 0.60619694 -0.30317485
-10.456174 1.1273928 -0.3044793
-10.436235 1.1350399 -0.30490154
-2.3147018 1.4366094 -0.30390549
-2.1947737 1.4371284 -0.30806851
-2.1547995 1.4373013 -0.30945736
-8.7335033 -1.3107723 -0.29486626
-8.6935349 -1.307963 -0.29575974
-8.8935547 -1.2995123 -0.29123557
-5.0874906 -1.2530038 -0.29367203
-5.1275039 -1.2456913 -0.29235137
-5.0475998 -1.2353159 -0.29513997
-4.0269389 -1.2102864 -0.29009598
0.19818068 -1.1504647 -0.29960704
-2.9704785 -0.33259386 -0.29140478
-2.9954989 -0.32521063 -0.29059589
-0.59312868 -0.31260818 -0.29116154
0.42823219 0.37157452 -0.29154837
-10.752457 0.62520152 -0.29998362
-10.753601 0.78269565 -0.2992329
-10.75391 0.82519352 -0.29902977
-10.737431 0.9653179 -0.29876393
0.44498825 1.0316497 -0.29609245
-10.736092 1.1253306 -0.29805905
-10.716497 1.1804749 -0.29825526
-5.7278996 -1.2156758 -0.28159851
-4.2468944 -1.1938195 -0.28269017
-9.1622868 -0.80658174 -0.28402144
-10.782059 -0.73515242 -0.28305495
-7.2007599 -0.6480481 -0.287467
-2.4651418 -0.64047116 -0.28478658
-2.3451285 -0.63996184 -0.28645152
-7.2412548 -0.58839113 -0.28636456
-9.1691322 -0.56662869 -0.28330183
-10.863488 -0.53574866 -0.28026766
-6.1629758 -0.33930767 -0.28137213
-9.1412964 -0.28640607 -0.28326917
0.4143095 -0.1096056 -0.28518629
0.42796326 0.21045457 -0.28430349
-5.7151856 -1.2156065 -0.27187234
-2.3146253 -0.63988411 -0.27250117
-2.4656374 -0.48049021 -0.27922326
-10.824141 -0.41550386 -0.2706154
-5.7624116 -0.38344622 -0.27774376
-5.8428326 -0.33162862 -0.27580225
-2.3461971 -0.26001868 -0.2701149
-2.3239629 -0.19992183 -0.27068347
-2.3016438 -0.15982559 -0.27132243
0.42884207 0.35166508 -0.27644086
-4.8864288 -1.214325 -0.26074216
-4.0061841 -1.210057 -0.26829302
-3.9661217 -1.2098548 -0.26716012
-10.781784 -0.71773267 -0.26547581
-2.4918499 -0.68064702 -0.2664839
-6.9206896 -0.585778 -0.26331729
-9.7973776 -0.4514944 -0.26888031
-9.9176521 -0.4124254 -0.26607931
-10.796766 -0.37533867 -0.26355708
-6.3624806 -0.36105692 -0.26461279
-6.3627968 -0.32355767 -0.26446611
-10.602695 -0.25390697 -0.26745695
-10.600776 -0.17389125 -0.26713276
-2.3765984 -0.16014916 -0.26872033
-2.3467417 -0.13002032 -0.26965517
-10.601357 -0.093893237 -0.26675153
-10.623093 0.1459498 -0.26514876
-10.623526 0.20595469 -0.26486248
-10.61161 0.28604299 -0.26476884
-10.634975 0.40587252 -0.26367956
-10.75123 0.58251911 -0.26019782
-10.614515 0.68602842 -0.26286083
-10.640378 0.80583948 -0.26171666
-10.472751 1.1270798 -0.26408869
-10.435407 1.1473551 -0.2648527
-8.8525505 -1.314297 -0.25218296
-5.3144526 -1.2348108 -0.25065064
-5.1261768 -1.2379508 -0.25241977
-3.9481206 -1.2096827 -0.25276589
-6.8801889 -0.62047356 -0.25432462
-6.9605455 -0.57615703 -0.25241286
-2.9686611 -0.42485023 -0.25088847
-2.9290638 -0.34716547 -0.25270671
-9.1003237 -0.32616419 -0.25427884
0.4362092 0.55184549 -0.25288224
-10.751539 0.625018 -0.25999427
0.44542027 0.71188831 -0.25415999
0.44963455 0.87190652 -0.2552669
-10.693266 1.205456 -0.25866365
-5.5543656 -1.2393544 -0.24545068
-4.2455678 -1.1860791 -0.24275732
-9.1638861 -0.80669588 -0.24397582
0.43853712 -0.79217654 -0.2488997
-7.2004795 -0.57820052 -0.24720281
0.43502522 -0.54969227 -0.24774909
0.44485331 -0.50964838 -0.24792063
-9.1638489 -0.48668653 -0.2432223
-9.1147871 -0.36630303 -0.24404466
-4.2172747 -0.33095193 -0.24886841
-2.3454945 -0.20011327 -0.242419
0.4258728 0.1118 -0.24988079
0.42968607 0.13028565 -0.24467874
-2.5435295 -0.64096773 -0.2370382
-2.2732608 -0.63984758 -0.2339136
-2.3033998 -0.60247767 -0.23273998
-0.042526722 -0.46925902 -0.23082048
-5.8412042 -0.42177397 -0.23616421
-6.0418663 -0.33848089 -0.23149055
-2.2429581 -0.11971484 -0.23320001
-2.2255211 -0.10713923 -0.23376387
-10.750875 0.60491502 -0.23759639
-10.752329 0.80490798 -0.2366429
-2.0720701 1.4373081 -0.23228115
-2.0320957 1.4374812 -0.2336691
-8.3323345 -1.2403634 -0.22371554
-4.9000554 -1.2141545 -0.22025466
-4.8775692 -1.2140487 -0.22102225
-3.4059162 -0.84682959 -0.22092098
0.43905306 -0.74976194 -0.22872633
-10.685766 -0.734716 -0.22774965
-10.841883 -0.57586473 -0.22343302
-10.82055 -0.41570479 -0.22318548
-6.2819486 -0.32302582 -0.22621322
-6.2419181 -0.32768506 -0.2270996
-6.2019072 -0.32984442 -0.22797829
-10.623907 -0.30425358 -0.22718996
-2.3498893 -0.24017541 -0.22989559
-10.603518 -0.014099352 -0.22632426
-10.603951 0.0459048 -0.2260381
0.43130541 0.23199977 -0.22077167
-10.605694 0.28589553 -0.22489351
-10.632428 0.52570373 -0.22317594
-10.615513 0.60582846 -0.22319704
-10.649747 0.84557974 -0.22130728
-8.7391043 -1.3235185 -0.21474916
-8.9317808 -1.2950104 -0.21034259
-8.5822649 -1.2423003 -0.21809137
-5.3136034 -1.2324595 -0.21065003
-7.0388956 -0.66698366 -0.21103776
-2.8976326 -0.36428326 -0.21365172
0.43203878 0.15206213 -0.21031076
0.43184185 0.19206153 -0.21054351
0.4341445 0.2320724 -0.21086353
0.43835831 0.39209098 -0.21197063
0.44026852 0.51209873 -0.21275711
0.45349693 0.87215912 -0.21537608
0.45330048 0.91215783 -0.21560997
-10.732803 0.92497015 -0.21903414
0.45290947 0.99215573 -0.21607709
-8.0118074 -1.237949 -0.20342308
-5.3936667 -1.2231413 -0.208875
-9.1604862 -0.80676979 -0.20404148
-9.1567192 -0.6467371 -0.20374972
-6.9990816 -0.62667316 -0.20425135
-4.177845 -0.45053101 -0.20947063
-9.0992746 -0.31628227 -0.20426655
-9.1120014 -0.28638068 -0.20390821
0.4247489 -0.14991069 -0.2056722
0.42708015 -0.10990168 -0.20558292
0.43390846 0.050129063 -0.20514083
0.42973614 0.11205247 -0.2099911
0.43607235 0.13013798 -0.20487732
0.43573856 0.21013694 -0.20452625
-7.9314337 -1.2523584 -0.19276321
-6.1555886 -0.97712415 -0.19139081
-2.2318966 -0.63981056 -0.19532627
-2.2620046 -0.60994077 -0.1941787
-5.8005562 -0.39658469 -0.19694418
-2.3005271 -0.36010617 -0.19199324
-6.080986 -0.33897144 -0.19063133
-6.0235014 -0.33848214 -0.19188017
-5.973516 -0.33805639 -0.19296521
-5.9210925 -0.33010894 -0.19407457
-5.760911 -0.33627391 -0.19007856
-5.8011475 -0.3265875 -0.19667077
-9.4572105 -0.24905443 -0.19604522
-10.630459 0.68558812 -0.19497871
-8.6508417 -1.3229226 -0.18172777
-8.3189373 -1.2403609 -0.18400764
-8.2739506 -1.2400123 -0.18501973
-10.679268 -0.81486076 -0.18825668
-4.0859547 -0.68996662 -0.18865216
-4.0861502 -0.64996827 -0.18888545
-2.6218328 -0.64147317 -0.18679088
-7.1987543 -0.62842166 -0.18741405
-7.0386891 -0.62707794 -0.1858874
-3.4057269 -0.60659611 -0.18234795
-9.925848 -0.41269207 -0.18587518
-6.338079 -0.38116235 -0.18519932
-10.782434 -0.37561345 -0.18386668
-6.3610363 -0.32635647 -0.18449605
-6.2011008 -0.32249433 -0.18795794
-6.4011097 -0.31669694 -0.18358833
-10.683914 -0.17488502 -0.18520498
-10.684496 -0.094888367 -0.18482429
-10.685076 -0.014891081 -0.18444312
-10.597601 -0.014246311 -0.18644869
-10.685366 0.025107361 -0.18425173
-10.600534 0.045740247 -0.18610668
-10.611258 0.14565553 -0.18540049
-10.617561 0.32561827 -0.18442786
-10.627849 0.36554402 -0.18400782
-10.64325 0.76543593 -0.18181431
-8.6507282 -1.3229342 -0.17672819
-8.8908148 -1.3047942 -0.171278
-9.0911932 -1.2863152 -0.1792255
-8.3312664 -1.2404758 -0.17622763
-3.9453919 -1.2092016 -0.17281306
-4.1024551 -0.76994205 -0.17009813
-3.2058372 -0.48555481 -0.17238665
-3.9271431 -0.34411967 -0.17864251
-2.9264085 -0.33168358 -0.1728425
0.43359852 0.11230363 -0.17010069
0.43703318 0.16999987 -0.1722216
0.43761539 0.31232244 -0.17143995
0.44452333 0.4323529 -0.17239821
0.44432735 0.47235286 -0.17263323
0.45334244 0.67239296 -0.17414445
0.45314646 0.71239209 -0.17437851
0.45755529 0.83241308 -0.17525113
-10.731884 0.92478538 -0.17904586
0.45946693 0.95242101 -0.17603809
-10.712362 0.98993009 -0.17919487
0.45657539 1.0324074 -0.17642063
0.46137571 1.0724285 -0.17682517
-10.713451 1.139924 -0.17847955
0.45579147 1.1924024 -0.17735749
-9.0859127 -1.2863055 -0.16684043
-5.5926161 -1.2399937 -0.1646027
-9.1645842 -0.80690265 -0.16393948
-7.1981716 -0.64599657 -0.16748673
-7.0933485 -0.62760192 -0.16969812
-7.1586056 -0.59565699 -0.16816008
-3.1930039 -0.48543531 -0.16282028
-4.2470269 -0.33062381 -0.16780758
0.43096828 -0.11005966 -0.16569424
0.43979263 0.16997795 -0.16481227
-10.666622 0.24518444 -0.16866589
-10.666798 0.28516006 -0.16347772
-5.8570032 -0.41722226 -0.15578473
-5.765203 -0.3364386 -0.15747905
-5.8402658 -0.32707763 -0.15581095
-3.6073878 -0.087414905 -0.15607738
-3.5803225 0.032741934 -0.15272129
-10.627741 0.44540185 -0.15363491
-8.1502781 -1.2791555 -0.14788693
-8.4903154 -1.2642903 -0.14019293
-8.4503851 -1.2564806 -0.14107531
-10.817057 -0.98856896 -0.1458801
-10.681139 -0.77506471 -0.14801997
-4.1242013 -0.72988248 -0.14207935
-3.2050695 -0.48541874 -0.14990079
-0.23983765 -0.42046416 -0.14371037
-10.808716 -0.41599929 -0.14343739
-10.786514 -0.37583494 -0.14376199
-6.4798603 -0.36002666 -0.14202732
-6.5124998 -0.34280342 -0.14125353
-10.682996 -0.17506814 -0.14521718
-10.683578 -0.095071092 -0.14483541
-10.600485 0.16555141 -0.14554495
-10.613853 0.28545541 -0.14468592
-10.686913 0.36491793 -0.14264262
-10.624722 0.40537679 -0.14388537
-10.611177 0.60547906 -0.14327621
-10.645121 0.80523294 -0.14157712
-8.7297478 -1.3311479 -0.13495749
-8.6723213 -1.3232033 -0.13623351
-8.8098412 -1.3167679 -0.13312
-8.5754662 -1.2424498 -0.1382243
-5.0422044 -1.2218544 -0.13530898
-3.9415302 -1.208948 -0.13292301
-3.8965573 -1.2087381 -0.13445908
-2.7233391 -0.70299417 -0.13751417
-6.5198331 -0.34289551 -0.13359296
-9.3788853 -0.16860989 -0.132604
0.44358492 0.39258361 -0.13210273
0.45259857 0.59262443 -0.13361502
0.4549017 0.63263512 -0.13393402
0.45720482 0.6726467 -0.13425303
0.46082973 0.95266181 -0.1360625
-5.202024 -1.2401056 -0.12974638
-5.4318323 -1.2337809 -0.12806481
-4.1339645 -0.68985659 -0.12947977
-9.1508417 -0.52689058 -0.12357956
-10.660162 -0.49501318 -0.12470722
-9.1070862 -0.36654752 -0.12418753
-4.2057352 -0.32019573 -0.1292547
-9.1377506 -0.27928305 -0.12329239
0.43968439 -0.0701975 -0.12580311
-3.4866824 0.033385769 -0.12089956
-3.4869773 0.09338592 -0.12124979
0.44351149 0.20981942 -0.12474829
-8.0495014 -1.2659755 -0.11011636
-3.9207752 -1.2087195 -0.11111879
-3.8809695 -1.2085619 -0.11748099
-2.1891439 -0.63991052 -0.11676323
-2.2192733 -0.60503924 -0.11559755
-5.959322 -0.33324796 -0.11323696
-5.8917994 -0.33767343 -0.1147216
-6.0393643 -0.32642931 -0.11147058
-5.7994084 -0.32688552 -0.11668968
-9.5169315 -0.049714096 -0.11421061
-9.4995728 -0.032080039 -0.11456019
-3.4738238 -0.0065236129 -0.11609536
-3.4918041 0.093393326 -0.11608189
-3.4868307 0.098415866 -0.1162824
-3.4593234 0.093545288 -0.11719203
-3.4465742 0.093648836 -0.11012304
-10.712198 1.1646358 -0.11587775
-10.659615 -0.51509321 -0.10730666
-9.8564301 -0.429856 -0.10745865
-0.29840088 -0.4220466 -0.10164791
-6.238698 -0.40062946 -0.10741377
-6.5441213 -0.34322906 -0.10055828
-6.1193633 -0.32461017 -0.1097247
-6.4393606 -0.31733704 -0.10274047
-10.682077 -0.1752528 -0.1052283
-10.682949 -0.055258043 -0.10465598
-10.683239 -0.015259057 -0.10446519
-10.593697 0.04540839 -0.10624236
-10.684252 0.12474346 -0.10379857
-10.684401 0.14473522 -0.10370302
-10.685123 0.24473874 -0.10322601
-10.685414 0.28473753 -0.10303485
-10.608228 0.32530659 -0.10462135
-10.611307 0.40528411 -0.1041826
-10.626991 0.50017071 -0.10338557
-10.631124 0.72514355 -0.10225713
-10.647863 0.96502417 -0.1007688
-5.6708922 -1.2559443 -0.090442121
-5.1909857 -1.2368852 -0.093304276
-5.1110291 -1.2337049 -0.095029593
-2.7686222 -0.68240607 -0.09677875
-3.924439 -0.33863986 -0.098719358
0.4413228 0.11280869 -0.090318322
0.44534063 0.31282574 -0.091659248
0.44514465 0.352826 -0.091893613
0.44685936 0.51283318 -0.09291476
0.45166063 0.55285537 -0.093319297
-10.729757 0.8844195 -0.0992589
-10.730338 0.96441573 -0.09887749
-5.4308372 -1.2489289 -0.088132918
-5.7110968 -1.2113158 -0.081899405
0.34714174 -0.91077483 -0.086130619
-4.1224103 -0.72956669 -0.08961159
-4.1226063 -0.68956774 -0.089845538
-10.659301 -0.4951849 -0.087217748
-5.798563 -0.33701497 -0.081737816
-4.2042737 -0.3399539 -0.089161694
0.44756556 0.16966036 -0.085035086
0.44739914 0.20965962 -0.084859788
-5.5505447 -1.2549878 -0.075551271
-4.554606 -1.2515947 -0.071721911
-5.959024 -0.85841703 -0.075192511
-5.946528 -0.85831082 -0.075464547
-2.1502795 -0.63988447 -0.078088701
0.20259905 -0.40140074 -0.078948855
-5.7580233 -0.38919222 -0.077812254
-5.758359 -0.34919375 -0.07765609
-10.460633 -0.25506341 -0.070670426
-9.443552 -0.049247883 -0.075852692
-3.3927033 0.034091882 -0.079083085
-3.392998 0.094090983 -0.079433739
-3.4455397 0.10884468 -0.077730119
-3.4053314 0.11407569 -0.071630239
-8.4485064 -1.2666688 -0.061121225
-8.3685493 -1.2635499 -0.062914073
-4.0814953 -0.72921348 -0.063493967
-4.0816917 -0.68921465 -0.063726723
-9.8955193 -0.43026006 -0.06656909
-10.801882 -0.41632926 -0.063574553
-6.4377747 -0.40248257 -0.063082576
-6.3577957 -0.40180105 -0.064818919
-6.2778182 -0.40111899 -0.066555738
-6.2378492 -0.39827877 -0.067413747
-10.782177 -0.37618417 -0.063841701
-6.555748 -0.3434847 -0.060297012
-6.2384186 -0.33078098 -0.06714946
-6.27845 -0.32612246 -0.066261828
-6.3985219 -0.31464541 -0.063608587
-3.3645973 -0.0057033673 -0.067295313
-10.59278 0.045224741 -0.066254199
-10.603506 0.14514044 -0.065547645
-10.684786 0.32455188 -0.062856078
-10.685366 0.40454882 -0.06247437
-10.616549 0.56505769 -0.063316524
-10.622128 0.64501733 -0.062821567
-10.627506 0.69747955 -0.062455714
-8.7277727 -1.3538357 -0.055034816
-8.8480463 -1.314767 -0.052235305
-8.528368 -1.2822891 -0.059358239
-5.2449746 -1.2525027 -0.0521788
-3.8988256 -1.2082803 -0.054336727
-4.1627121 -0.38452464 -0.05028832
-2.8822906 -0.34077352 -0.054221094
-3.9230998 -0.33339822 -0.058772802
-4.1504893 -0.329467 -0.05103761
0.44768476 0.1130725 -0.050512791
0.44709635 0.23306985 -0.051215112
0.45150566 0.35308915 -0.052087545
0.45111418 0.43308651 -0.052556515
0.45091772 0.47308534 -0.052789629
0.4708581 0.99317652 -0.056600869
-5.5897975 -1.2654405 -0.044729114
-5.5097756 -1.2697589 -0.046484649
-9.151886 -0.80710858 -0.04419595
-0.37565136 -0.63256669 -0.047147751
-9.1584225 -0.60715401 -0.043578148
-9.0953836 -0.35415816 -0.044402599
-4.2029219 -0.33721387 -0.04920131
-9.0959215 -0.28416002 -0.044225097
-4.5259538 -1.2112269 -0.032918572
-5.8374901 -0.34752375 -0.035919845
-5.7975216 -0.34468389 -0.036776781
-5.932549 -0.33833277 -0.033817351
-2.1234167 -0.15990791 -0.037367463
-9.292078 -0.1281772 -0.03943938
-9.3774204 -0.081336498 -0.037406802
-9.595108 -0.050523009 -0.032431602
-9.4301548 -0.049244791 -0.036143184
-9.5777473 -0.032887921 -0.032780826
-9.4977112 -0.039768435 -0.034599483
-3.404249 0.11927015 -0.039178789
-8.4974756 -1.2821506 -0.020043492
-8.4850073 -1.28205 -0.021574885
-4.9984035 -1.2535192 -0.029049397
-10.658141 -0.46546161 -0.027091384
-6.4768939 -0.40297228 -0.022224188
-6.2369595 -0.40092725 -0.02743268
-6.3569479 -0.39945066 -0.024818361
-6.5345469 -0.38346249 -0.020897388
-6.5175366 -0.32581627 -0.021051645
-6.4775476 -0.32547486 -0.021920979
-2.6811934 -0.30959529 -0.021247745
-2.1379733 -0.16001561 -0.024354458
-10.58614 -0.054925345 -0.026855946
-3.162729 -0.044447739 -0.021419406
-10.600086 0.14497538 -0.025615573
-10.600229 0.1649809 -0.025521815
-10.604471 0.40495425 -0.024319708
-10.684738 0.4443627 -0.022294223
-10.626932 0.744793 -0.02224046
-10.637657 0.84471548 -0.021534085
-8.8870773 -1.3226711 -0.011364341
-8.6870956 -1.3261211 -0.015876591
-8.4873104 -1.2820897 -0.01277101
-5.3090873 -1.2532052 -0.01077795
-5.0279589 -1.2535853 -0.015533388
-5.1891422 -1.2496831 -0.013372421
-4.9581232 -1.2282565 -0.018068492
-2.8389673 -0.76284885 -0.015638053
-0.37477016 -0.61515927 -0.019603372
-7.0374641 -0.34770596 -0.019831598
-7.0072556 -0.34748757 -0.010484815
-4.1616054 -0.33178478 -0.010619819
-4.119143 -0.32908607 -0.012084484
-4.0541811 -0.32878006 -0.014304221
-3.9567389 -0.32832235 -0.017631471
0.62191057 -0.22993627 -0.012737691
0.45306587 0.31333154 -0.011878192
0.47109461 0.71341413 -0.014900982
-5.548727 -1.2902474 -0.0057045221
-5.5888009 -1.280588 -0.0047979355
-5.3890028 -1.2613864 -0.0090697408
-5.6464958 -1.2560798 -0.003451705
-4.9976354 -1.2533839 -0.0065634251
-9.6507034 -0.85105652 -0.00055617094
-9.1612892 -0.76728123 -0.0038803816
-9.152216 -0.64720726 -0.0038015842
-9.1528311 -0.5672099 -0.0035988092
-9.1018848 -0.36680937 -0.0042756796
-7.0373316 -0.33774322 -0.0097947717
-9.077199 -0.32661784 -0.0047369003
-9.617095 -0.050750226 -0.0094310045
-3.1624138 -0.0043586455 -0.0066623092
-3.1074467 -0.0041000843 -0.0085398555
-3.3728781 0.11465301 -0.00019782782
0.45517349 0.20934226 -0.0050820708
-7.8870177 -1.2425184 0.0063098669
-7.8820586 -1.2374802 0.0062098503
-2.1425049 -0.64013386 0.0016894341
-5.7562203 -0.39698911 0.002138555
0.5658083 -0.39026707 0.0085427165
-5.7363958 -0.37682021 0.0017826557
-5.7566423 -0.34699231 0.0023341179
-2.6802797 -0.32194436 0.0038112402
-9.2962332 -0.12080987 0.00068205595
-2.0972416 -0.11243702 0.0019094944
-9.4967346 -0.04986234 0.0053652525
-3.4877119 0.094115004 0.0038453341
-3.4103549 0.11447579 0.0010825396
0.47481489 1.1135461 0.0025764108
-8.126545 -1.2968765 0.011577606
-8.52668 -1.2824645 0.015622318
-5.3484793 -1.2536484 0.017584145
-10.738205 -1.0162516 0.012225032
-10.738495 -0.97625321 0.01241684
-0.35307074 -0.69415736 0.019160032
-5.2340174 -0.61263609 0.012486219
-10.874149 -0.53724545 0.017552137
-6.5560026 -0.40380257 0.019503176
-6.3960462 -0.40243912 0.016030192
-6.3160677 -0.4017579 0.014293015
-6.1561117 -0.40039641 0.010821581
-6.2761002 -0.39891714 0.013435364
-6.8766928 -0.34648323 0.014186978
-6.191608 -0.3406961 0.011816144
-6.1166916 -0.33255857 0.01021719
-2.7598059 -0.32224536 0.019033313
-2.0968635 -0.11997063 0.011876285
-10.582722 -0.055090677 0.013075471
-10.618082 0.68466735 0.017289877
-8.5265388 -1.2824795 0.021870464
-7.9262304 -1.277881 0.029615819
0.50787592 -0.71060538 0.02920866
0.50770855 -0.67060584 0.029383719
0.54418278 -0.43044746 0.029135644
-6.6359806 -0.4044829 0.021239102
0.58632231 -0.35026562 0.028012335
-6.796464 -0.3433491 0.024956107
-6.7439566 -0.34540093 0.023807883
-6.688972 -0.34493273 0.022613585
-6.9164944 -0.33687127 0.027591348
-6.8765273 -0.33403015 0.026732683
-6.8365369 -0.33368903 0.025864542
-6.6365709 -0.33448648 0.02151376
-2.759464 -0.32218415 0.029027283
-10.418472 -0.25395471 0.023392558
0.62529564 -0.11009669 0.027678668
0.45291185 0.11356604 0.029353499
0.45482159 0.23357405 0.028566539
0.47074509 0.55364716 0.026096582
0.47628164 0.95367044 0.023501158
0.47510481 1.1936635 0.022095978
-5.5080376 -1.2700573 0.03349483
-5.5882268 -1.245739 0.035329044
-5.4282699 -1.244377 0.031857312
-5.6282792 -1.2385808 0.036226988
-5.6685414 -1.2064222 0.037222862
-9.1575813 -0.80735451 0.035952628
-0.35245991 -0.67424279 0.039236069
-9.1613121 -0.64737904 0.036413789
-5.2734585 -0.63304055 0.030770779
-5.2911224 -0.61319119 0.03123033
-10.856777 -0.4572112 0.037525475
-9.093523 -0.36184669 0.035558045
-4.200242 -0.32673281 0.030692279
0.20630074 -0.31190032 0.038874805
-9.0741081 -0.28669405 0.035297811
-3.1510565 -0.0040710978 0.032971859
-3.3540232 0.11497521 0.039182007
0.45672798 0.16917291 0.034718156
-10.532183 -1.0374246 0.04740715
-9.6708593 -0.69132996 0.047786951
-2.1487787 -0.60030293 0.042067111
0.52746868 -0.47059786 0.047057033
0.17407513 -0.3520503 0.042325139
-5.7957821 -0.34498221 0.043203115
-5.9958553 -0.33168519 0.047601938
-9.3353605 -0.11621462 0.041583896
-9.5358238 -0.050265942 0.046254039
-9.6158581 -0.043386228 0.048072994
-3.481338 0.091876343 0.043664575
-3.4414594 0.11206619 0.042182744
-8.1256247 -1.2994714 0.051560521
-8.4831781 -1.2822415 0.059653759
-9.1706076 -0.68749624 0.054031909
-10.89526 -0.61756957 0.05267638
-10.887647 -0.61753643 0.057503879
-5.1531696 -0.61210382 0.050739229
-10.895472 -0.57259327 0.057889938
-10.856463 -0.43730438 0.057616532
-9.8927965 -0.43304193 0.053392768
-9.9329395 -0.41335297 0.054343522
-6.3951969 -0.40008909 0.056030333
-6.3551874 -0.40224791 0.055151582
-9.9835405 -0.33374226 0.0556705
-6.1557903 -0.33554822 0.05106616
-9.6155748 -0.050909698 0.058052003
-10.582383 0.024721771 0.053445935
-10.585173 0.064702168 0.053694427
-10.585464 0.10470028 0.053884268
-10.583255 0.14471759 0.054017544
-10.588686 0.20468487 0.054417849
-10.591475 0.24466531 0.0546664
-10.591766 0.28466469 0.054857373
-10.594557 0.32464361 0.055104196
-10.597635 0.40462303 0.055542886
-10.606005 0.52456224 0.056287944
-8.6453819 -1.3159999 0.063227654
-5.5877728 -1.2158614 0.067938387
0.50909758 -0.67077541 0.069360435
-5.1529374 -0.59467012 0.068304121
0.50876236 -0.59077799 0.069710135
-5.1930952 -0.5750109 0.069250584
-6.7550783 -0.40565491 0.06383425
-7.0757141 -0.34834439 0.061016679
-6.6357007 -0.33463538 0.061503649
-4.0789733 -0.32092923 0.066543519
0.62668467 -0.11026601 0.067653596
-9.5753613 -0.050623011 0.067148507
0.62618303 0.0097317994 0.068179846
0.6258502 0.089729577 0.068531036
0.45427513 0.11380608 0.06932956
0.62167597 0.11459245 0.063611627
0.62148046 0.15459132 0.063378334
0.62551498 0.16972847 0.068882704
0.62534857 0.20972757 0.069057941
0.45848846 0.27382463 0.068222821
0.62069654 0.31458735 0.062441349
0.46020412 0.43383175 0.06720072
0.46000767 0.47383118 0.066966832
0.47651815 0.6739068 0.065199375
0.4843564 1.1139412 0.062283874
-5.2331257 -0.57035255 0.070138276
-5.2731571 -0.56569344 0.071025908
-4.1736851 -0.36887366 0.070063055
-7.0755811 -0.33838314 0.071053982
-7.035656 -0.33054292 0.070214391
-7.8851776 -1.2477068 0.086276054
-10.531246 -1.0401076 0.087384582
-9.6637287 -0.85137975 0.087258816
0.48997021 -0.71094626 0.089865267
-2.1718678 -0.68056178 0.087624431
-2.1670442 -0.6805228 0.082452953
-9.0923042 -0.36697006 0.088032603
-5.8399639 -0.33801484 0.084199309
-4.1582918 -0.32869965 0.086806834
-10.41448 -0.25423664 0.088317513
0.20977402 -0.19207127 0.081788123
-9.2818785 -0.12840033 0.080360174
-3.4400837 0.1098064 0.08217454
-3.4001803 0.12499206 0.080720544
-0.27069855 -0.60915154 0.096708894
-6.4743276 -0.39842004 0.097766101
-6.1943827 -0.39853507 0.091678679
-9.972353 -0.37125808 0.095341265
-6.1149735 -0.33035588 0.090207756
-10.012939 -0.29407084 0.09643662
-9.9329605 -0.29345074 0.094636858
-9.9254646 -0.29339287 0.094467759
-3.6796093 0.041179337 0.090760767
-8.7269011 -1.3242322 0.10505533
-8.6444788 -1.3235874 0.10069978
0.51015186 -0.59094697 0.10968721
-5.1496253 -0.57345825 0.10459846
-6.914166 -0.40716583 0.10729671
-6.8341875 -0.4064852 0.10556036
-6.7941985 -0.4061448 0.10469323
0.58910036 -0.3506043 0.10796362
-6.8348193 -0.33148766 0.10585409
-4.1175861 -0.32087654 0.10788381
-2.773191 -0.32063287 0.10472924
0.58893251 -0.31060588 0.10813904
0.62773895 -0.030437997 0.1079796
0.62740469 0.049561135 0.10833079
0.45774651 0.19405566 0.10875207
0.62673616 0.20955883 0.10903245
0.46235132 0.27407724 0.10811257
0.62225676 0.27482873 0.10265231
0.46426249 0.39408606 0.10732603
0.62166786 0.39482552 0.10195082
0.62147284 0.43482363 0.10171664
0.62127638 0.47482264 0.10148239
0.62108183 0.51482117 0.10124725
0.62088537 0.55482036 0.10101444
0.48557281 0.63418424 0.10515434
0.48748446 0.75419253 0.10436577
0.48978662 0.79420269 0.10404748
0.48420238 0.91417646 0.10351646
0.48380995 0.99417335 0.10304821
0.48591661 1.0741832 0.1024949
-10.92185 1.1220545 0.10630238
-9.1857729 -0.8077752 0.11660618
-9.1576252 -0.56755143 0.11653799
-7.0817881 -0.38859338 0.11101115
-7.0747128 -0.33853239 0.11104387
-4.2049975 -0.32878703 0.11091512
-9.9759178 -0.28869611 0.11809474
-9.0923195 -0.28453726 0.11573428
-3.3176639 0.13561575 0.117865
-2.2107146 -0.6808446 0.12149215
-2.2509387 -0.60102552 0.12566161
-4.1166449 -0.40828341 0.12338746
0.12704945 -0.39260477 0.12383491
-6.0340843 -0.33482486 0.12844211
-5.9540634 -0.33914244 0.12668502
-10.455904 -0.27473235 0.12918472
-9.2935305 -0.1210928 0.12065077
-3.6382818 0.0441081 0.12935555
-5.1109967 -0.65207851 0.13469416
-0.29169035 -0.63286853 0.13754886
-0.26926708 -0.61932069 0.13663918
-9.8910332 -0.42823118 0.13338566
-6.5134268 -0.40140992 0.13861555
-6.3934369 -0.40288657 0.13600099
-10.824894 -0.057447676 0.1386593
-10.857676 -0.01768812 0.13959557
-3.678221 0.036420785 0.13076556
-10.858661 0.10233024 0.13516885
-10.804285 0.20271619 0.13938278
0.66144133 0.71524417 0.1386888
0.66124582 0.75524372 0.13845474
-9.6476326 -0.81141102 0.14950693
-5.1105976 -0.66712457 0.14713305
-0.28884411 -0.63289243 0.14745557
-6.9532843 -0.40765554 0.14815485
-6.9539175 -0.33265936 0.14844835
-2.7706192 -0.32157928 0.14197147
-2.7556279 -0.32150835 0.14146018
-2.7319038 -0.32308859 0.14080936
0.62946129 -0.11060634 0.14760447
0.62912798 -0.030607287 0.14795542
-10.866045 0.10225177 0.14034033
-10.866186 0.12225793 0.14043552
0.62845945 0.12939009 0.14865816
0.46141338 0.23430748 0.14840901
0.62342548 0.31506842 0.14239353
0.48274851 0.46940684 0.14626586
0.48982763 0.55443865 0.1455121
0.49213028 0.59444886 0.1451934
0.49345303 0.83445507 0.14370382
-11.025013 0.99860173 0.14811409
-11.02503 1.001101 0.14812589
-10.985099 1.0014075 0.14470983
-11.025377 1.0411109 0.14581722
0.489779 1.0744364 0.14238471
0.48669291 1.1944211 0.14176786
-9.0910339 -0.33462965 0.15559757
-7.073905 -0.33118159 0.15106344
-10.015027 -0.29166305 0.15649033
-9.0814018 -0.28705296 0.15549207
-9.9351015 -0.27608496 0.1572274
-11.024277 0.92106915 0.1552422
-8.4030848 -1.3218811 0.16028321
-2.2492883 -0.66366071 0.16541636
-2.274534 -0.6012696 0.16650438
-6.1123071 -0.44064951 0.16975713
-5.7931747 -0.34542918 0.16317391
-10.051465 -0.2945334 0.16232002
-10.45493 -0.28241506 0.16913772
0.1704011 -0.27009314 0.16287398
0.25002861 -0.19224824 0.16043854
-9.5324669 -0.13554519 0.166008
-9.6126165 -0.11366571 0.16786599
-3.437294 0.097788543 0.16219974
-11.062237 0.68072617 0.16751313
-11.022306 0.68103302 0.16409683
-11.063107 0.80072278 0.16808474
-11.023233 0.80104011 0.16216815
-11.023815 0.88103682 0.16255081
-11.063978 0.92071784 0.16865599
-11.064674 1.0007384 0.16403854
-11.025499 1.1210159 0.16619396
-10.985743 1.1612985 0.16796649
-2.2492089 -0.64117819 0.17049289
-0.24792194 -0.61032242 0.17613018
-9.9702053 -0.41644472 0.17520714
-6.3126116 -0.39985436 0.17426407
-10.051117 -0.29581887 0.17731327
-9.3723259 -0.12932914 0.17241848
0.4842248 0.39460379 0.17918539
0.66300297 0.67548555 0.17889893
-11.062469 0.72071379 0.17020297
0.66261005 0.75548458 0.17843091
-11.102923 0.8003937 0.17649972
0.66221762 0.8354823 0.17796302
0.66182613 0.91547984 0.17749524
0.66163063 0.95547873 0.17726076
-8.8425074 -1.3328314 0.18765926
-5.0890384 -0.65270424 0.18305588
-5.101728 -0.61276495 0.18324888
0.57230759 -0.45102942 0.18817043
-7.0323944 -0.40848607 0.18988216
-6.9524155 -0.40780497 0.18814552
-6.8724375 -0.40712363 0.18640935
-6.7524695 -0.40610224 0.18380499
-6.5925341 -0.40224016 0.18034112
-4.1545153 -0.3855806 0.18958271
0.59187746 -0.35094357 0.18791556
-2.6904533 -0.32306063 0.18189538
-2.7142999 -0.31857991 0.18005586
-6.6808329 -0.30548841 0.18262243
-3.0171947 -0.20250447 0.18969393
0.63118505 -0.19077344 0.18722963
0.63068247 -0.070775241 0.1877557
0.6305151 -0.03077724 0.18793118
0.63001442 0.089221567 0.18845844
-10.872623 0.10201322 0.18050039
0.46836233 0.11457486 0.18891644
-10.839228 0.32226986 0.18074667
0.49138784 0.5146805 0.18572307
0.49349499 0.59468967 0.18516994
0.49329901 0.63468981 0.18493557
-11.04899 0.64072883 0.1870302
-10.921528 0.64166754 0.18410707
-11.101692 0.67034036 0.18837655
-11.11926 0.68021107 0.18882501
-11.142061 0.72254384 0.18954408
0.49481821 0.83469516 0.18367922
0.49462223 0.87469387 0.18344569
-11.12571 0.88016725 0.18989372
0.49173069 0.95467907 0.18306351
-11.10397 0.9603644 0.18226039
-11.104609 1.0403721 0.18014312
-11.065007 1.1256175 0.18962848
-10.905508 1.189294 0.18625677
-8.4022398 -1.3219686 0.19777405
-8.242342 -1.3207231 0.19167519
-9.9331303 -0.42126381 0.1965245
-7.0900459 -0.38897759 0.19120884
-10.8964 -0.018235311 0.19549859
-3.3161235 0.12358971 0.19793296
-11.061316 0.64060199 0.19481421
-11.142799 0.84001666 0.19510198
-11.13158 1.0001253 0.19057965
-2.3029597 -0.64153427 0.20737994
0.079857826 -0.39316076 0.20552182
-2.6733723 -0.32072634 0.20618927
-10.396729 -0.2546767 0.20793962
-10.895184 -0.13830081 0.2099216
-9.5890884 -0.13108549 0.20730519
-9.3541546 -0.12926382 0.20201743
-3.5556004 0.044964626 0.20657778
-11.143208 0.91997892 0.20298171
-11.104615 1.1202549 0.20551753
-8.2668285 -1.3209708 0.21473181
-8.2193422 -1.3206018 0.21366179
-8.1818523 -1.3203125 0.2128191
-2.3278522 -0.6016674 0.21588361
-0.24654293 -0.60795814 0.21611452
-6.3517308 -0.40034509 0.21512222
-10.89327 -0.37832499 0.21627545
-4.2737617 -0.36850965 0.21606171
-10.893676 -0.33830458 0.21146774
-2.6492624 -0.32300675 0.21548653
-10.893702 -0.31083906 0.21909654
-10.893885 -0.28584015 0.21921551
-10.899374 -0.21837945 0.21965253
-6.3735595 -0.18302412 0.21640837
-6.3937855 -0.15569609 0.21694958
-10.859056 0.40196866 0.21407688
0.66417074 0.715725 0.21864116
0.66377878 0.79572296 0.21817267
-10.41029 0.92524791 0.21367919
-10.382925 0.94294971 0.21313119
-10.904968 1.2016667 0.21380997
-8.9214468 -1.3660326 0.22436857
-8.6814022 -1.3641849 0.22396755
-5.5464926 -0.97610003 0.22047341
-2.32725 -0.64170909 0.22823501
-6.9915352 -0.40829462 0.22900426
-6.9515457 -0.40795416 0.22813547
-6.7915897 -0.40659142 0.22466278
-6.6716218 -0.40557027 0.22205877
-6.6316328 -0.40522891 0.22119021
-9.0891514 -0.3672995 0.22799563
-6.9921045 -0.34079772 0.22926784
-6.9120636 -0.34761649 0.22750282
-6.8321056 -0.3444345 0.2257756
-2.6440911 -0.32300317 0.22031009
-2.7290704 -0.31586915 0.22328603
-2.7129481 -0.31583905 0.22001755
0.63223886 -0.11094461 0.22755563
-10.895318 -0.088347785 0.22015727
0.63207197 -0.070945345 0.22773182
0.63173819 0.0090529919 0.22808278
-10.881992 0.14175333 0.22090948
-10.882135 0.16175935 0.22100425
0.63090229 0.20904972 0.22895932
-10.873299 0.32182801 0.22153735
-10.871382 0.40184313 0.22186136
-10.869171 0.44185966 0.22199571
0.62517405 0.51554358 0.22117615
0.50005245 0.55495477 0.225209
-11.113052 0.64006573 0.22850835
-11.153332 0.67976898 0.22961724
0.49676991 0.71493864 0.22435725
0.49887609 0.7949481 0.22380376
-11.182333 0.8795715 0.22870219
-10.984548 1.1860218 0.22806871
-8.9211655 -1.366061 0.23686552
-8.241271 -1.3208351 0.23916209
0.42820644 -0.91182876 0.23124492
-3.0353789 -0.80235147 0.23394835
-9.1914902 -0.68811977 0.23704851
-9.9597759 -0.41165018 0.2371918
-7.0715141 -0.40897655 0.23074007
-4.3133378 -0.32859313 0.23468268
-4.288352 -0.32847655 0.23382926
-6.7121835 -0.3059611 0.23581457
-10.013186 -0.28454304 0.2390033
-9.0896177 -0.28481942 0.23570216
-3.3546982 0.11614291 0.23931706
-3.2747452 0.11651796 0.23658752
-10.38025 0.6453585 0.23420703
-11.182275 0.87955999 0.2312007
-11.182565 0.91955757 0.23139131
-11.163443 1.0397009 0.23150551
-11.144028 1.1198453 0.23142815
-11.104186 1.1401387 0.2306056
-11.07434 1.1603593 0.23001373
-7.721755 -1.2293452 0.24268019
-5.7514458 -0.34538752 0.24228573
-5.8314886 -0.33856893 0.24405146
-5.9515824 -0.32459098 0.24671495
-9.6278687 -0.17148748 0.24809277
-3.576674 0.03509941 0.2473799
-3.5142605 0.04539331 0.24518776
-3.3946502 0.11095668 0.24071264
-8.1208143 -1.33994 0.2514081
-0.26503992 -0.63482994 0.25649989
-10.721182 -0.53726244 0.25410378
-6.5107956 -0.40435654 0.25857627
-6.2308726 -0.40197217 0.25249863
-2.6002283 -0.32295442 0.25881088
-2.6715941 -0.31791174 0.25864255
-10.049325 -0.29475808 0.2572962
-3.9287691 -0.0065544732 0.25964534
-3.9138522 0.0085165799 0.25904644
-10.379558 0.60527921 0.25151122
0.6659255 0.63596845 0.2590853
-10.372641 0.68533075 0.2517215
0.66514301 0.79596317 0.25814784
0.66475105 0.87596095 0.25768077
-10.381475 0.88524473 0.25784492
0.66435814 0.95595986 0.25721312
0.62399101 1.0357697 0.25810993
-3.1092014 -0.84253764 0.26422536
-5.5883651 -0.65659404 0.26008403
-5.0590229 -0.61209607 0.26183546
-5.1097817 -0.45508024 0.2679345
-6.9906659 -0.40844482 0.26899397
-6.9106879 -0.40776223 0.26725829
-6.8312368 -0.34458423 0.26576567
-2.7676375 -0.32117599 0.26463187
-2.6477318 -0.31565976 0.26048601
0.59448767 -0.31128454 0.26804185
-10.049212 -0.29476908 0.26229453
0.63412809 -0.23111154 0.26700425
0.63379383 -0.15111306 0.2673564
-10.878427 0.12159546 0.26074588
-10.874008 0.2016295 0.26101232
-10.874881 0.32162559 0.26158428
0.48701143 0.43512869 0.26639915
-11.142126 0.63966137 0.2691865
-10.379446 0.6451968 0.26919782
0.50386715 1.0752039 0.26197124
-10.918757 1.2013147 0.26663923
-10.863882 1.2167202 0.26544905
-10.823912 1.2195147 0.26454473
-9.1799784 -0.76813412 0.2766099
-10.769781 -0.6577304 0.27717185
-7.0706654 -0.40662509 0.27074122
-7.0711293 -0.35162818 0.2709558
-4.3918777 -0.33872885 0.27744853
-4.1920805 -0.32028896 0.27051866
-4.4319639 -0.3164171 0.27868235
-9.9672279 -0.29189485 0.27792478
-3.3533227 0.11388448 0.27930951
-3.3134062 0.12657075 0.27787018
-3.2734187 0.12425855 0.27651918
-11.175488 0.75941688 0.27050281
-11.175777 0.79941487 0.27069342
-11.194143 0.91928178 0.27166665
-11.090918 1.1600459 0.27040303
-7.8005824 -1.262558 0.28438699
-10.606647 -1.0391177 0.28917408
-5.9884667 -0.59006882 0.28653669
-5.9960485 -0.5801335 0.28673863
-5.1520724 -0.33240265 0.28584039
-10.4021 -0.29509807 0.28789949
-5.1124883 -0.25221705 0.28400695
-5.0727077 -0.21202981 0.2824086
0.2129631 -0.19168532 0.2818017
-3.5128722 0.040634677 0.28519332
0.66868019 0.11052389 0.28891671
0.66831303 0.15052216 0.28891957
-10.375517 0.17511126 0.28945172
-10.375908 0.20514543 0.28209639
-10.375845 0.22010998 0.28966534
0.66648579 0.35051453 0.28892756
0.66612053 0.39051253 0.28892934
0.65886879 0.91046757 0.28904176
-8.0799255 -1.3397244 0.2904979
-2.4049194 -0.68975693 0.29080629
-10.769234 -0.67781013 0.2945708
-0.25865269 -0.63329327 0.29649711
-2.4052136 -0.61975706 0.2910533
-0.24374437 -0.61322927 0.29604685
-10.73247 -0.57753807 0.29418778
-6.3499713 -0.40314341 0.29509318
-10.007765 -0.37454534 0.29868281
-6.9906282 -0.34853983 0.29422307
-2.6702189 -0.32017058 0.29863322
-2.5988405 -0.32309115 0.29878616
-5.1106625 -0.29267228 0.29106569
-10.008512 -0.28454202 0.29641092
-5.0519271 -0.25182956 0.29944813
-5.0521221 -0.2118309 0.29921496
-10.394101 0.32497603 0.29056692
0.50220966 0.82903183 0.29471123
0.5043416 0.86905336 0.29462183
0.50610876 0.94907302 0.29453504
0.50324488 0.98904902 0.29462814
0.50287867 1.0290467 0.29462898
0.62515879 1.076008 0.29785216
-6.807178 -0.42703873 0.30494583
-6.6697783 -0.41836834 0.30199075
-7.0298066 -0.40643358 0.30986261
-5.1689649 -0.33237916 0.30392814
-2.8700993 -0.32110977 0.30546057
-2.7662489 -0.32131243 0.30460835
-2.7262733 -0.32114023 0.3032192
0.59587622 -0.31145322 0.30801702
-5.1293812 -0.25219434 0.30209398
0.6227212 -0.071701184 0.30639732
-10.414103 0.04472962 0.30974245
-3.2322848 0.097129121 0.30529797
-10.877655 0.14140478 0.30082989
-10.375391 0.20504148 0.30458951
-10.871462 0.32145911 0.30151665
-10.376321 0.32504803 0.30266213
0.48607349 0.39535958 0.30669355
-11.143705 0.63945848 0.30923259
0.49680376 0.75540709 0.30416131
0.64319897 0.79031885 0.3096534
-7.9995947 -1.3191582 0.31124222
-9.1734619 -0.84818625 0.31628513
-9.1718855 -0.72817045 0.31653321
-9.1750002 -0.64819264 0.31679082
-4.3902678 -0.38848543 0.31771636
-4.5506978 -0.3693127 0.31056869
-7.0702596 -0.35177708 0.31094658
-7.0303335 -0.34393674 0.31010699
-4.4330359 -0.3286882 0.31881678
-4.390636 -0.3134883 0.31727755
-9.0478649 -0.28719115 0.31227612
-10.413613 -0.015286624 0.31195652
-3.3543718 0.096613705 0.31947255
-3.2269468 0.09721233 0.31512022
0.48038244 0.15423609 0.31336951
0.4777503 0.16670741 0.31358826
0.48011589 0.17923275 0.31364822
-11.200722 0.91904271 0.31182873
-11.196014 0.95907754 0.31190467
-9.687048 -0.69216311 0.3282212
-4.5427752 -0.36920297 0.32280505
-4.4303675 -0.32864487 0.3237282
-5.0717349 -0.1317924 0.32191622
-10.400423 -0.055272814 0.32897389
-10.401148 0.044730186 0.32945132
-10.401295 0.064721361 0.32954597
-10.401438 0.084728748 0.32964134
-3.3517027 0.096656397 0.3243835
0.48064852 0.16660075 0.32600224
0.66865683 0.27052981 0.32889771
0.66829252 0.31052804 0.32889926
0.66792583 0.35052514 0.32890105
0.66756058 0.39052331 0.32890356
-8.1191292 -1.3251296 0.33142459
-7.6795702 -1.2367586 0.33673573
-2.4435318 -0.6425817 0.33733523
-10.758753 -0.61792248 0.33461726
-10.741549 -0.57779515 0.33440673
-6.3491011 -0.40329194 0.33508348
-6.2691445 -0.40011185 0.33335733
-5.0712242 -0.11418682 0.33930254
-5.0312233 -0.11899896 0.3379668
-3.23153 0.11727706 0.33016431
-10.459382 0.84430081 0.33696723
-10.359758 0.88504815 0.33236539
-10.365629 1.0050069 0.33305192
0.62632656 1.1162484 0.33759439
0.62613106 1.1562473 0.33735931
-8.6788731 -1.3419677 0.34399331
-5.0585971 -0.6516245 0.34210575
-5.0712852 -0.61168468 0.3422991
-5.0993567 -0.49181753 0.34253597
-6.7090039 -0.40635812 0.34289694
-6.8695707 -0.3352232 0.34665394
-4.1493773 -0.31962121 0.34910512
-9.1677132 -0.20820072 0.3476702
-5.1110039 -0.15437423 0.34090173
0.63590288 0.0085439831 0.34800816
-10.879235 0.14120224 0.34087634
0.49552107 0.27563763 0.34711587
0.49684525 0.51564276 0.345626
-11.137817 0.63931674 0.34785706
0.4975791 0.87564421 0.34343565
-10.419455 0.8845486 0.3462373
0.49968576 0.9556542 0.3428812
0.50198936 0.99566489 0.34256291
-11.06175 1.1823797 0.34985793
-10.941858 1.1932644 0.34715366
-9.1228466 -0.48788595 0.35600328
-4.3891859 -0.33074689 0.35735583
-9.0466366 -0.3222912 0.35467744
-4.2293663 -0.31249571 0.35179198
-9.9704609 -0.28229994 0.35806537
-5.5224748 -0.21640298 0.35781825
-9.1675272 -0.20322508 0.35768092
-5.5100837 -0.20379613 0.35759532
-3.2055953 0.097548008 0.35441422
-11.137674 0.63928843 0.35410535
-10.379294 0.88480824 0.35281932
-11.194807 0.91889518 0.35170257
-11.18289 0.99898511 0.35179651
-11.180681 1.0390016 0.35193062
-11.158768 1.1191638 0.35179555
-11.126568 1.1594021 0.35124171
-7.6590118 -1.2366616 0.36128032
-10.51721 -1.0563405 0.36706316
-4.3088188 -0.3277961 0.36710393
