ply
format ascii 1.0
comment PCL generated
element vertex 691
property float x
property float y
property float z
element camera 1
property float view_px
property float view_py
property float view_pz
property float x_axisx
property float x_axisy
property float x_axisz
property float y_axisx
property float y_axisy
property float y_axisz
property float z_axisx
property float z_axisy
property float z_axisz
property float focal
property float scalex
property float scaley
property float centerx
property float centery
property int viewportx
property int viewporty
property float k1
property float k2
end_header
-10.16902 -1.1480913 3.0732775
-10.129068 -1.1635383 3.0725317
-9.7772627 -1.1188006 3.0634611
-9.7372417 -1.1235353 3.0625653
-9.657156 -1.124846 3.0606596
-9.5754194 -1.1164155 3.0585794
-9.5371361 -1.1183946 3.057687
-9.4954529 -1.1215326 3.0567291
-9.4554386 -1.1180111 3.0557191
-9.3355055 -1.1203276 3.0528703
-9.2172031 -1.1212809 3.0500414
-9.175498 -1.1266204 3.0491135
-9.0956135 -1.107802 3.0469339
-9.0557404 -1.0924599 3.0457637
-8.697175 -1.0949941 3.0371852
-8.6577282 -1.1095686 3.0364394
-8.6156187 -1.1299008 3.0357094
-8.4174967 -1.1661302 3.0314515
-8.3777647 -1.1571898 3.0303731
-8.3379002 -1.1394302 3.0291698
-8.2181473 -1.1086457 3.0258667
-8.0559845 -1.1089094 3.021975
-8.0159302 -1.1103865 3.0210333
-7.9778166 -1.109418 3.0201042
-7.9360027 -1.1105049 3.0191147
-7.8158865 -1.115657 3.0163007
-7.7760143 -1.1142986 3.0153239
-7.7360077 -1.1164966 3.0143933
-7.6560926 -1.1083961 3.0123615
-7.6177101 -1.1107192 3.0114715
-7.5561037 -1.1127414 3.0100195
-7.4982872 -1.1163898 3.0086813
-7.4582996 -1.1161257 3.0077169
-7.4360552 -1.116114 3.0071826
-7.396163 -1.1172916 3.0062404
-7.3162088 -1.1141998 3.004277
-7.2762022 -1.1164027 3.0033464
-7.2361193 -1.1146324 3.0023589
-7.196228 -1.11581 3.0014169
-7.1162724 -1.1127182 2.9994535
-7.0762854 -1.1124219 2.9984889
-6.9962721 -1.1168277 2.9966278
-6.956285 -1.1165315 2.9956629
-6.9162788 -1.1187345 2.9947324
-6.8363042 -1.1181418 2.9928031
-6.7963166 -1.1178455 2.9918385
-6.6763549 -1.1169566 2.9889443
-6.6362534 -1.1176857 2.9879911
-6.5963335 -1.1156269 2.9870036
-6.5563741 -1.118567 2.9860845
-6.5163202 -1.1200328 2.9851425
-6.4763803 -1.1204737 2.984189
-6.4364128 -1.117678 2.9831903
-6.3964062 -1.1198809 2.9822598
-6.3564191 -1.1195847 2.9812951
-6.316432 -1.1192883 2.9803305
-6.2764835 -1.1139935 2.9792974
-6.1965094 -1.1134011 2.9773681
-6.1565218 -1.1131046 2.9764032
-6.1165538 -1.110309 2.9754045
-6.0765667 -1.1100127 2.9744399
-5.9966311 -1.1044215 2.9724422
-5.9566441 -1.1041254 2.9714775
-5.9166098 -1.103092 2.9705014
-5.876689 -1.1010334 2.9695139
-5.8366542 -1.1 2.968538
-5.7567663 -1.0951458 2.9665518
-5.7167597 -1.0973488 2.965621
-5.6368046 -1.094257 2.9636576
-5.5568213 -1.0879289 2.9616487
-5.4769144 -1.085574 2.9596965
-5.3968444 -1.0835074 2.9577444
-5.3170242 -1.0768909 2.9557352
-5.2770753 -1.071596 2.9547024
-5.2370172 -1.0645969 2.9536431
-5.1458435 -1.0576072 2.9513562
-4.9858632 -1.0616989 2.9475698
-4.86587 -1.0660174 2.944747
-4.7859697 -1.0530676 2.9426484
-4.7459822 -1.0528407 2.9416845
-4.6258502 -1.0853662 2.939249
-4.5859346 -1.078356 2.9381931
-4.4258852 -1.0835181 2.9344196
-4.3858643 -1.0940033 2.9336035
-4.266078 -1.0690445 2.9303803
-4.2261505 -1.0588204 2.9292798
-4.1468482 -0.9516108 2.9258907
-3.6671057 -0.94601274 2.9142885
-3.6268682 -0.98262835 2.9138288
-3.586597 -1.0241309 2.9134359
-3.5113413 -1.0597668 2.9121215
-3.3513372 -1.0574309 2.9082453
-3.3062758 -1.0696725 2.9073324
-3.2661979 -1.0844417 2.906574
-3.2261772 -1.0949267 2.9057579
-3.1861477 -1.0964849 2.9048178
-3.1061954 -1.1024591 2.9029799
-3.0262251 -1.1166457 2.9012551
-2.9061637 -1.1220345 2.8984456
-2.8262601 -1.1147977 2.896426
-2.74629 -1.1289842 2.8947012
-2.7063019 -1.1287577 2.8937376
-2.6663747 -1.1185335 2.8926368
-2.5129957 -1.0752255 2.8883529
-2.4729989 -1.0775505 2.8874242
-2.432708 -1.0798544 2.8864882
-2.3543489 -1.0698122 2.8844666
-2.3130891 -1.069356 2.8834693
-2.2715154 -1.0737112 2.8825309
-2.1132777 -1.0955616 2.8790321
-2.0739191 -1.0918256 2.8780348
-1.8344824 -1.1321139 2.8728406
-1.450413 -1.17307 2.8641813
-1.4325466 -1.1878734 2.8639572
-1.3928435 -1.192814 2.8630717
-1.3128719 -1.1924657 2.8611457
-1.2728863 -1.1922914 2.8601828
-1.1929145 -1.191943 2.8582568
-1.1529291 -1.1917689 2.8572938
-0.99409103 -1.2288439 2.8539915
-0.87370515 -1.2290603 2.8511026
-0.71419048 -1.2276245 2.8472507
-0.67420435 -1.2274503 2.8462877
-0.63379049 -1.2280152 2.8453248
-0.59408188 -1.2075231 2.8440871
-0.39445829 -1.1267664 2.8381739
-0.30680132 -1.1364402 2.8362021
-0.28837776 -1.1381109 2.8357825
-0.26607656 -1.1376104 2.8352399
-0.22566175 -1.1381886 2.8342772
-0.12339354 -1.146991 2.8319421
-0.10635424 -1.1453837 2.8315105
0.093721867 -1.0905902 2.8259459
0.17475986 -1.0973306 2.8240924
0.21350622 -1.0947201 2.8231256
0.25442553 -1.0950278 2.8221467
0.27655602 -1.0954355 2.8216207
0.41245699 -1.0666028 2.8179569
0.49199533 -1.0779804 2.8162038
0.57268572 -1.0585014 2.8139958
0.65361738 -1.0135404 2.8114293
0.6933794 -0.97335535 2.8099177
0.7688961 -0.81470978 2.8059077
0.80992603 -0.77744603 2.8044062
0.82207155 -0.73763323 2.8035634
0.82130766 -0.69666815 2.8030145
0.83508825 -0.61555541 2.8015606
0.8245101 -0.53668618 2.8007231
0.81624889 -0.49580431 2.8003557
0.8052516 -0.45421255 2.8000441
0.75755787 -0.41549468 2.8006539
0.72777033 -0.40921634 2.8012824
0.48190165 -0.1551507 2.8036718
0.60998821 0.29582429 2.7943523
0.70639896 0.33102739 2.791549
0.71901894 0.3350215 2.7911906
0.81584263 0.35264039 2.7886207
0.85352993 0.43188685 2.7866185
0.87016392 0.47258228 2.7856555
0.87276459 0.51205438 2.7850466
0.87690353 0.55263358 2.7843854
0.88114452 0.63266164 2.7831757
0.88076544 0.67265242 2.7826314
0.88202667 0.7531991 2.781486
0.88260889 0.79210603 2.7809336
0.88328791 0.83374584 2.7803407
0.88290977 0.87373656 2.7797964
0.88397121 0.91210157 2.7792397
0.89012909 0.95324594 2.7785223
0.88879013 0.99432057 2.7779858
0.88851309 1.0737602 2.7768929
0.88631821 1.1920835 2.7753077
0.88056231 1.2720186 2.7743394
0.87076616 1.3141072 2.7739921
0.84667253 1.3697356 2.7738008
0.81753063 1.3936005 2.7741706
0.80592442 1.3998985 2.7743623
0.76479101 1.420606 2.7750638
0.60516882 1.4706913 2.7782049
0.46537638 1.4692199 2.7815835
0.44583416 1.4685258 2.7820625
0.32433033 1.4839983 2.7847672
0.28475857 1.4683249 2.7859347
0.16561556 1.4539328 2.788996
0.016038418 1.4644929 2.792443
0.0010447502 1.4643534 2.7928052
-0.055373669 1.4654677 2.7941451
-0.083920956 1.463563 2.7948573
-0.11462927 1.4640969 2.7955875
-0.14187765 1.46357 2.7962494
-0.15437317 1.4634539 2.7965512
-0.19393635 1.4626076 2.7975132
-0.2038722 1.4624468 2.797754
-0.21838617 1.4617655 2.7981122
-0.28496218 1.4524701 2.7998402
-0.36485291 1.4519765 2.8017662
-0.48428726 1.4703951 2.8043804
-0.72408581 1.4096087 2.8109822
-0.88625407 1.3729697 2.8153851
-0.99578571 1.3717552 2.8180332
-0.99807167 1.371382 2.8180933
-1.0611205 1.3678383 2.8196568
-1.1647131 1.3816833 2.8219538
-1.2463861 1.3817179 2.8239152
-1.4446712 1.3929275 2.8285234
-1.7414916 1.4055086 2.8354797
-1.7641973 1.4057693 2.8360214
-1.8614488 1.4049717 2.8383687
-1.9236856 1.4042856 2.8398733
-2.0674758 1.3662343 2.8438542
-2.0843542 1.3651167 2.8442752
-2.1116037 1.3645869 2.8449371
-2.2211361 1.363372 2.8475852
-2.2437353 1.3634521 2.8481269
-2.3242197 1.3589987 2.850122
-2.4045355 1.3641818 2.8519797
-2.4447625 1.3644094 2.8529427
-2.4993939 1.3635765 2.8542666
-2.5510187 1.3618957 2.85553
-2.5640762 1.3627888 2.8558314
-2.7442546 1.3623899 2.8601654
-2.7634752 1.3602802 2.8606563
-2.8865433 1.3614814 2.863596
-2.9208603 1.3612331 2.8644238
-2.9473782 1.3626589 2.865041
-2.9532835 1.3628792 2.8651798
-2.9802949 1.3632364 2.8658237
-3.0809979 1.3842431 2.8679521
-3.160944 1.3788011 2.8699479
-3.2285633 1.3635751 2.871783
-3.2356324 1.3628187 2.8719635
-3.2660155 1.3559095 2.8727889
-3.3059204 1.3382353 2.8739922
-3.3383398 1.3230938 2.8749807
-3.3441777 1.3202587 2.87516
-3.3706436 1.2829591 2.8763123
-3.4797022 1.1993599 2.8800893
-3.8638999 1.1193869 2.8904257
-4.0755777 1.3197945 2.8927364
-4.1056705 1.3421543 2.8931499
-4.1449151 1.3655226 2.8937693
-4.1858377 1.384285 2.8944924
-4.2677059 1.4374552 2.8957231
-4.3045206 1.4758309 2.8960762
-4.3449616 1.47642 2.8970397
-4.3611188 1.4733524 2.8974702
-4.5457792 1.3976704 2.9029539
-4.5840635 1.397099 2.9038815
-4.6190395 1.394443 2.9047585
-4.6703067 1.3963884 2.9059629
-4.6807313 1.3970666 2.906204
-4.7048655 1.3955088 2.9068055
-4.7835989 1.4029794 2.9085934
-4.8240242 1.4060227 2.9095223
-4.8635817 1.4051208 2.910485
-4.943542 1.4022635 2.9124455
-4.9852176 1.3999778 2.9134784
-5.0651312 1.3871232 2.915576
-5.1055336 1.3851681 2.9165735
-5.2160125 1.3566039 2.9196229
-5.2561231 1.3516405 2.9206553
-5.2960429 1.3495609 2.921643
-5.3359237 1.3424828 2.922699
-5.455699 1.3248051 2.9258211
-5.5357318 1.3121326 2.9279189
-5.5557313 1.3118919 2.9284027
-5.5757251 1.3117412 2.9288852
-5.6162791 1.3129066 2.9298432
-5.6555557 1.3133017 2.9307811
-5.6955628 1.3154998 2.9317119
-5.7354908 1.3077006 2.9327791
-5.7756214 1.3052365 2.9337771
-5.8281441 1.3098397 2.9349751
-5.8556547 1.3121318 2.9356043
-5.8956814 1.3168291 2.9365008
-5.935688 1.3190272 2.9374313
-5.9756951 1.3212253 2.9383621
-6.0765877 1.3427241 2.9404881
-6.1568065 1.382256 2.9418681
-6.1718612 1.3815354 2.9422395
-6.1768675 1.3814275 2.9423614
-6.2167692 1.3821105 2.9433105
-6.2959585 1.3720212 2.9453523
-6.3358779 1.3699416 2.9463401
-6.4565477 1.3636755 2.9493258
-6.4964604 1.3615813 2.9503136
-6.5366712 1.3563147 2.9513524
-6.614409 1.3446276 2.9533815
-6.6505995 1.3450758 2.9542449
-6.6605964 1.3450004 2.9544859
-6.7765527 1.3580732 2.9570906
-6.8566332 1.3644783 2.9589255
-6.8965158 1.3573855 2.9599819
-7.0155215 1.3417411 2.9630573
-7.0760994 1.3388969 2.9645519
-7.1204009 1.3422571 2.9655695
-7.1353784 1.3424145 2.9659271
-7.1678858 1.3418994 2.9667151
-7.2154064 1.3410009 2.9678693
-7.2803497 1.3410521 2.9694285
-7.3053417 1.3408639 2.9700315
-7.4552822 1.3315153 2.973763
-7.4959211 1.3370054 2.974663
-7.6078053 1.3732452 2.9768491
-7.6352038 1.3737781 2.9775
-7.6677866 1.3728575 2.9782956
-7.6826887 1.3734711 2.9786448
-7.7249899 1.3746177 2.9796453
-7.7498894 1.3751669 2.9802358
-7.7548819 1.3751789 2.9803555
-7.777566 1.3735678 2.9809227
-7.8251443 1.3725501 2.9820797
-7.8351235 1.3726187 2.9823186
-7.8475442 1.3731154 2.98261
-7.9550934 1.3560033 2.9854305
-8.0348825 1.3569077 2.9873347
-8.1151104 1.3649666 2.9891505
-8.1950274 1.3701588 2.9909985
-8.3551226 1.4100908 2.9942915
-8.3951149 1.409788 2.9952564
-8.7149038 1.3585894 3.0036473
-8.7547283 1.3674723 3.0044808
-8.7621622 1.3679123 3.0046535
-8.8351574 1.3536166 3.0066049
-8.9671898 1.3658768 3.0096068
-8.9946175 1.3661876 3.0102615
-9.0171747 1.3655536 3.010812
-9.1149893 1.3415138 3.0134945
-9.194355 1.340124 3.0154204
-9.234971 1.3431106 3.0163548
-9.3145199 1.3404263 3.0183029
-9.3945866 1.3391986 3.0202432
-9.4345913 1.3414395 3.0211732
-9.5620022 1.3620312 3.0239489
-9.5949478 1.3668995 3.024673
-9.6273975 1.3672134 3.0254481
-9.634922 1.3667705 3.025635
-9.6525326 1.3649641 3.026083
-9.8598671 1.3986762 3.0305972
-10.061192 1.3961787 3.0354679
-10.078602 1.3966877 3.0358791
-10.235321 1.3592591 3.0401621
-10.260385 1.3585812 3.0407734
-10.406096 1.394006 3.0437834
-10.480881 1.3949578 3.0455668
-10.523083 1.3968083 3.046555
-10.580587 1.3544081 3.0485232
-10.700251 1.3061517 3.0520658
-10.819382 1.2225569 3.0560849
-10.819271 1.22076 3.056107
-10.738375 0.99244052 3.0573244
-11.055596 0.59666669 3.0704234
-11.055755 0.59026313 3.0705156
-11.055738 0.58776379 3.07055
-11.015081 0.53012908 3.0703712
-10.972616 0.11149054 3.075146
-10.976837 0.096308596 3.0754576
-10.976831 0.088594757 3.0755641
-10.976898 0.077906802 3.0757136
-10.972506 0.065185517 3.0757842
-10.936315 0.016698956 3.0755861
-10.911388 0.016503518 3.07499
-10.776041 -0.0013007752 3.071985
-10.454254 -0.27361947 3.0680246
-10.453264 -0.37690842 3.0694306
-10.438071 -0.41711009 3.069622
-10.41276 -0.46694708 3.0697038
-10.372719 -0.58008814 3.0703082
-10.332352 -0.66051775 3.0704517
-10.301603 -0.78034955 3.071372
-10.291359 -0.82032216 3.0716791
-10.249859 -0.97745043 3.0728574
-10.249252 -1.0233409 3.073478
-10.20869 -1.1130774 3.0737457
-10.181187 -1.1360972 3.0734038
-5.333396 -0.1487074 2.9432802
-5.4545579 0.035542604 2.9436402
-5.9436274 -0.087478139 2.9570918
-5.9335661 -0.097415127 2.9569876
-4.4996681 0.79005849 2.9102571
-4.5840702 1.0300901 2.908962
-4.9200315 1.300831 2.9132848
-5.022994 1.2720761 2.9161563
-5.0886035 1.2290465 2.918328
-5.1110969 1.2289175 2.9188702
-5.1194944 1.2285664 2.9190767
-5.2964172 1.269078 2.922766
-5.3764825 1.2729839 2.9246354
-5.5364342 1.282699 2.9283433
-5.5764356 1.2743371 2.92942
-5.6963525 1.2661512 2.9324141
-5.8163943 1.2992249 2.9348397
-5.8564792 1.3032806 2.9357467
-5.9365373 1.3072656 2.9376147
-5.9765553 1.3120352 2.9385099
-6.0162449 1.3149787 2.9394226
-6.0561886 1.3178835 2.9403419
-6.0961761 1.3176543 2.9413056
-6.1362839 1.3267881 2.9421427
-6.2162151 1.3294635 2.944026
-6.2966232 1.3376949 2.9458435
-6.3757639 1.3432056 2.9476683
-6.4163189 1.3451787 2.9486153
-6.4563665 1.3443148 2.9495893
-6.5139523 1.3402168 2.9510293
-6.5760884 1.324901 2.952734
-6.6163139 1.3221337 2.9537387
-6.6555357 1.323602 2.9546607
-6.7361565 1.3120829 2.9567568
-6.7761874 1.2980876 2.9579122
-6.8960018 1.3043023 2.9607043
-6.9345756 1.2978511 2.9617202
-6.9759159 1.2938462 2.9627688
-7.01577 1.2923865 2.9637463
-7.0557575 1.2921574 2.9647102
-7.1852083 1.299616 2.9677167
-7.2009368 1.2969211 2.9681318
-7.255146 1.2940904 2.9694731
-7.2559042 1.2941064 2.9694912
-7.2951336 1.293789 2.970438
-7.3357162 1.2980509 2.9713538
-7.4157209 1.2919592 2.9733601
-7.4556484 1.2923645 2.9743137
-7.4868326 1.2975962 2.9749904
-7.5756726 1.3016744 2.9770679
-7.5943499 1.3043993 2.977479
-7.6743584 1.3088808 2.9793389
-7.7543259 1.321571 2.9810843
-7.9142923 1.3230362 2.9849067
-7.9945459 1.3203871 2.9868712
-8.0743933 1.3155823 2.9888561
-8.1541824 1.3164866 2.9907601
-8.1942463 1.313018 2.9917705
-8.2740078 1.2957165 2.9939263
-8.3944931 1.2856783 2.9969594
-8.4343872 1.2861304 2.9979115
-8.4743013 1.2890595 2.9988298
-8.5146284 1.2955585 2.9997087
-8.5941782 1.3047234 3.0014927
-8.6343851 1.3080423 3.0024128
-8.6743727 1.3077838 3.003377
-8.7141151 1.3146559 3.0042365
-8.7540617 1.3226058 3.0050859
-8.834053 1.3245882 3.0069802
-8.914011 1.3215718 3.0089426
-8.9940195 1.3260534 3.0108027
-9.0739431 1.3180386 3.0128336
-9.1139126 1.3152806 3.0138319
-9.1539011 1.3150221 3.014796
-9.1946907 1.3197924 3.0157099
-9.2741756 1.3171132 3.0176563
-9.3544273 1.3144641 3.0196209
-9.4744949 1.3108759 3.0225549
-9.675703 1.2052526 3.0288506
-9.993926 1.3520813 3.0344625
-10.050619 1.3425162 3.0359569
-10.170581 1.3416065 3.0388513
-10.299979 1.3088797 3.0424128
-10.632714 0.98848486 3.0548408
-10.627377 0.95000005 3.0552454
-10.619561 0.91006857 3.0556104
-10.621767 0.86859584 3.0562375
-10.621449 0.82860756 3.0567834
-10.613285 0.7508862 3.057663
-10.607981 0.71020305 3.0580988
-10.605177 0.66950089 3.0585949
-10.529798 0.43418145 3.0600414
-10.554501 0.27144378 3.0628877
-10.56418 0.23137973 3.0636747
-10.564416 0.055950258 3.0661089
-10.454533 -0.17691801 3.0666926
-9.9655333 -0.13709901 3.0543945
-9.8961773 -0.059073273 3.0516484
-9.8638248 -0.041333541 3.0506256
-9.7046318 -0.079198025 3.0473256
-9.6647549 -0.077095181 3.0463386
-9.5849781 -0.062231474 3.0442164
-9.4647837 -0.080773681 3.0415857
-9.4245577 -0.086686581 3.0407012
-9.3446064 -0.091570079 3.0388482
-9.3046894 -0.086555012 3.0378199
-9.2246208 -0.085366361 3.0358799
-9.1845226 -0.086941108 3.0349386
-9.1045494 -0.086413018 3.03301
-9.0247202 -0.079047404 3.0309904
-8.9447269 -0.081018679 3.0290961
-8.9047575 -0.078255266 3.0280976
-8.8648453 -0.081151143 3.027179
-8.7847443 -0.084961221 3.0253074
-8.7843485 -0.12674853 3.0258763
-8.7561197 -0.24723831 3.0268662
-8.6629753 -0.39923173 3.0267324
-8.6426325 -0.44908702 3.0269339
-8.6223831 -0.48910993 3.0270016
-8.3405485 -0.67558402 3.0228126
-8.1811218 -0.68348998 3.0190921
-8.1393881 -0.67463672 3.017967
-8.085763 -0.68271995 3.0167906
-7.7011871 -0.69281822 3.0076921
-7.6612 -0.68206131 3.0065825
-7.569293 -0.64424652 3.0038514
-7.5293431 -0.65173584 3.0029953
-7.4842381 -0.65622061 3.0019739
-7.464417 -0.65657133 3.0015025
-7.4543343 -0.65627265 3.0012562
-7.4120197 -0.6564846 3.0002427
-7.4092712 -0.69649345 3.0007305
-7.0862179 -1.0827789 2.998317
-7.0462141 -1.085032 2.9973874
-7.0062962 -1.0875219 2.9964628
-6.9662228 -1.0870383 2.9954934
-6.9268551 -1.0859511 2.9945328
-6.8867812 -1.0854673 2.9935634
-6.8462605 -1.0862982 2.9926014
-6.8063431 -1.0887883 2.991677
-6.7662687 -1.0883045 2.9907076
-6.7262979 -1.0855582 2.9897094
-6.6863966 -1.0855484 2.9887507
-6.6064053 -1.0875548 2.9868569
-6.5664015 -1.0898079 2.9859271
-6.5263119 -1.0918237 2.984992
-6.4863243 -1.0915769 2.9840281
-6.446353 -1.0888306 2.9830298
-6.4063654 -1.0885839 2.9820657
-6.3913703 -1.0884914 2.9817042
-6.3388867 -1.0881678 2.9804389
-6.3263912 -1.0880907 2.9801378
-6.2864199 -1.0853443 2.9791396
-6.2064447 -1.0848507 2.9772115
-6.1664572 -1.0846041 2.9762475
-6.1269174 -1.083043 2.975276
-6.0864825 -1.0841107 2.9743195
-6.0465112 -1.0813644 2.9733212
-5.8479261 -0.96680546 2.966965
-5.6478262 -0.99056864 2.962487
-5.5679164 -0.98007661 2.9604223
-5.2924242 -0.68340462 2.9496975
-5.3106999 -0.5635286 2.948477
-5.3162193 -0.48357016 2.9475029
-5.3045926 -0.32304037 2.9450014
-5.310112 -0.24308191 2.9440272
-4.5164561 0.66999495 2.9123223
-4.513721 0.63002002 2.9128101
-4.4925494 0.43018669 2.9150677
-4.4870796 0.35023677 2.916043
-4.473877 0.23033962 2.9173853
-4.8224831 -0.075584069 2.9299946
-4.9428434 -0.10075019 2.9332342
-5.0232067 -0.10332377 2.9352005
-5.1032801 -0.083713315 2.9368525
-5.2138958 -0.050006319 2.9390433
-0.47420454 -1.0822459 2.8394732
-0.59287786 -1.0848475 2.84236
-0.63355064 -1.0920311 2.8434367
-0.7135005 -1.0973781 2.8454311
-0.75277472 -1.0955573 2.8463495
-0.83441281 -1.1031548 2.8484159
-0.87340999 -1.1055729 2.849386
-0.91352773 -1.104889 2.8503404
-0.95224047 -1.1046349 2.8512669
-0.99392748 -1.1045562 2.852267
-1.0734825 -1.1031021 2.8541582
-1.1138847 -1.1050905 2.8551562
-1.153882 -1.1027693 2.8560848
-1.401757 -0.97216827 2.8602316
-1.5449915 -0.64849997 2.8591919
-1.2777865 -0.33780855 2.8484724
-1.2382874 -0.32972121 2.8474114
-1.2653487 -0.32525599 2.8479998
-1.2878406 -0.32535619 2.8485415
-1.5952308 -0.64633584 2.860369
-1.9169216 -0.33462268 2.8637817
-1.9487 -0.17179208 2.8622911
-1.9438856 -0.13177997 2.8616216
-1.9198747 -0.01101 2.8593731
-1.9179204 0.065332405 2.8582695
-1.9162014 0.087753132 2.8579178
-2.0006959 0.52601635 2.8538809
-2.0013084 0.56672853 2.853332
-2.0015233 0.5670895 2.853332
-2.02877 0.60623276 2.8534448
-2.0585155 0.64536488 2.8536177
-2.0805142 0.67667162 2.8537128
-2.1078544 0.64405727 2.854821
-2.0985301 0.60555869 2.85513
-2.0812757 0.51924437 2.8559103
-2.0801008 0.4949435 2.8562183
-2.3980176 0.18664084 2.8681233
-2.4356117 0.18664613 2.8690262
-2.4778557 0.18606928 2.870049
-2.4876647 0.18572327 2.8702896
-2.8219156 0.52737755 2.8735895
-2.8617799 0.56419152 2.8740377
-3.0360961 0.64171535 2.877152
-3.3686557 0.40246111 2.8884528
-3.3806541 0.24285482 2.8909504
-3.3802853 0.16287631 2.8920486
-3.3799429 0.082942948 2.893147
-3.3812017 0.054916035 2.8935652
-3.384696 0.0049047875 2.8943412
-3.3850813 -0.017869921 2.8946657
-3.0228741 -0.30581933 2.8899508
-2.9816704 -0.29937077 2.8888717
-2.9421389 -0.28886586 2.8877766
-2.8219428 -0.25610298 2.8844357
-2.7819827 -0.25091025 2.8834038
-2.5247831 0.1055766 2.8722906
-2.5174699 0.14559986 2.8715608
-0.84627104 1.3334757 2.8149714
-0.89378095 1.3333085 2.8161149
-0.965693 1.3320352 2.8178601
-1.0455372 1.3215449 2.8199234
-1.0857036 1.314229 2.8209896
-1.1261404 1.3197716 2.8218842
-1.2055035 1.3258277 2.8237069
-1.2448363 1.3220645 2.8247039
-1.3256526 1.3206533 2.8266647
-1.3654118 1.3176141 2.827662
-1.4049695 1.3167121 2.8286247
-1.4451933 1.3218929 2.8295193
-1.5247598 1.3258107 2.8313766
-1.5653753 1.3242173 2.8323741
-1.606622 1.3265322 2.833333
-1.6472275 1.327762 2.8342915
-1.6860526 1.3298534 2.8351951
-1.7251396 1.3306375 2.8361232
-1.7649221 1.3325969 2.8370519
-1.8042662 1.3313329 2.8380144
-1.845942 1.3290473 2.8390472
-1.886379 1.33459 2.839942
-1.9253049 1.3351034 2.8408699
-1.9652791 1.3324251 2.8418672
-2.0052536 1.3297468 2.8428645
-2.0252347 1.3271581 2.8433805
-2.0464659 1.3245637 2.8439264
-2.0847855 1.3261667 2.8448248
-2.1252222 1.3317094 2.8457193
-2.2462511 1.3329794 2.8486092
-2.2847948 1.3427674 2.8493996
-2.5757418 1.246526 2.8577211
-2.6400406 1.2221518 2.8596032
-2.7440631 1.1657929 2.8628821
-2.86236 0.68420446 2.8723903
-2.8366661 0.65869981 2.8721261
-2.819083 0.64380103 2.8719099
-0.22915459 -0.4992786 2.8255167
-0.24684906 -0.45948666 2.8253911
-0.073806286 -0.30370027 2.8190777
0.13209486 0.058399674 2.809119
0.11864567 0.1432222 2.8082681
0.10575771 0.17806764 2.8080952
0.13562632 0.30730778 2.8055887
0.1353941 0.32240599 2.8053854
0.17583513 0.32473546 2.8043816
0.21581888 0.32510746 2.8034158
0.25580215 0.32547945 2.8024502
0.33576965 0.32622349 2.800519
0.49635792 0.35912013 2.7962058
0.78742838 0.61191249 2.7857144
0.79093933 0.69388175 2.7844954
0.79368544 0.73322451 2.7838848
0.79299021 0.81386244 2.7827852
0.79573584 0.85320508 2.7821746
0.80174637 0.93518329 2.7808955
0.79897451 0.97121543 2.7804632
0.79513788 1.0131673 2.7799747
0.79919434 1.0544894 2.7793052
0.52716637 1.3733137 2.7814267
0.40597296 1.3873528 2.7841437
0.32722569 1.3750993 2.7862051
0.28559971 1.39258 2.786963
0.16724873 1.4093559 2.7895739
0.12706423 1.4095416 2.7905366
0.104671 1.4092972 2.7910779
0.087152481 1.4092758 2.7914991
0.0071673393 1.4189469 2.7932866
-0.074351788 1.4112906 2.7953508
-0.15343857 1.3846976 2.7976189
-0.19892693 1.3716968 2.7988915
-0.20395184 1.3717196 2.7990119
-0.27256775 1.3729582 2.8006432
-0.36432362 1.3717269 2.8028643
-0.36679602 1.3716704 2.8029246
-0.48504114 1.3575947 2.8059599
-0.56457329 1.3540146 2.80792
-0.60580921 1.3485067 2.8089869
-0.68566513 1.3231554 2.8112562
-0.76632595 1.3338789 2.8130453
-0.80657935 1.3341517 2.8140085
-0.35300875 -1.0737813 2.8364446
-0.43211222 -1.078015 2.8384035
0 0 0 1 0 0 0 1 0 0 0 1 0 0 0 0 0 691 1 0 0
