ply
format ascii 1.0
comment PCL generated
element vertex 317
property float x
property float y
property float z
element camera 1
property float view_px
property float view_py
property float view_pz
property float x_axisx
property float x_axisy
property float x_axisz
property float y_axisx
property float y_axisy
property float y_axisz
property float z_axisx
property float z_axisy
property float z_axisz
property float focal
property float scalex
property float scaley
property float centerx
property float centery
property int viewportx
property int viewporty
property float k1
property float k2
end_header
-0.29118824 -1.2536923 -5.7912397
0.019128799 -0.90061581 -5.8425264
0.04305315 -0.77852613 -5.8521972
0.035019875 -0.69882315 -5.8562231
0.032206535 -0.65634817 -5.8585105
0.027789116 -0.62092799 -5.8602176
0.029051304 -0.56185359 -5.8638992
0.027832031 -0.39501503 -5.8738351
0.028653622 -0.33892205 -5.8772945
0.029767513 -0.32267112 -5.8783813
0.029493809 -0.28531924 -5.8806057
-0.010735989 -0.21798488 -5.8807726
-0.048940182 -0.090757273 -5.8847442
-0.051512241 -0.075946726 -5.8853879
-0.051764011 0.021659561 -5.8912449
-0.052513599 0.061010268 -5.8935437
-0.055249691 0.098231971 -5.8955221
-0.11580849 0.22316271 -5.8971934
-0.13456631 0.32971808 -5.9018002
-0.13043356 0.40939155 -5.9070005
-0.12340021 0.44923052 -5.9100819
-0.06922245 0.73082346 -5.9322896
0.004032135 0.85036433 -5.9465771
-0.024011135 0.88984752 -5.9462442
-0.18311167 1.1716822 -5.9478402
-0.19142151 1.2540677 -5.9520011
-0.22159672 1.334235 -5.9539137
-0.22208452 1.3362149 -5.9539857
-0.26446199 1.3509059 -5.9507723
-0.38639116 1.3730296 -5.9403138
-0.44130707 1.3890789 -5.9359698
-0.48104763 1.3889328 -5.9321179
-0.63754368 1.3836701 -5.9166656
-0.67981958 1.3931813 -5.9131503
-0.75923347 1.3879104 -5.9051523
-0.84125042 1.3972756 -5.8977847
-0.95790386 1.3846906 -5.885745
-1.0000777 1.3867337 -5.8817892
-1.0670724 1.3815085 -5.8749952
-1.2357845 1.3612636 -5.8574591
-1.2804599 1.3704747 -5.8536935
-1.3176661 1.3606712 -5.8495045
-1.3970456 1.352911 -5.8413601
-1.5162001 1.347494 -5.8295097
-1.5584421 1.3545158 -5.8258476
-1.5981832 1.3543698 -5.8219957
-1.7173038 1.3464634 -5.809999
-1.8537769 1.3360037 -5.7961702
-1.8785648 1.3381107 -5.7939
-1.9183736 1.3429433 -5.7903414
-2.0374603 1.3325477 -5.7781978
-2.156683 1.3321093 -5.7666411
-2.2754622 1.3321943 -5.7551589
-2.387677 1.3312604 -5.7442503
-2.4746778 1.3359197 -5.7361174
-2.5144863 1.3407524 -5.7325583
-2.5940359 1.3454391 -5.7251477
-2.7952073 1.3493873 -5.7059298
-2.8310273 1.3375202 -5.7017508
-2.8992217 1.3265994 -5.6944976
-2.9556396 1.3243062 -5.6889029
-2.9896383 1.3178333 -5.685225
-3.1465206 1.320304 -5.6702013
-3.1911356 1.3153896 -5.6655908
-3.3102834 1.3205417 -5.6543779
-3.4293129 1.3132457 -5.642427
-3.469084 1.3207722 -5.6390343
-3.5584095 1.320902 -5.6304035
-3.5898702 1.3194084 -5.6272707
-3.7500532 1.3259127 -5.6121712
-3.8417883 1.3185769 -5.6028576
-3.9866798 1.2799792 -5.5865188
-4.0267544 1.2796954 -5.5826263
-4.0870543 1.2790987 -5.5767584
-4.2290726 1.2840377 -5.5633216
-4.2687721 1.2840952 -5.5594854
-4.3481493 1.2817208 -5.5516658
-4.397727 1.2768135 -5.5465755
-4.4278765 1.2765152 -5.5436416
-4.5063405 1.2774842 -5.5361118
-4.5466738 1.2844986 -5.5326338
-4.5895128 1.2967625 -5.5292296
-4.7085896 1.2944455 -5.5175738
-4.748313 1.2969928 -5.513886
-4.9070902 1.2947336 -5.498394
-4.946743 1.2898118 -5.4942627
-5.0258136 1.27516 -5.485733
-5.1061506 1.2744215 -5.4779186
-5.1879644 1.2899154 -5.4709401
-5.2939215 1.2814969 -5.4601855
-5.3335094 1.2738085 -5.455894
-5.4125061 1.2585894 -5.4473367
-5.4747267 1.2580931 -5.4412894
-5.4926372 1.2575256 -5.4395232
-5.6909819 1.2793285 -5.4216547
-5.7325797 1.2951273 -5.4185839
-5.8121715 1.294536 -5.410851
-5.9478855 1.332707 -5.4000258
-5.9728589 1.3425336 -5.3982029
-6.1312904 1.3167613 -5.3813276
-6.2105846 1.3088559 -5.3731828
-6.2899179 1.3034412 -5.3651843
-6.3295846 1.3007339 -5.3611846
-6.4516945 1.3050344 -5.3496346
-6.610322 1.2917145 -5.3334908
-6.6898351 1.2861421 -5.3254652
-6.7690678 1.285866 -5.3177862
-6.8096719 1.2848616 -5.3137984
-6.8911772 1.2901665 -5.3062358
-6.9291492 1.283896 -5.3021855
-7.0498838 1.2818277 -5.2903848
-7.2087083 1.2809602 -5.2749724
-7.248414 1.2807434 -5.2711191
-7.4500537 1.2920817 -5.2523017
-7.5293479 1.2841766 -5.2441568
-7.7016125 1.2756106 -5.2269807
-7.7413597 1.2778788 -5.2232733
-7.8071723 1.275187 -5.2167463
-7.9031534 1.2819922 -5.2078738
-7.9825125 1.2664484 -5.1992626
-8.1163502 1.265851 -5.1862826
-8.1803436 1.2659521 -5.1801
-8.2599373 1.2653526 -5.1723661
-8.2998228 1.2649755 -5.1684861
-8.3397884 1.2695801 -5.1648984
-8.4222822 1.281611 -5.1576452
-8.5414467 1.2834337 -5.1462307
-8.6209021 1.2854789 -5.13867
-8.7399101 1.2773389 -5.1266699
-8.8194046 1.2818751 -5.1192551
-8.8989 1.2864112 -5.1118402
-8.9812374 1.2884791 -5.104002
-9.0605364 1.2805617 -5.0958557
-9.1400318 1.2850978 -5.0884414
-9.259038 1.2769578 -5.0764413
-9.4180689 1.2885207 -5.061758
-9.457737 1.2858073 -5.0577583
-9.5799799 1.3001062 -5.0467978
-9.6988688 1.2844939 -5.034359
-9.8996201 1.2865111 -5.0150657
-9.9768276 1.2829354 -5.0073833
-10.019456 1.2852261 -5.0033989
-10.104814 1.2968839 -4.9958463
-10.144526 1.2968388 -4.992003
-10.226449 1.3122157 -4.9850068
-10.246837 1.3117388 -4.9830065
-10.425508 1.3090448 -4.9655643
-10.504847 1.301482 -4.9574356
-10.626042 1.309644 -4.9462066
-10.658838 1.3112708 -4.9431329
-10.785513 1.3491666 -4.9331656
-10.793668 1.3485523 -4.9323401
-10.985842 1.3474264 -4.9136868
-11.103462 1.3083451 -4.8999567
-11.30423 1.2659929 -4.8779879
-11.371419 1.2657653 -4.8714762
-11.383745 1.2582785 -4.869833
-11.408199 1.2258683 -4.8655152
-11.391514 1.066467 -4.8575239
-11.402037 0.86475915 -4.8443513
-11.698858 0.58362091 -4.7987046
-11.739279 0.58296996 -4.7947564
-11.779877 0.58216745 -4.790782
-11.759521 0.14212047 -4.7662344
-11.788553 0.10281771 -4.7610579
-11.698402 0.018460061 -4.7646933
-11.563679 -0.37700552 -4.7538929
-11.534297 -0.49390838 -4.7496901
-11.531614 -0.53627503 -4.7473965
-11.266496 -0.56495535 -4.7713079
-10.994121 -0.81036228 -4.7828622
-10.953663 -0.86250317 -4.7836328
-10.868437 -1.091521 -4.7780752
-10.84819 -1.1188365 -4.7783871
-10.768845 -1.113539 -4.7863798
-10.72632 -1.1083509 -4.7908053
-10.646938 -1.1055437 -4.7986512
-10.505156 -1.1273935 -4.8110466
-10.187275 -1.1830369 -4.8384361
-10.142244 -1.2321851 -4.8398299
-10.105369 -1.2365445 -4.8431334
-10.01211 -1.2227182 -4.8529854
-9.9067965 -1.2378657 -4.862258
-9.7848463 -1.2325695 -4.8743711
-9.6685963 -1.2339687 -4.885529
-9.589221 -1.2310082 -4.893384
-9.5041857 -1.2188606 -4.9023399
-9.4586248 -1.2218993 -4.9065633
-9.423811 -1.2101283 -4.9106393
-9.3118143 -1.194481 -4.9224133
-9.2736454 -1.0945663 -4.9321256
-8.7140007 -1.1465027 -4.98312
-8.5939188 -1.2081003 -4.9910212
-8.583992 -1.2080418 -4.9919848
-8.5547504 -1.2082602 -4.9947996
-8.5393219 -1.2077783 -4.9963207
-8.4664984 -1.1811569 -5.0049677
-8.3872395 -1.1707206 -5.0132618
-8.3165884 -1.166589 -5.0203438
-8.2283363 -1.1747679 -5.0283856
-8.1942921 -1.1837209 -5.0311384
-8.0595942 -1.2522547 -5.0400357
-8.008563 -1.2361852 -5.0459394
-7.9330215 -1.2000332 -5.0554233
-7.8714385 -1.1427563 -5.0648308
-7.7481546 -0.58537674 -5.1103401
-7.5350332 -0.58021224 -5.1312623
-7.3056984 -0.73970556 -5.1438308
-7.2613816 -0.75563854 -5.1471567
-7.2170658 -0.77157152 -5.1504827
-7.1957779 -0.77020758 -5.1526237
-7.1744905 -0.76884365 -5.1547642
-7.153203 -0.76747972 -5.1569052
-7.0964856 -0.61029941 -5.1718621
-6.9917917 -0.40061253 -5.1946225
-6.9526987 -0.36056292 -5.2008162
-6.6345701 -0.29542306 -5.235508
-6.541328 -0.34342381 -5.2416329
-6.4670763 -0.38542944 -5.2462831
-6.330399 -0.45202449 -5.2554884
-6.1808791 -0.91947037 -5.2417812
-6.2527518 -1.0318747 -5.2280569
-6.2532778 -1.080299 -5.2250881
-6.1382174 -1.1110358 -5.2343636
-6.1012645 -1.1208314 -5.2373471
-6.019136 -1.1079397 -5.2460666
-5.9794679 -1.1052475 -5.2500653
-5.8862834 -1.0873805 -5.2601538
-5.8607316 -1.0797371 -5.2630854
-5.8182716 -1.0695378 -5.2678065
-5.7815866 -1.0619 -5.2718148
-5.7419949 -1.0542266 -5.2761059
-5.4292703 -1.0825459 -5.3046436
-5.3473749 -1.0821294 -5.3125887
-5.2680769 -1.0742544 -5.3207321
-5.2276692 -0.98527062 -5.3300023
-5.0508986 -0.79788393 -5.3583894
-4.7038589 -0.85880101 -5.3882813
-4.348145 -0.99404407 -5.4145331
-4.3074331 -1.0623299 -5.4143558
-4.0853271 -1.1088618 -5.433032
-4.0672626 -1.1103748 -5.4346876
-4.0431614 -1.1087674 -5.4371157
-3.8948801 -1.0686016 -5.453876
-3.7880566 -1.0808102 -5.4634714
-3.6256139 -1.1175176 -5.4769697
-3.5858269 -1.1248971 -5.4803729
-3.5630927 -1.1021677 -5.4839411
-3.1983409 -1.0587552 -5.5218325
-2.8716159 -1.0607845 -5.553308
-2.8489175 -1.0684402 -5.5550423
-2.8261201 -1.0703688 -5.5571308
-2.76947 -1.0656493 -5.5628939
-2.6548083 -1.0831916 -5.5729256
-2.6150336 -1.0855303 -5.5766315
-2.5752585 -1.0878689 -5.580337
-2.533118 -1.0874339 -5.5844388
-2.3940408 -1.0916104 -5.5976377
-2.2896347 -1.1033875 -5.6070251
-2.2123475 -1.1183069 -5.6136007
-2.1500821 -1.1305187 -5.6188865
-2.0552382 -1.1578194 -5.6264138
-1.9757223 -1.1600075 -5.6339722
-1.9335136 -1.1645515 -5.6377802
-1.8941479 -1.1698997 -5.6412649
-1.8117208 -1.1762624 -5.6488533
-1.7321029 -1.1859187 -5.6559715
-1.6547818 -1.2033277 -5.6624002
-1.5704322 -1.2074367 -5.67031
-1.4486394 -1.2191476 -5.6813831
-1.3716941 -1.2420555 -5.6874442
-1.2962952 -1.2617179 -5.6935515
-1.2145162 -1.2536639 -5.7019458
-1.1303716 -1.2428362 -5.7107358
-1.0156417 -1.2653575 -5.7204742
-0.85441494 -1.2545123 -5.7367201
-0.73519278 -1.25406 -5.7482777
-0.69312048 -1.2486461 -5.7526727
-0.53193808 -1.273138 -5.7667851
-0.52699327 -1.2753677 -5.7671289
-0.4897542 -1.2706186 -5.7710166
-0.42274952 -1.2633185 -5.7779365
-0.41017914 -1.2631863 -5.77916
-0.36891174 -1.2616494 -5.7832437
-0.36069679 -1.2608496 -5.7840862
-1.2874112 0.42194039 -5.7958646
-1.2983131 0.4987841 -5.7994404
-1.2910905 0.69797254 -5.8121419
-1.2947774 0.78040481 -5.8167524
-1.2952013 0.81745464 -5.818944
-1.5151415 1.093275 -5.8142939
-1.6368985 1.1024941 -5.8030739
-1.753993 1.1222714 -5.7929411
-1.8334746 1.1219792 -5.7852368
-1.8732152 1.1218331 -5.7813849
-1.9129562 1.1216871 -5.7775326
-2.0320773 1.1137807 -5.7655358
-2.0718184 1.1136346 -5.7616835
-2.3900676 0.78326488 -5.7109981
-2.3856592 0.73534632 -5.7085371
-2.389601 0.64975744 -5.7029982
-2.4019699 0.56883061 -5.6969256
-2.3984008 0.48917893 -5.692471
-2.3880208 0.36832944 -5.686193
-2.3843734 0.33216047 -5.6843662
-2.0265393 -0.0019865632 -5.6988378
-1.9059401 -0.090981804 -5.7051382
-1.6379552 -0.087373324 -5.7312727
-1.5861712 -0.059791274 -5.7379427
-1.3096142 0.23530561 -5.7824707
-1.3099895 0.25679207 -5.7837296
-1.2888098 0.34227043 -5.7909284
-4.3125401 -0.10957032 -5.4712729
-3.8700604 -0.33221561 -5.5006495
-4.146718 -0.73529077 -5.4496055
-4.3504562 -0.7126773 -5.4312644
-4.4853535 -0.58640295 -5.425827
0 0 0 1 0 0 0 1 0 0 0 1 0 0 0 0 0 317 1 0 0
