ply
format ascii 1.0
comment PCL generated
element vertex 654
property float x
property float y
property float z
element camera 1
property float view_px
property float view_py
property float view_pz
property float x_axisx
property float x_axisy
property float x_axisz
property float y_axisx
property float y_axisy
property float y_axisz
property float z_axisx
property float z_axisy
property float z_axisz
property float focal
property float scalex
property float scaley
property float centerx
property float centery
property int viewportx
property int viewporty
property float k1
property float k2
end_header
-2.5784843 1.3031069 -0.21546775
-2.6162419 1.3057261 -0.20561087
-2.7051067 1.3003795 -0.18201464
-2.7585335 1.3026924 -0.16801924
-2.7705789 1.3022345 -0.16483003
-2.7977009 1.3009709 -0.15764105
-2.8133655 1.3023689 -0.15356249
-2.8988004 1.2955055 -0.13081741
-2.9279556 1.2966751 -0.12317687
-2.9862084 1.2940187 -0.10773832
-3.0071402 1.2964271 -0.10230702
-3.0411129 1.2969996 -0.093376696
-3.0788026 1.2946101 -0.083364725
-3.0959589 1.2949851 -0.078857839
-3.1422415 1.2940319 -0.066631675
-3.2176795 1.2942481 -0.04676491
-3.2811184 1.2936701 -0.03003186
-3.3188953 1.2987736 -0.020255804
-3.385741 1.2975538 -0.0026031137
-3.4611788 1.29777 0.017263651
-3.5074031 1.2918215 0.029646993
-3.5740364 1.2898408 0.04727006
-3.6376872 1.2900233 0.064032644
-3.6732655 1.2903969 0.073392868
-3.5949278 1.3003255 0.052411675
-3.4988687 1.2953806 0.027275622
-3.4731781 1.2985647 0.020397425
-3.4269538 1.3045132 0.0080140233
-3.2394066 1.3938901 -0.044483423
-3.2016876 1.3937819 -0.054416835
-3.1262496 1.3935657 -0.0742836
-3.1091223 1.3956884 -0.078869104
-3.0628397 1.3966415 -0.091095269
-3.004529 1.3943025 -0.10637647
-2.9582465 1.3952556 -0.11860257
-2.9034002 1.3972702 -0.13312149
-2.8622165 1.3928083 -0.14381725
-2.8244977 1.3927002 -0.1537506
-2.7718599 1.3971168 -0.16777068
-2.7255988 1.3984659 -0.18000484
-2.6685226 1.3976823 -0.19501454
-2.6295011 1.3951567 -0.20520759
-2.5625901 1.3934411 -0.22277606
-2.478605 1.3946679 -0.24494439
-2.4444566 1.4005531 -0.25414419
-2.3111742 1.437072 -0.2905193
-2.1980021 1.4367055 -0.32032192
-2.1602783 1.4365833 -0.33025616
-2.1019044 1.4333963 -0.34552467
-2.047106 1.4362166 -0.36005884
-2.000845 1.4375657 -0.372293
-1.8832915 1.4167094 -0.402542
-1.8606079 1.4181349 -0.40856731
-1.6729019 1.4010513 -0.4574284
-1.6351781 1.4009292 -0.46736258
-1.5134685 1.4020338 -0.49946529
-1.4963608 1.4024794 -0.50398773
-1.3617666 1.3870627 -0.53891414
-1.3324568 1.3892161 -0.54671019
-1.3264003 1.386948 -0.54822749
-1.1794143 1.3090101 -0.58425838
-1.0933676 1.3047967 -0.6067819
-1.0545039 1.3106667 -0.61722332
-1.0168138 1.3130412 -0.627235
-0.94139957 1.3152938 -0.64718086
-0.88305902 1.3146038 -0.66252679
-0.85741472 1.3165205 -0.66934913
-0.81969023 1.3163984 -0.67928332
-0.71154737 1.313547 -0.70767528
-0.69447279 1.3164896 -0.71227521
-0.66882753 1.3184063 -0.71909767
-0.63110352 1.3182843 -0.72903198
-0.55582428 1.3305242 -0.74928719
-0.48030901 1.3252861 -0.76900095
-0.13053894 1.3488107 -0.86196107
-0.075750828 1.3558207 -0.87663716
-0.008992672 1.3645339 -0.89452571
0.045853138 1.3665485 -0.90904456
0.10410547 1.3692048 -0.924483
0.12985468 1.3673934 -0.93120402
0.20869923 1.3678188 -0.95199043
0.22585535 1.3674438 -0.95649725
0.26896429 1.3477736 -0.96717471
0.24241447 1.0695263 -0.95056695
0.25599957 0.98847717 -0.95134562
0.25606441 0.90963858 -0.94863898
0.2541728 0.86968189 -0.94676012
0.23445559 0.75046295 -0.93744665
0.23091888 0.63996643 -0.93269736
0.23118114 0.61748695 -0.93198973
0.23517799 0.55044663 -0.93072647
0.21295595 0.38760757 -0.91924614
0.21556234 0.34790951 -0.91856128
0.21165133 0.21696694 -0.91300684
0.19358444 0.048241332 -0.90241784
0.17215872 -0.06807334 -0.89275461
0.17804575 -0.18718909 -0.89019018
0.15585613 -0.32615978 -0.87954289
0.14339304 -0.39337814 -0.87393707
0.13438845 -0.59224933 -0.86469394
0.13142347 -1.022682 -0.84904176
0.12941265 -1.1033224 -0.84572583
0.095263958 -1.1092075 -0.83652598
0.015749931 -1.12468 -0.81504339
-0.030444145 -1.1310229 -0.80265433
-0.16469479 -1.1142672 -0.76786476
-0.19071674 -1.1150261 -0.76098293
-0.52402449 -1.0333235 -0.67599541
-0.56164932 -1.0406915 -0.66582853
-0.63352299 -1.0463182 -0.64669889
-0.6797514 -1.0501294 -0.63438839
-0.74312115 -1.0518216 -0.61763507
-0.85126352 -1.0491364 -0.58923763
-0.85980082 -1.0505737 -0.5869388
-0.88541317 -1.054886 -0.58004206
-0.93518257 -1.0553217 -0.56691533
-0.9693656 -1.0585743 -0.55779737
-1.0070562 -1.0609481 -0.5477857
-1.0824714 -1.0631992 -0.52783972
-1.0021596 -1.0486442 -0.54950088
-0.70131254 -0.75595349 -0.63887173
-0.74391747 -0.34873301 -0.64171654
-0.82229614 -0.14980777 -0.62794036
-0.78066063 -0.10761258 -0.64036709
-0.71245575 0.22344874 -0.66977364
-0.67978716 0.4230864 -0.68527764
-0.68194532 0.58288825 -0.69023007
-0.71269989 0.7652539 -0.68842846
-0.71307039 0.79271984 -0.68927974
-0.71401501 0.86263305 -0.69144636
-1.0008459 1.3074949 -0.63125008
-1.0132384 1.307034 -0.62796944
-1.0680022 1.3017168 -0.61335796
-1.0939384 1.3018007 -0.6065281
-1.1519208 1.2954961 -0.59103471
-1.2273688 1.2957405 -0.57116634
-1.265059 1.2933658 -0.56115466
-1.3782308 1.2937324 -0.5313521
-1.4074178 1.2953259 -0.52371782
-1.4914029 1.2940991 -0.50154942
-1.520556 1.2931956 -0.49383789
-1.5667834 1.2893497 -0.4815262
-1.633728 1.2935623 -0.46403509
-1.680023 1.2947102 -0.45187837
-1.7262504 1.2908642 -0.43956679
-1.7433584 1.2904185 -0.43504429
-1.8273773 1.2916886 -0.41295326
-1.856564 1.293282 -0.40531904
-1.885751 1.2948756 -0.39768481
-1.9820175 1.3106693 -0.3728689
-2.0367818 1.3053521 -0.35825747
-2.0916476 1.3075254 -0.34387809
-2.1585586 1.3092412 -0.32630962
-2.2803352 1.3131303 -0.29436177
-2.3301377 1.3152916 -0.28131586
-2.376399 1.3139426 -0.26908165
-2.4276893 1.3101089 -0.25543672
-2.5031035 1.3078563 -0.23549098
-9.1043339 -0.5237627 1.5668924
-9.6272297 -0.6955505 1.7105851
-9.6760788 -0.69737363 1.7235177
-9.6953068 -0.69590133 1.7285323
-9.712184 -0.69442958 1.7329278
-9.7580442 -0.69230866 1.7449365
-10.06624 -0.49312985 1.8192496
-10.085546 -0.4631623 1.8233004
-10.152028 -0.37619317 1.8378105
-10.478773 0.022361547 1.9101222
-10.486311 0.039779633 1.9115062
-10.536539 0.19367208 1.9194219
-10.539101 0.23214351 1.9187677
-10.541996 0.26978296 1.9182298
-10.538333 0.35301173 1.9143894
-10.539392 0.47031951 1.9106154
-10.543299 0.54998952 1.9088922
-10.612247 0.81143415 1.9180241
-10.612829 0.84639055 1.9169698
-10.581865 0.98972577 1.9038601
-10.511326 1.1561716 1.8795254
-10.413373 1.2438245 1.8506916
-10.112866 1.2737372 1.7704892
-10.402704 1.3211317 1.8452098
-10.425642 1.3381521 1.8506649
-10.491651 1.3221641 1.8686073
-10.518505 1.3177309 1.8758354
-10.645982 1.3093383 1.9097092
-10.66267 1.3100808 1.9140801
-10.807449 1.2359377 1.9547839
-10.888475 1.1969241 1.9774783
-10.915845 1.0712537 1.9890306
-10.928463 0.992742 1.9950671
-10.934852 0.9527927 1.9981306
-10.934429 0.87585062 2.0006776
-10.932477 0.78448308 2.00332
-10.931312 0.71456999 2.0054286
-10.93444 0.67166185 2.007735
-11.032761 0.46601009 2.0407431
-11.019474 0.091677949 2.0501757
-11.035511 0.066508263 2.05527
-11.034852 0.050263166 2.0556576
-11.025204 0.011778012 2.0544457
-11.009691 -0.073120765 2.053292
-10.936075 -0.34266168 2.04321
-10.927551 -0.38133004 2.0423002
-10.83976 -0.4594174 2.0218697
-10.735659 -0.57874358 1.9985666
-10.695328 -0.74084914 1.993542
-10.707767 -0.86692458 2.0011754
-10.7069 -0.91935998 2.0027583
-10.697153 -1.0581604 2.004986
-10.644766 -1.0981234 1.9925654
-10.633011 -1.0981262 1.9894686
-10.49304 -1.1025627 1.9527462
-10.190132 -1.1389158 1.8742006
-10.185598 -1.1406798 1.8730669
-10.165993 -1.1411232 1.8679173
-10.119349 -1.1421633 1.855665
-10.063718 -1.1417378 1.8409941
-10.016262 -1.1432117 1.8285427
-9.9222746 -1.1407423 1.8036964
-9.8945065 -1.136779 1.7962437
-9.8299732 -1.129894 1.7790048
-9.8103685 -1.1303372 1.773855
-9.7350292 -1.1365974 1.7542231
-9.602726 -1.1753309 1.720706
-9.5378113 -1.1439155 1.7025185
-9.4343567 -1.1204387 1.6744523
-9.3411913 -1.1150283 1.6497209
-9.2570944 -1.1060897 1.6272566
-9.199789 -1.1115357 1.6123476
-9.1442003 -1.1086135 1.5976017
-9.0779085 -1.1125939 1.5802746
-9.0223198 -1.1096715 1.5655286
-8.9095078 -1.1072013 1.535723
-8.8162184 -1.1092817 1.5112176
-8.7499685 -1.1107651 1.4938152
-8.740942 -1.1117964 1.4914727
-8.7049999 -1.1059338 1.4818013
-8.9863949 -0.84266192 1.5468392
-9.0041771 -0.76275641 1.548763
-8.9840794 -0.56264102 1.5365546
-8.9076595 -0.36217207 1.5094955
-8.4501801 -0.32737535 1.3877697
-8.4531937 -0.31534874 1.3881483
-8.9062405 -0.31186718 1.5073836
-8.944437 -0.27690127 1.5162387
-8.9537592 -0.2818929 1.518867
-9.0228586 -0.32246935 1.5384734
-9.0900478 -0.47500032 1.5614443
-9.0932102 -0.48803455 1.5627277
-7.9966154 -1.4025725 1.305425
-8.0571861 -1.4421419 1.3227499
-8.200263 -1.4150804 1.3595085
-8.2204466 -1.3796802 1.3636029
-8.2753935 -1.2787099 1.3745902
-8.2993841 -1.2514415 1.3799684
-8.5241385 -1.1183094 1.4345806
-8.4220285 -1.1089364 1.4073559
-8.3859634 -1.1105646 1.3979106
-8.3483858 -1.1080766 1.3879249
-8.3393593 -1.109108 1.3855826
-8.3090935 -1.1139572 1.3777764
-8.2713928 -1.1189598 1.3680171
-8.2432394 -1.1255199 1.3608266
-7.8771 -1.2201109 1.2676349
-7.6279049 -1.1483499 1.1995047
-7.5225139 -1.0999043 1.1700655
-7.4196138 -1.0910522 1.1426505
-7.3911052 -1.0850571 1.1349328
-7.3625555 -1.0815588 1.1272905
-7.3159113 -1.0825878 1.1150374
-7.2603226 -1.0796384 1.1002908
-7.2317729 -1.0761402 1.0926485
-7.1761847 -1.0731907 1.0779016
-7.1099339 -1.0746999 1.0605001
-7.0454016 -1.067772 1.0432596
-7.0077839 -1.067786 1.0333496
-6.9707689 -1.0653954 1.0235155
-6.6330695 -0.74285752 0.92340451
-6.6529465 -0.62207228 0.92446816
-6.8013868 -0.44512892 0.95746154
-6.86658 -0.41210675 0.97349596
-6.8772416 -0.40764791 0.97615075
-7.0124264 -0.35120001 1.009815
-7.0361762 -0.34617952 1.0158985
-7.0200071 -0.32870734 1.0110352
-6.8497658 -0.3392306 0.96654832
-6.8137827 -0.33580089 0.95695007
-6.8031626 -0.33776277 0.95422
-6.469913 -0.11222094 0.85863268
-6.4512691 -0.10224032 0.85337615
-6.3093271 0.080557764 0.80966568
-6.2760754 0.084075943 0.80078399
-6.2670898 0.085541591 0.79836613
-6.2078857 0.061517477 0.78359866
-6.0544329 0.05815582 0.7432875
-5.7861013 0.098749444 0.67119277
-5.7495103 0.088944957 0.66189152
-5.7158408 0.020308644 0.65539265
-5.5255461 -0.3497715 0.61804527
-5.3191557 -0.36685258 0.56426167
-5.290689 -0.35836053 0.55646861
-5.0340877 -0.10931727 0.4802624
-4.9963107 -0.11442089 0.47048634
-4.5380669 -0.36765686 0.35851052
-4.4196339 -0.3147997 0.32548308
-4.3905072 -0.3134715 0.31776375
-4.2977676 -0.32655144 0.29378328
-4.2741933 -0.32661909 0.28757489
-4.1932611 -0.32044423 0.26604
-3.9470115 -0.0089463443 0.1904031
-3.9330416 0.0059993863 0.18620634
-3.6728516 0.042066053 0.11641291
-3.6437254 0.043394223 0.10869363
-3.4724565 0.096114948 0.061751157
-3.4473243 0.10885681 0.054689825
-3.4387898 0.11241589 0.052318454
-3.4097793 0.12373342 0.044284582
-3.3418431 0.13244466 0.026085734
-3.1129611 -0.004823029 -0.02947098
-2.7919374 -0.32645896 -0.10293275
-2.7086167 -0.31319171 -0.12534207
-2.4197943 -0.11691894 -0.20821375
-2.4035225 -0.099493921 -0.21310264
-2.2319109 -0.1079779 -0.25802076
-2.3101835 -0.36137187 -0.22864515
-2.2509131 -0.60918909 -0.23569804
-2.2221551 -0.64423913 -0.24206346
-1.9503233 -1.0453874 -0.29981846
-1.9090583 -1.0488861 -0.31056887
-1.891917 -1.0510052 -0.31501162
-1.8506854 -1.052007 -0.32583952
-1.8164358 -1.0537483 -0.33480245
-1.7993276 -1.0533705 -0.33932263
-1.6912518 -1.0510619 -0.3678751
-1.677618 -1.0523021 -0.37142414
-1.5729835 -1.0541087 -0.39892781
-1.4804604 -1.0514799 -0.42339391
-1.4341326 -1.0551596 -0.43547195
-1.3842635 -1.0622149 -0.44836622
-1.3259239 -1.0628388 -0.4637143
-1.2710586 -1.0650809 -0.47809118
-1.1956768 -1.060333 -0.49811465
-1.187139 -1.0588957 -0.5004136
-1.170064 -1.0560209 -0.50501126
-1.1614933 -1.0570804 -0.50723273
-1.1408443 -1.0600783 -0.51256913
-3.0846777 -1.1449109 0.0024670362
-3.0212681 -1.141835 -0.014344513
-2.9423649 -1.146405 -0.034973741
-2.9046462 -1.1465132 -0.044907093
-2.8875189 -1.1443903 -0.049492598
-2.8060911 -1.1475697 -0.070835054
-2.7598295 -1.1462554 -0.083068132
-2.7074876 -1.1459929 -0.096866786
-2.675844 -1.145064 -0.10523534
-2.6381202 -1.1451871 -0.11516953
-2.5626721 -1.1454332 -0.1350379
-2.5164104 -1.1441188 -0.14727104
-2.4872241 -1.1456794 -0.15490627
-2.4032383 -1.144488 -0.1770736
-2.3947008 -1.1430506 -0.17937243
-2.3107152 -1.1418592 -0.2015397
-2.2815287 -1.1434196 -0.20917499
-2.2473788 -1.13767 -0.2183705
-2.1135578 -1.141037 -0.25350952
-2.0843711 -1.1425973 -0.26114488
-2.0466471 -1.1427206 -0.27107906
-1.971199 -1.1429666 -0.29094744
-1.8993251 -1.1373399 -0.31007713
-1.8153396 -1.1361486 -0.33224434
-1.7946904 -1.1391464 -0.3375808
-1.7655039 -1.140707 -0.3452161
-1.6473684 -1.1337659 -0.37657887
-1.5975327 -1.1383243 -0.38955063
-1.5512712 -1.13701 -0.4017837
-1.5220847 -1.1385704 -0.409419
-1.4166138 -1.1574241 -0.43655407
-1.3586504 -1.1569721 -0.45184022
-1.2359781 -1.1292468 -0.4851163
-7.8101473 -1.2640421 1.2515137
-7.6675234 -1.1916137 1.2114369
-7.4222794 -1.2370524 1.148397
-7.3435612 -1.3174872 1.1304375
-7.1620603 -1.3108717 1.0823923
-7.0015879 -1.2754358 1.0388914
-6.9923487 -1.2654518 1.0361124
-6.8253937 -1.1726558 0.98892176
-6.6479664 -1.1682663 0.94202685
-6.6103487 -1.1682801 0.93211687
-6.5440984 -1.1697896 0.91471529
-6.4974952 -1.1683216 0.9023869
-6.4360685 -1.1505967 0.88559157
-6.3714948 -1.1461657 0.86842644
-6.3434238 -1.1477537 0.86108589
-6.328546 -1.1484089 0.857189
-6.3147912 -1.1492493 0.8535943
-6.2992387 -1.1439649 0.84931445
-6.0924373 -1.1374515 0.79460734
-6.0553813 -1.1375579 0.78484857
-5.8656158 -1.1435676 0.7350623
-5.7754488 -1.1611627 0.71191549
-5.6333027 -1.2026501 0.67590034
-5.595685 -1.2026639 0.66599035
-5.4898925 -1.1776233 0.63725412
-5.3060651 -1.1583656 0.5881592
-5.2308297 -1.1583934 0.56833923
-5.1190915 -1.0910189 0.53657395
-5.0494771 -1.0715139 0.51756012
-5.1625175 -1.0811803 0.54767472
-5.2088585 -1.0771379 0.55974358
-5.3075519 -1.0684777 0.58544534
-5.4004693 -1.0888916 0.61062974
-5.6330457 -0.57897103 0.65428489
-5.2900691 -0.39581382 0.55759937
-5.2420297 -0.37908688 0.54436529
-5.0169163 -0.16681209 0.47772497
-3.8935533 -0.88185966 0.20647803
-4.1210909 -1.0691812 0.27289501
-4.2050343 -1.0750215 0.2952117
-4.2598801 -1.077036 0.30973065
-4.1844425 -1.0772524 0.28986382
-4.1090622 -1.0724734 0.26983982
-4.0713725 -1.0700839 0.25982779
-3.9044325 -1.1236645 0.21769843
-3.8838406 -1.1258955 0.21235055
-3.875277 -1.1248341 0.21005782
-3.7139459 -1.0842488 0.16615269
-3.6785841 -1.0843502 0.15684018
-3.5806184 -1.1064583 0.13179472
-3.4447405 -1.1417063 0.097215354
-3.3572741 -1.145215 0.074293464
-3.3109915 -1.1442618 0.06206727
-3.2526808 -1.146601 0.04678607
-3.2063982 -1.1456478 0.034559965
-3.1395235 -1.1469253 0.016985893
-9.3731441 1.2845643 1.5752344
-9.326663 1.2934778 1.562681
-9.213769 1.2909527 1.5330261
-9.1852818 1.2886798 1.5255997
-9.2496309 1.2802315 1.5428443
-9.3336887 1.2688305 1.5653834
-9.3713474 1.2713367 1.5752182
-9.5236149 1.2846017 1.6148748
-0.13382912 1.3381782 -0.86072677
-0.48379993 1.0293641 -0.75785714
-0.46990919 0.91162771 -0.75744909
0.032858372 0.7168752 -0.88317519
0.11607361 0.78515857 -0.90745753
0.23112583 0.99017745 -0.94485146
0.23345089 1.02959 -0.94682556
-8.3107386 1.2782433 1.2955607
-8.3482742 1.2732587 1.3056219
-8.3859339 1.2757651 1.3154566
-8.4521427 1.2747186 1.3329356
-8.4627609 1.2765262 1.3356706
-8.5364456 1.2782996 1.3550215
-8.5830078 1.2743801 1.3674239
-8.6221771 1.2726349 1.3778033
-8.6869154 1.2783368 1.3946619
-8.7155075 1.277281 1.4022307
-8.7711372 1.2769238 1.416899
-8.8373871 1.2783742 1.4343023
-8.8839912 1.2769518 1.4466294
-8.9307175 1.2830204 1.4587299
-8.9593496 1.2844615 1.4662232
-9.0164909 1.2798527 1.4814363
-9.0254765 1.2784208 1.4838531
-9.0993233 1.2901821 1.502902
-9.1384935 1.288437 1.5132816
-8.2658501 1.2878993 1.2834013
-8.3229914 1.2832906 1.2986145
-8.4162807 1.2854397 1.3231173
-8.444953 1.2893777 1.3305349
-8.498991 1.288278 1.3448093
-8.5650778 1.2797406 1.362515
-8.611721 1.280815 1.3747661
-8.6886721 1.2890673 1.3947537
-8.7638664 1.286589 1.4146495
-8.7802868 1.28548 1.419014
-8.9230175 1.2942611 1.456313
-8.9242458 1.2944406 1.4566305
-9.0452862 1.2912818 1.4886276
-9.0632973 1.2909154 1.4933856
-9.0903378 1.2916139 1.5004852
-9.1380644 1.2900126 1.5131141
-8.2460814 1.2775353 1.2785511
-8.1994371 1.2764608 1.2663
-8.1420918 1.2685846 1.2514641
-8.0865421 1.2739357 1.2366449
-8.0489254 1.2739264 1.2267346
-7.9091139 1.2781937 1.189754
-8.0130634 1.2846476 1.2169166
-8.0882988 1.2846663 1.2367368
-8.134902 1.2832438 1.2490637
-8.2568235 1.286834 1.28106
-3.8572605 -0.75957972 0.19269198
-4.0849733 -0.40891862 0.2405681
-4.1376586 -0.38337034 0.25356546
-4.2558365 -0.36615878 0.28410482
-4.3896341 -0.38840303 0.3201226
-4.5336704 -0.36800885 0.35736454
-6.6720223 1.2776953 0.86385787
-6.7563262 1.2812413 0.88594526
-6.8118734 1.2758219 0.90076655
-6.8584766 1.2743651 0.91309458
-6.9231753 1.277468 0.93003225
-6.9893007 1.2714607 0.94766068
-7.0162992 1.2695607 0.95483911
-7.1123548 1.2719284 0.98006326
-7.1683626 1.270474 0.99486876
-7.2044702 1.2745991 1.0042388
-7.2421293 1.277105 1.0140736
-7.1970773 1.2769424 1.0022103
-7.1292348 1.2745812 0.98441863
-7.0539999 1.2745634 0.96459842
-7.0089474 1.2744008 0.95273507
-6.9623857 1.2783545 0.94033158
-6.4912853 1.2728103 0.81641114
-6.4733143 1.2757417 0.81157541
-6.4553018 1.276176 0.80681503
-6.3980789 1.2757238 0.7917552
-6.3710804 1.2776239 0.78457683
-6.3514757 1.2771806 0.77942723
-6.2930756 1.2761376 0.7640776
-6.3408146 1.2727747 0.77677071
-6.5861263 1.2732716 0.84138119
-6.4861231 1.2688445 0.81518817
-4.5155244 -1.0602311 0.37649974
-4.410902 -1.0641147 0.34907103
-4.3644738 -1.0756501 0.33723801
-4.3730659 -1.0742137 0.33945203
-4.4022508 -1.0705465 0.34701407
-4.4862814 -1.0688939 0.36909503
-4.5617194 -1.0686774 0.3889617
-4.7502851 -1.0706342 0.43870723
-4.553185 -1.0651183 0.38659039
-6.636651 1.2773198 0.85455227
-6.6035261 1.2765781 0.84585106
-6.632812 1.2768087 0.85355848
-6.6598482 1.2762245 0.86070132
-6.6973863 1.2724206 0.87072229
-6.7938614 1.2762563 0.89600617
-4.6644597 1.2743989 0.33507696
-4.5889635 1.2691871 0.31536746
-4.542623 1.2651449 0.30329856
-4.4758067 1.2688627 0.28556728
-4.4380879 1.2687544 0.27563396
-4.3831835 1.2657735 0.26127234
-4.3745909 1.2643371 0.25905821
-4.3369007 1.2667267 0.24904615
-4.2699971 1.2629511 0.23155081
-4.2408419 1.2617817 0.22391021
-4.2237148 1.2639045 0.21932474
-4.2151804 1.2674636 0.21695331
-4.0612764 1.3001429 0.1752781
-3.9943726 1.2963675 0.15778264
-3.9566536 1.2962593 0.14784923
-3.8674951 1.2975237 0.12431666
-3.834933 1.296996 0.11575636
-3.7543674 1.2996969 0.094437897
-7.8620501 -1.3127955 1.266872
-3.3001275 -1.0476453 0.055867136
-3.5661538 -0.72935718 0.1149554
-3.385812 -0.46110731 0.058176309
-3.2319367 -0.42593032 0.016422331
-3.2147806 -0.42630523 0.011915505
-3.1479061 -0.42758298 -0.005658567
-2.9886343 -0.48581117 -0.04560715
-2.853971 -0.76356369 -0.071488202
-3.0025735 -1.0042269 -0.02402389
-3.2107942 -1.0613672 0.032806277
-3.262321 -1.0552467 0.046169579
-7.5054121 1.2746705 1.0835199
-7.550827 1.2702426 1.0956376
-7.607604 1.2702913 1.1105938
-7.6541657 1.2663378 1.1229972
-7.7102833 1.2688482 1.1376947
-7.7855601 1.271364 1.1574395
-7.8338785 1.278175 1.1699338
-7.7496161 1.277091 1.1477721
-7.7120805 1.2820758 1.137711
-7.6834078 1.2781376 1.1302933
-7.6187916 1.2799267 1.1132083
-7.6002936 1.2776285 1.1084144
-7.5716619 1.2761538 1.1009221
-7.5239096 1.2770351 1.0883114
-7.4968705 1.2763363 1.081212
-7.4693866 1.2755392 1.0739989
-9.6633034 1.2728435 1.6520822
-9.5791235 1.2767534 1.6297698
-9.6740055 1.2796451 1.6546664
-9.6919765 1.2767816 1.6595001
-9.718935 1.2724861 1.6667507
-9.6903439 1.2735419 1.6591818
-5.9752154 1.2720976 0.68047667
-5.9286122 1.2735542 0.66814864
-5.8904743 1.2761339 0.65801203
-5.8980894 1.2760439 0.66002136
-5.9211817 1.2745817 0.66615552
-5.9690413 1.2775286 0.67866242
-6.0482464 1.2749788 0.69961715
-6.1543598 1.2761047 0.727534
-6.2206511 1.2800851 0.74486101
-6.0038066 1.2710752 0.68804431
-6.0594368 1.2706498 0.7027148
-6.0880275 1.2696275 0.71028244
-6.1722484 1.2681795 0.73252052
-6.2334599 1.2731879 0.74847376
-3.9052725 1.3026274 0.13409278
-3.783668 1.3133552 0.10168537
-4.1315866 1.3032765 0.19369307
-4.0270514 1.306886 0.16602847
-3.9807394 1.3053415 0.15388089
-4.3337855 1.2923456 0.24734029
-4.4179029 1.3014915 0.26918525
-4.5310602 1.3018161 0.29898539
-4.6065273 1.3045301 0.3187736
-4.6819654 1.3047465 0.33864027
-4.8156848 1.3048043 0.37386692
-4.8996577 1.3014616 0.39610514
-4.7950644 1.3000757 0.36859772
-4.702179 1.2745072 0.34501028
-10.055861 1.2693307 1.7556233
-9.9805851 1.2668152 1.7358785
-9.9353428 1.2681578 1.7239132
-9.8994951 1.2715718 1.7143512
-9.8121414 1.2696413 1.6914043
-9.7745237 1.2696319 1.6814942
-9.8334618 1.2782508 1.6967237
-9.8424883 1.2793159 1.699065
-9.898078 1.2764617 1.7138088
-9.9642868 1.2754152 1.7312877
-9.992918 1.2768562 1.738781
-10.019958 1.277555 1.7458804
-10.059034 1.2751129 1.7562594
-6.8596921 1.2762719 0.91334885
-4.1401792 1.3047129 0.19590721
-4.1487427 1.3036515 0.19819993
-4.2206864 1.2970164 0.21738288
-4.2670274 1.3010588 0.22945178
-7.3925586 1.2746437 1.0537895
-7.3099308 1.2769691 1.0319407
-7.3173232 1.2746258 1.0339692
-5.7452674 1.2760077 0.61976147
-5.7315383 1.2749753 0.61618018
-5.6653299 1.2759888 0.59870249
-5.7383189 1.276373 0.61791825
-5.0983901 1.2910486 0.44882113
-5.172225 1.2986598 0.46801007
-5.1259427 1.299613 0.45578402
-5.0127854 1.2992884 0.42598388
-4.9287548 1.2976358 0.40390295
-5.0042219 1.3003497 0.42369115
0 0 0 1 0 0 0 1 0 0 0 1 0 0 0 0 0 654 1 0 0
