ply
format ascii 1.0
comment PCL generated
element vertex 488
property float x
property float y
property float z
element camera 1
property float view_px
property float view_py
property float view_pz
property float x_axisx
property float x_axisy
property float x_axisz
property float y_axisx
property float y_axisy
property float y_axisz
property float z_axisx
property float z_axisy
property float z_axisz
property float focal
property float scalex
property float scaley
property float centerx
property float centery
property int viewportx
property int viewporty
property float k1
property float k2
end_header
-10.788855 0.803792 -1.7901845
-10.793763 0.85102236 -1.7754607
-10.803223 0.79246521 -1.7910825
-10.800107 0.76640534 -1.7992756
-10.81431 0.65515327 -1.829594
-10.821846 0.58217299 -1.8497844
-10.802813 0.64694691 -1.8339553
-10.801279 0.66629636 -1.8285236
-10.789019 0.74172127 -1.8084145
-0.0067663193 -1.1550335 -4.192606
-0.55101585 -1.2222725 -4.1202002
-0.62929058 -1.2234666 -4.1072936
-0.72470713 -1.2254262 -4.0917087
-0.78505468 -1.2301418 -4.0828738
-0.86254501 -1.2356229 -4.0713611
-0.94695473 -1.2153692 -4.0511065
-1.1907339 -1.1885928 -4.0019398
-1.2646194 -1.2072718 -3.9949193
-1.4256458 -1.1944805 -3.9638824
-1.504097 -1.2002861 -3.9523025
-1.5780702 -1.2212709 -3.9459455
-1.6563449 -1.2224649 -3.9330387
-1.738656 -1.1969504 -3.9115922
-1.8994179 -1.1772417 -3.8785655
-1.9773395 -1.1692122 -3.8630054
-2.17693 -1.14203 -3.8212037
-2.2643366 -1.1174774 -3.7991772
-2.3817925 -1.1204213 -3.7801485
-2.5337758 -1.1356826 -3.7588949
-2.6575432 -1.1217903 -3.7338452
-2.7778199 -1.1158236 -3.7117181
-2.8560061 -1.1147118 -3.698148
-2.9843619 -1.0864632 -3.6680982
-3.101758 -1.0888798 -3.6489248
-3.2232816 -1.0670098 -3.6219084
-3.5126207 -1.0698189 -3.5737271
-3.5819979 -1.1053817 -3.5724368
-3.6209633 -1.1023395 -3.5649419
-3.6991944 -1.1031809 -3.551939
-3.8602829 -1.0921206 -3.5214009
-4.0218716 -1.092604 -3.4941735
-4.1440954 -1.0868948 -3.4717922
-4.2170992 -1.0866272 -3.4593482
-4.2950301 -1.0805427 -3.4443588
-4.3378363 -1.0690223 -3.4337196
-4.7327547 -0.871665 -3.3087778
-4.7510786 -0.76677835 -3.2748225
-4.383431 -0.43636701 -3.2399054
-4.3355718 -0.4264738 -3.2451017
-4.2532954 -0.4219147 -3.2576964
-4.1835871 -0.97645235 -3.4326172
-0.56857443 -1.1523329 -4.0966539
-0.020394802 -1.1103857 -4.177165
0.0089535713 -0.97747922 -4.1430421
0.014476299 -0.93836546 -4.1324725
0.024030209 -0.78178036 -4.0880322
0.023096085 -0.74489677 -4.0770249
0.022161961 -0.7080133 -4.0660176
0.033631325 -0.66015512 -4.0538836
0.060040951 -0.55874205 -4.0285263
0.061718464 -0.51129258 -4.0148535
0.062046528 -0.49036509 -4.0087538
0.065237522 -0.40592998 -3.984458
0.066586971 -0.37940803 -3.9768853
0.070309162 -0.32076955 -3.9602675
0.070137978 -0.30555961 -3.9557648
0.063323021 -0.22031589 -3.9295363
0.06832552 -0.15780035 -3.9119952
0.076740265 -0.052233368 -3.8823686
0.16430712 0.20562026 -3.8213544
0.1670742 0.27961788 -3.8000574
0.1270299 0.40893605 -3.7552366
0.14492416 0.56267881 -3.7130451
0.15864038 0.66369545 -3.6856549
0.16627073 0.69068909 -3.6790073
0.16958809 0.7034533 -3.6758146
0.19263792 0.79681623 -3.6522567
0.19295645 0.87070549 -3.6305766
0.20903397 0.98225653 -3.6004877
0.20782614 0.9983083 -3.5955615
-0.12578106 1.3079587 -3.4479742
-0.17377758 1.3404932 -3.430275
-0.088847637 1.3171014 -3.4515407
0.2536068 1.1111451 -3.5701256
0.25083971 1.0371476 -3.5914228
0.24807215 0.96315014 -3.61272
0.2406373 0.89934862 -3.6302276
0.23288631 0.81008363 -3.6551714
0.23158932 0.77539742 -3.6651545
0.2071557 0.64503551 -3.6993611
0.20438862 0.57103801 -3.7206583
0.20767164 0.52384317 -3.7350965
0.2156229 0.46645209 -3.7533243
0.21988153 0.34436718 -3.7899561
0.21810341 0.21767715 -3.82692
0.21507597 0.1437057 -3.8481655
0.20580292 0.04300797 -3.8762145
0.19974804 -0.10493487 -3.9187052
0.20296669 -0.15217991 -3.9331472
0.19842529 -0.26313707 -3.9650154
0.19691133 -0.30012274 -3.9756379
0.19539738 -0.33710849 -3.9862609
0.18915224 -0.36383483 -3.9930644
0.15017462 -0.48668635 -4.0225983
0.14733791 -0.68187422 -4.0795312
0.14441204 -0.77920777 -4.1076655
0.14602184 -0.80283028 -4.1148868
0.14763069 -0.82645273 -4.1221075
0.13645267 -0.90288687 -4.1426969
0.12426281 -0.9197346 -4.1455879
0.046702862 -1.0827496 -4.1804008
0.020401955 -1.1609671 -4.1989532
-11.340199 -1.0486324 -2.2416778
-10.94558 -1.2178915 -2.358304
-10.901166 -1.224282 -2.3677065
-10.596111 -1.1768377 -2.4054205
-10.429115 -1.1359774 -2.4216869
-10.267763 -1.1462489 -2.4520378
-10.183863 -1.1416277 -2.4648895
-10.08696 -1.1468395 -2.4828358
-9.9645214 -1.1541744 -2.5057316
-9.768877 -1.1426955 -2.5354929
-9.6073284 -1.1481959 -2.5644734
-9.5684023 -1.1509737 -2.5718837
-9.4455957 -1.1490839 -2.5921285
-9.2896147 -1.1532768 -2.6197815
-9.1276054 -1.147246 -2.6454484
-8.9711628 -1.1399078 -2.6697879
-8.8146286 -1.1302636 -2.6934643
-8.7415142 -1.1137561 -2.7009928
-8.4444332 -1.2871093 -2.8023026
-8.3628378 -1.3156103 -2.8245063
-7.9914865 -1.3826281 -2.9071178
-7.8762894 -1.3880007 -2.92821
-7.7354379 -1.3811693 -2.9500577
-7.5609684 -1.4054353 -2.9867465
-7.5581965 -1.4059932 -2.9873803
-7.2638774 -1.2779026 -2.9995542
-7.2164011 -1.2883132 -3.0106578
-7.0967941 -1.2873763 -3.0306411
-6.9975328 -1.3245652 -3.0583925
-6.930665 -1.360373 -3.0802512
-6.8016386 -1.3059124 -3.086086
-6.75454 -1.2673049 -3.0827074
-6.5612969 -1.1519186 -3.0814984
-6.3991766 -1.1436723 -3.1065323
-6.2543454 -1.1333597 -3.1280301
-6.2096272 -1.1418128 -3.1380908
-6.1262693 -1.1511514 -3.1549566
-6.0813718 -1.1462737 -3.1611266
-5.885478 -1.1276209 -3.1888201
-5.7631989 -1.1396714 -3.2130759
-5.6014471 -1.1406286 -3.2407546
-5.343245 -1.0903459 -3.2696981
-5.2935748 -1.0897256 -3.2779286
-5.1711059 -1.1152387 -3.3061767
-4.8241625 -1.055867 -3.3474772
-4.7445579 -1.0515133 -3.3596799
-11.513338 -0.98216426 -2.1928008
-11.515181 -0.95846558 -2.1855178
-11.435593 -0.86271966 -2.1708353
-11.398394 -0.829579 -2.167388
-11.36383 -0.80116457 -2.1648841
-11.255056 -0.61867249 -2.1296291
-11.258336 -0.73204279 -2.1624207
-10.970524 -1.0277637 -2.2981541
-10.578924 -0.69859785 -2.2676601
-10.576729 -0.64553005 -2.2524226
-10.53705 -0.6299035 -2.2545471
-10.49509 -0.61886227 -2.2584064
-10.379572 -0.5973922 -2.2716572
-10.301645 -0.60074854 -2.2858436
-10.000422 -0.36590278 -2.2677858
-9.6898851 -0.10503441 -2.2436509
-9.6060677 0.05699417 -2.2101882
-9.6038418 0.070176601 -2.2066877
-9.4890461 0.073259354 -2.2252245
-9.3435488 0.032477796 -2.2618642
-9.2971048 0.034656256 -2.2690902
-9.2816668 0.036113799 -2.2712762
-9.2286615 0.037866712 -2.2797384
-9.0767012 -0.14082694 -2.3580389
-9.0417032 -0.21542907 -2.3859103
-9.0586586 -0.28112924 -2.4023638
-9.0644035 -0.33978119 -2.418643
-9.0631771 -0.45244747 -2.4519906
-9.0904942 -0.4931334 -2.4593313
-9.2088356 -0.76086932 -2.5180397
-8.8458214 -1.0670701 -2.6695931
-8.7287674 -1.0684853 -2.6898358
-8.6069317 -1.0820804 -2.7144709
-8.403101 -1.0947453 -2.7527206
-8.2588806 -1.0879805 -2.7751584
-8.224659 -1.0863751 -2.7804828
-8.1167622 -1.109772 -2.8056402
-8.0052757 -1.1098797 -2.8245552
-7.9670877 -1.1311073 -2.8372672
-7.9281096 -1.1589222 -2.8520508
-7.8370543 -1.2110131 -2.8827958
-7.7704349 -1.2294403 -2.8994999
-7.6894598 -1.2364182 -2.9152677
-7.6082954 -1.2256036 -2.9258342
-7.4360065 -1.1110421 -2.9213185
-7.3959799 -1.0861435 -2.9207742
-7.2368984 -0.6252352 -2.8121459
-7.5966101 -0.51460344 -2.7186773
-7.6134524 -0.50958562 -2.7143486
-7.72645 -0.44408792 -2.6759436
-7.7293744 -0.43816349 -2.6737056
-7.6702967 -0.34338519 -2.6558335
-7.6445451 -0.31324998 -2.6513312
-7.6054344 -0.31141546 -2.6574161
-7.3918242 -0.33477083 -2.7004666
-7.2766767 -0.3223168 -2.7163069
-7.0760036 -0.32598588 -2.7513757
-6.9536324 -0.3357355 -2.7749705
-6.7572775 -0.30557841 -2.7993581
-6.7181726 -0.30368856 -2.8054256
-6.6350913 -0.31992984 -2.824275
-6.5174994 -0.30735767 -2.8404946
-6.4344177 -0.32359883 -2.859344
-6.3562999 -0.3221201 -2.8721404
-6.0907359 0.12919706 -2.784369
-6.0805998 0.13889316 -2.7832339
-6.0796509 0.12704501 -2.7868795
-5.8033118 -0.29957712 -2.9591734
-5.7424111 -0.32148317 -2.9759321
-5.2851915 -0.17308341 -3.0097241
-5.2059684 -0.143994 -3.0145862
-5.1356959 -0.21849826 -3.0484037
-4.702013 -0.14855653 -3.1012871
-4.6635265 -0.09950915 -3.093379
-4.5675611 -0.037836999 -3.0914929
-4.4901285 0.061597377 -3.0753603
-4.1388302 0.11057612 -3.1204555
-4.0404248 0.1536727 -3.1244466
-3.9632106 0.13017672 -3.1444364
-3.9239542 0.11890396 -3.1544013
-3.8732691 0.08647415 -3.1725252
-3.8359129 0.065648645 -3.1849782
-3.4859991 0.13401201 -3.2241371
-3.4841423 0.1354169 -3.2240384
-3.4833539 0.13493842 -3.2243125
-3.2514999 -0.28381488 -3.3867571
-3.0893109 -0.26947939 -3.4100118
-2.8445642 -0.27397177 -3.4527876
-2.8048985 -0.26085311 -3.4556475
-2.6735682 -0.26837227 -3.4801035
-2.6694012 -0.33297068 -3.4998107
-2.669359 -0.37316656 -3.511641
-2.8006682 -0.66833544 -3.5762222
-2.8090801 -0.81977159 -3.6193414
-2.4860716 -1.0575619 -3.7439964
-2.4440694 -1.0647224 -3.7532167
-2.3683102 -1.0698124 -3.7675459
-2.321959 -1.072346 -3.7761421
-2.2434196 -1.0642346 -3.7870588
-2.1262283 -1.0682082 -3.8080773
-1.9261086 -1.0815554 -3.8458991
-1.7694707 -1.0768616 -3.8710494
-1.6127453 -1.0698621 -3.8955364
-1.4515424 -1.0780414 -3.9252465
-1.3733559 -1.0791535 -3.9388165
-1.2922602 -1.08687 -3.9548221
-1.2515988 -1.0960003 -3.964395
-1.090836 -1.1157091 -3.9974217
-0.89484119 -1.1046537 -4.0273671
-0.77747345 -1.1040157 -4.0470591
-0.61653471 -1.1191128 -4.0787592
-9.6131458 1.2398874 -1.8610487
-9.5686522 1.2358348 -1.8697771
-9.4566135 1.249534 -1.8847245
-9.3394651 1.2504253 -1.9043045
-9.2502918 1.2469342 -1.9204353
-9.2111816 1.2487689 -1.9265201
-9.1330528 1.2501321 -1.9393525
-9.0939417 1.2519672 -1.9454372
-8.9716873 1.2400508 -1.9696496
-8.8935575 1.2414141 -1.982482
-8.8544464 1.2432489 -1.9885668
-8.7763186 1.2446121 -2.001399
-8.7371159 1.2487538 -2.0068207
-8.6590786 1.2478102 -2.0203161
-8.5809498 1.2491734 -2.0331483
-8.4975281 1.2423425 -2.0492873
-8.4294262 1.2564745 -2.0566657
-8.2730122 1.2436664 -2.086926
-8.2182732 1.2341466 -2.0989978
-8.0965757 1.2258497 -2.1220512
-7.97646 1.2307175 -2.1409643
-7.9370241 1.2318963 -2.1472969
-7.8620968 1.2322459 -2.1598852
-7.7787676 1.2231081 -2.1766872
-7.7369223 1.2318828 -2.1811938
-7.6169415 1.2245606 -2.2036695
-7.5824437 1.2330865 -2.207005
-7.4879808 1.2419467 -2.2203987
-7.3602848 1.2242953 -2.2472196
-7.2144985 1.2481307 -2.2649016
-7.1599569 1.2389829 -2.2768304
-7.0528688 1.2052538 -2.3048899
-7.0333157 1.2061899 -2.3079267
-6.9722095 1.2091153 -2.317416
-6.9254098 1.2205665 -2.3219745
-6.8862128 1.2247456 -2.3273845
-6.7634783 1.2244959 -2.3482463
-6.6852636 1.2282401 -2.3603928
-6.5731726 1.244337 -2.3746438
-6.4950476 1.2457743 -2.3874536
-6.3669019 1.2396581 -2.4109576
-6.2443476 1.2347943 -2.4331462
-6.0878282 1.2445898 -2.4567759
-6.04881 1.244155 -2.4635127
-5.9652739 1.2397258 -2.4789646
-5.7697363 1.2490869 -2.5093307
-5.6473618 1.2396089 -2.5328462
-5.5690565 1.2456602 -2.5443294
-5.4857001 1.2366171 -2.5611081
-5.4071255 1.2495894 -2.5706012
-5.2954841 1.2541513 -2.5881689
-5.2510548 1.2478499 -2.5975478
-5.1676083 1.2411139 -2.6136632
-5.119194 1.2409464 -2.6219127
-5.0801277 1.2402173 -2.6287441
-4.9580045 1.232198 -2.6517878
-4.8844991 1.243498 -2.6609142
-4.7622757 1.237787 -2.683296
-4.6399527 1.2343845 -2.7050157
-4.6007872 1.2359638 -2.7111847
-4.4881158 1.2488433 -2.7264805
-4.3264275 1.2516371 -2.7530451
-4.2920876 1.2613575 -2.7560022
-4.1306992 1.2572261 -2.7845531
-4.0687737 1.2698231 -2.7913365
-3.8908789 1.258562 -2.8247805
-3.8469868 1.2496921 -2.8348236
-3.7685554 1.2551595 -2.8464999
-3.6855979 1.2455608 -2.8633747
-3.5289352 1.2518785 -2.8880515
-3.367646 1.2454387 -2.9172645
-3.2321155 1.2716439 -2.9325123
-3.0932868 1.2611119 -2.9591246
-3.0494945 1.2499335 -2.96983
-2.8322344 1.273833 -2.9995992
-2.8080058 1.2679783 -3.0054252
-2.7748356 1.272532 -3.0097041
-2.6510227 1.2818446 -3.027936
-2.5679936 1.2751129 -3.0439792
-2.5288129 1.2768451 -3.050106
-2.3329082 1.2855062 -3.0807405
-2.2591274 1.3014792 -3.0885389
-2.2197735 1.3078363 -3.0933347
-2.1024904 1.3060958 -3.1137118
-2.0637417 1.2962657 -3.1231663
-2.01998 1.2854896 -3.1337483
-1.9709458 1.280704 -3.1434612
-1.8927569 1.2795436 -3.1570461
-1.7750411 1.2893652 -3.1740956
-1.6454849 1.2846905 -3.1974146
-1.573245 1.2878844 -3.2087109
-1.4617672 1.2985981 -3.2244415
-1.2806125 1.3008219 -3.2544708
-1.2170877 1.2955365 -3.2667851
-1.1002369 1.2822338 -3.2904902
-1.0563021 1.2760824 -3.299741
-0.93875933 1.2812791 -3.3181214
-0.82104349 1.2911005 -3.335171
-0.74250841 1.2991898 -3.3460937
-0.70023823 1.2991744 -3.3532579
-0.61977959 1.3080649 -3.3642707
-0.54141855 1.3115294 -3.3765242
-0.50716448 1.3165205 -3.3808582
-4.4330163 1.313483 -2.7167997
-4.5945053 1.3153061 -2.6889107
-4.6730361 1.3075302 -2.6778967
-4.7904334 1.3051001 -2.6587269
-4.9129562 1.3038859 -2.6383314
-4.9909878 1.3076522 -2.6240067
-5.1088843 1.2936802 -2.6081476
-5.2045898 1.3052486 -2.5885344
-5.2701735 1.3001201 -2.5789344
-5.309339 1.2985406 -2.5727654
-5.4393249 1.2917087 -2.5527582
-5.4837542 1.2980099 -2.5433795
-5.640274 1.2882141 -2.5197499
-5.6845236 1.2991294 -2.5090442
-5.8014865 1.3027411 -2.4881711
-5.9239507 1.309912 -2.4653192
-6.0410032 1.3112165 -2.4451091
-6.1130872 1.320062 -2.4302979
-6.157517 1.3263632 -2.4209189
-6.2798915 1.3358412 -2.3974037
-6.3973036 1.3279177 -2.3798473
-6.5197678 1.3350887 -2.3569953
-6.5588751 1.3332164 -2.3509221
-6.6370907 1.3294722 -2.3387754
-6.7160244 1.3072717 -2.3319359
-6.7507792 1.2991471 -2.328439
-6.8619914 1.2788222 -2.3155806
-6.9564409 1.2926769 -2.2955077
-6.9897771 1.2941666 -2.2894232
-7.0793548 1.2883128 -2.2759726
-7.1573896 1.2891825 -2.2624993
-7.2353349 1.2923592 -2.2483628
-7.3578892 1.2972231 -2.2261741
-7.4361944 1.2911719 -2.2146909
-7.5138698 1.3012697 -2.1985641
-7.5582991 1.3075708 -2.1891854
-7.6138649 1.3091294 -2.1793153
-7.7705832 1.2948692 -2.1569653
-7.85252 1.3036885 -2.1404929
-7.9318571 1.3072573 -2.1260052
-8.0098019 1.3105077 -2.1118469
-8.0881147 1.3045311 -2.1003406
-8.2104626 1.3141404 -2.076791
-8.3282537 1.2971017 -2.0618515
-8.4350929 1.2729018 -2.0508738
-8.5133133 1.2692318 -2.0387044
-8.5521479 1.2743171 -2.0306311
-8.6693878 1.271119 -2.0117137
-8.8361378 1.2870878 -1.978773
-8.9091587 1.2729169 -1.9705732
-8.9872875 1.2715538 -1.9577408
-9.0704327 1.2853049 -1.939613
-9.1096354 1.2811631 -1.9341912
-9.3051872 1.2719884 -1.9037678
-9.383316 1.2706252 -1.8909354
-9.4613533 1.2715689 -1.8774402
-9.6569977 1.2600873 -1.8476796
-9.7299261 1.2482231 -1.8388169
-2.2411509 1.3415751 -3.0797899
-2.157423 1.3387754 -3.094795
-2.0721831 1.3490453 -3.1062119
-1.9270053 1.3593647 -3.1277664
-1.8077121 1.3607379 -3.147568
-1.6807485 1.3478547 -3.1728623
-1.641654 1.3472745 -3.1796548
-1.5286922 1.3649799 -3.1935799
-1.3281202 1.3634448 -3.228004
-1.2901044 1.362492 -3.2347233
-1.2057376 1.3630702 -3.2488432
-1.0834408 1.3603833 -3.2703478
-1.0441737 1.3644279 -3.275809
-1.0098329 1.3717313 -3.2794774
-0.93155718 1.3728834 -3.2923965
-0.85293627 1.3832852 -3.3026538
-0.73072624 1.3782858 -3.3248239
-0.65219164 1.386375 -3.3357465
-0.61335659 1.3788576 -3.3445354
-0.52116585 1.3471087 -3.3694892
-9.8917522 1.2467705 -1.8118346
-9.9059582 1.2576163 -1.8062379
-9.7747889 1.2430483 -1.8327403
-9.8139915 1.2389066 -1.8273185
-9.8528261 1.243992 -1.819245
-11.249006 -0.19097216 -2.0048485
-11.209501 -0.16249907 -2.0031645
-11.208271 -0.19246465 -2.012187
-2.3216445 1.3507276 -3.0634637
-2.4000928 1.3449506 -3.0518756
-2.4737873 1.33129 -3.0434115
-2.5519764 1.3324504 -3.0298269
-2.6349189 1.3414946 -3.013118
-2.6496408 1.3443204 -3.0097933
-2.6789401 1.3453337 -3.0045326
-2.8028934 1.3421535 -2.984473
-2.9253163 1.3432478 -2.9634154
-3.0037477 1.3377804 -2.9517391
-3.0823784 1.3276961 -2.9413869
-3.1214442 1.328425 -2.9345558
-3.2436676 1.334136 -2.912174
-3.3168733 1.3297614 -2.9010613
-3.3565297 1.3317964 -2.8937457
-3.4811161 1.3427322 -2.869427
-3.5182142 1.3365811 -2.8649526
-3.6009848 1.3280616 -2.8534391
-3.7576473 1.3217437 -2.8287623
-3.8752441 1.3146969 -2.8109169
-3.997767 1.3134825 -2.7905214
-4.0714722 1.2975658 -2.7827191
-4.1055121 1.2947707 -2.7777758
-4.1498032 1.2944068 -2.7703807
-4.2375875 1.3121465 -2.7502942
-3.7110898 -0.72026384 -3.4372914
-4.0936604 -0.39182279 -3.2758837
-4.1438217 -0.961025 -3.4348147
-4.0979128 -0.97300684 -3.446115
-3.9087286 -0.94926572 -3.4711752
0 0 0 1 0 0 0 1 0 0 0 1 0 0 0 0 0 488 1 0 0
