ply
format ascii 1.0
comment PCL generated
element vertex 624
property float x
property float y
property float z
element camera 1
property float view_px
property float view_py
property float view_pz
property float x_axisx
property float x_axisy
property float x_axisz
property float y_axisx
property float y_axisy
property float y_axisz
property float z_axisx
property float z_axisy
property float z_axisz
property float focal
property float scalex
property float scaley
property float centerx
property float centery
property int viewportx
property int viewporty
property float k1
property float k2
end_header
0.21622658 1.344237 -1.1826738
0.23783541 1.3316391 -1.1887057
0.21768904 1.0989671 -1.1952932
0.19085217 0.86614329 -1.2002156
0.18696642 0.76721287 -1.2041867
0.17852974 0.72945237 -1.2039638
0.17751074 0.60977691 -1.2096881
0.17278576 0.59102976 -1.2094433
0.16907263 0.5720163 -1.209465
0.16069889 0.46765399 -1.2125853
0.1617918 0.36094648 -1.2181897
0.1496253 0.21570562 -1.2224041
0.14763212 0.18725668 -1.2233272
0.14272928 0.13290255 -1.2248169
0.14245844 0.092990741 -1.2267432
0.13843632 -0.23186727 -1.2419676
0.10693645 -0.32962066 -1.2389759
0.082905769 -0.66673684 -1.2498103
0.0733881 -0.87322354 -1.2577468
0.050683975 -1.073107 -1.2620567
0.03054285 -1.0726055 -1.2569962
-0.011959076 -1.0722133 -1.2463504
-0.016703129 -1.0722852 -1.2451679
-0.14202309 -1.0754867 -1.2139959
-0.18797541 -1.0618682 -1.2018269
-0.19603777 -1.0576513 -1.1996006
-0.5647769 -1.0534279 -1.1071992
-0.15650702 -0.82508737 -1.1978648
-0.17708778 -0.64950532 -1.1839472
-0.18151426 -0.63107514 -1.1819198
-0.1763773 -0.5447368 -1.1788906
-0.19136858 -0.36917228 -1.1663712
-0.19527292 -0.3483552 -1.164355
-0.19220686 -0.26906979 -1.1611606
-0.55205679 0.045503482 -1.0554765
-0.6886549 -0.029569805 -1.0250757
-0.70051622 -0.029749662 -1.0221192
-0.82226658 -0.028660327 -0.99162543
-0.84240723 -0.028143823 -0.98656404
-0.84811401 -0.026351646 -0.98504782
-0.85382128 -0.024559498 -0.98353136
-0.84187222 -0.011907637 -0.98588669
-0.61925793 0.13674311 -1.0341169
-0.59682322 0.15266354 -1.0389305
-0.53233576 0.21599473 -1.0518893
-0.5179491 0.21562578 -1.0555046
-0.20988035 0.31135613 -1.1277437
-0.1429019 0.42987365 -1.1385682
-0.12990475 0.51203662 -1.1377127
-0.12465239 0.81992263 -1.1236439
-0.065722466 0.93824404 -1.1324658
-0.4726758 1.3169981 -1.0117989
-0.14980984 1.3253551 -1.0921025
-0.098070621 1.3478929 -1.1039122
-0.060075283 1.3534716 -1.113133
0.023927689 1.3525248 -1.1341822
0.078033447 1.3438679 -1.1481419
0.12408352 1.3423285 -1.159732
0.18199396 1.3409746 -1.1742781
-6.7124228 -1.0853686 0.42820758
-6.5988731 -1.0830642 0.39993358
-6.4348106 -1.1499424 0.35557434
-6.3256044 -1.1667234 0.32743272
-6.2791834 -1.1676925 0.31577832
-6.249897 -1.1626928 0.30870616
-6.0813627 -1.1655893 0.26642528
-5.9263978 -1.1547995 0.22822091
-5.6394444 -1.212237 0.15360864
-5.6016874 -1.2438941 0.14258733
-5.5553885 -1.2872654 0.12884498
-5.5175672 -1.2964743 0.11892906
-5.3660889 -1.2659651 0.082581535
-5.2903676 -1.2569462 0.06410066
-5.2202902 -1.2574353 0.046555802
-5.1768107 -1.2521476 0.035949469
-5.0246272 -1.2542509 -0.0022037998
-4.9936318 -1.2544727 -0.0099640787
-4.9579973 -1.2282821 -0.017564774
-4.8350019 -1.1805496 -0.045930691
-4.5658412 -1.2493497 -0.11666214
-4.3847232 -1.1780388 -0.1583817
-4.3586307 -1.1776317 -0.16488484
-4.263855 -1.1886173 -0.18912905
-4.2259874 -1.1979982 -0.19906521
-4.0959339 -1.2004842 -0.23170465
-3.9790213 -1.2569845 -0.26375729
-3.677762 -1.1610813 -0.3342852
-3.6489809 -1.1620432 -0.34152901
-3.631712 -1.1626204 -0.34587529
-3.6181443 -1.1615621 -0.34921455
-3.4964278 -1.1464926 -0.37889263
-3.3906672 -1.1425847 -0.40513912
-3.3147621 -1.1414001 -0.42405733
-3.2606139 -1.1450707 -0.43777856
-3.1983683 -1.1508723 -0.45363078
-3.1522965 -1.1499183 -0.46510169
-3.0764127 -1.151227 -0.48413917
-3.0303621 -1.1527661 -0.49572936
-2.9463589 -1.153713 -0.51677871
-2.9246016 -1.1488581 -0.52197576
-2.7808886 -1.144358 -0.55768138
-2.7565956 -1.1507521 -0.5640744
-2.6725929 -1.1516988 -0.58512366
-2.6037202 -1.146634 -0.60208976
-2.4665875 -1.1522962 -0.63665783
-2.4590135 -1.1539425 -0.63863373
-2.2944221 -1.1344291 -0.67880911
-2.2701852 -1.1396977 -0.68513197
-2.2185078 -1.133278 -0.69773132
-2.1320765 -1.1432396 -0.71983814
-2.1021984 -1.1409078 -0.72719163
-2.0723202 -1.1385761 -0.73454511
-1.9964058 -1.1374251 -0.75346726
-1.9584489 -1.1368495 -0.76292831
-1.8445776 -1.1351228 -0.79131162
-1.8122613 -1.1421474 -0.7997421
-1.736347 -1.1409963 -0.81866431
-1.6224756 -1.1392696 -0.84704757
-1.5546403 -1.1363623 -0.86386216
-1.4787259 -1.1352113 -0.88278437
-1.4189696 -1.1305478 -0.89749134
-1.3648546 -1.1334846 -0.91116762
-1.3188183 -1.1346653 -0.92273629
-1.264703 -1.1376021 -0.93641269
-1.2186666 -1.1387826 -0.94798148
-1.1887712 -1.1339564 -0.95521462
-1.0967164 -1.1388121 -0.97847235
-1.0207849 -1.1351666 -0.99727416
-0.86038971 -1.0647774 -1.0338587
-0.63264704 -1.0613241 -1.0906252
-6.6452727 -1.0746123 0.41195646
-6.5902662 -1.0723304 0.39831799
-6.4852877 -1.0682886 0.37227377
-6.381381 -1.0640298 0.34650829
-6.3717384 -1.0659842 0.3439998
-6.3046384 -1.0726877 0.32688892
-6.2874889 -1.0736682 0.32255229
-6.2117743 -1.0671434 0.30394858
-5.9918904 -0.58938521 0.27284318
-5.9989581 -0.57955223 0.27510154
-6.2098727 -0.40616864 0.33649558
-6.2648578 -0.40096781 0.35050243
-6.3319936 -0.4067356 0.36699924
-6.3405647 -0.4049983 0.36922899
-6.6348286 -0.42535174 0.44178236
-6.7569132 -0.41344756 0.47290009
-6.5726953 -0.10910322 0.44204801
-6.4592609 -0.14670679 0.411809
-6.422061 -0.185738 0.40055856
-6.1718359 -0.34055015 0.33026418
-6.0375791 -0.33400303 0.297025
-6.0290008 -0.33324611 0.29491812
-5.9447083 -0.32596448 0.27420759
-5.924015 -0.32671016 0.26899669
-5.8861656 -0.32594207 0.25957206
-5.8042889 -0.33616817 0.23859087
-5.7726517 -0.33610892 0.23068401
-5.7348089 -0.33783507 0.2211366
-5.7262378 -0.3395724 0.21890682
-5.6927738 -0.37285507 0.20887756
-5.2676864 -0.56678617 0.092910498
-5.2140613 -0.56968176 0.079358794
-5.1593761 -0.57150942 0.065595411
-5.1332145 -0.60647243 0.057307847
-5.1216936 -0.6461792 0.052443743
-4.9050689 -1.066123 -0.022696175
-4.7290077 -1.0751345 -0.067164324
-4.707293 -1.0752662 -0.07259991
-4.5898261 -1.045776 -0.10049497
-4.5693932 -1.0498315 -0.10580613
-4.5093679 -1.0669568 -0.12166893
-4.4253864 -1.0703969 -0.14283744
-4.1486902 -0.7243157 -0.19472528
-4.1497412 -0.68670326 -0.19258335
-4.1694608 -0.45220706 -0.17593774
-4.2429571 -0.33143663 -0.15152887
-4.213017 -0.31874016 -0.15838003
-4.1967793 -0.31801629 -0.16240355
-4.1362152 -0.32977104 -0.17813277
-4.058692 -0.33011332 -0.19753176
-3.9556158 -0.33240935 -0.22341704
-3.8307424 -0.29913449 -0.25297484
-3.6407619 -0.080745474 -0.28956205
-3.6146626 0.039603576 -0.29007456
-3.3572035 -0.31987321 -0.37240267
-3.2860422 -0.31876281 -0.39013863
-3.2613401 -0.32063502 -0.39640805
-3.1938987 -0.31685454 -0.41308048
-3.1397295 -0.31803173 -0.42668238
-3.0719008 -0.31222272 -0.44335034
-2.9798427 -0.32028744 -0.46676919
-2.9525604 -0.32188433 -0.47366992
-2.9419322 -0.3246817 -0.47646686
-2.9176393 -0.33107564 -0.48285988
-2.8799837 -0.36538878 -0.49398866
-2.9480035 -0.39363688 -0.47839394
-3.0050271 -0.41860956 -0.46538487
-3.2029691 -0.6945067 -0.42968032
-2.9262457 -1.0328934 -0.51577109
-2.8114064 -1.036867 -0.54468113
-2.7435188 -1.0264765 -0.56113493
-2.7354398 -1.0282327 -0.56324255
-2.6175811 -1.0348673 -0.59304041
-2.5756018 -1.0376643 -0.6036756
-2.4917302 -1.0557301 -0.62554735
-2.3398669 -1.048439 -0.66315114
-2.2777073 -1.058121 -0.67917567
-2.1880558 -1.0486312 -0.70111585
-2.1420372 -1.0523062 -0.71280479
-2.0281482 -1.0480851 -0.74106783
-1.8682406 -1.0475391 -0.78101981
-1.8440034 -1.0528077 -0.78734267
-1.6703758 -1.0464175 -0.83043289
-1.5783556 -1.0562619 -0.85393113
-1.540381 -1.0531919 -0.86327195
-1.5024238 -1.0526164 -0.87273306
-1.4345884 -1.049709 -0.88954765
-1.3885527 -1.0508896 -0.90111625
-1.2746983 -1.0516574 -0.92961991
-1.2286625 -1.0528381 -0.94118857
-1.1745467 -1.0557749 -0.95486498
-1.1446686 -1.0534431 -0.96221852
-1.0905538 -1.0563799 -0.97589481
-1.0687718 -1.0547863 -0.9812609
-1.0606928 -1.0565426 -0.98336852
-0.91692543 -1.0499897 -1.018985
-0.8708725 -1.0486759 -1.0304334
-0.66491127 -1.0468161 -1.0818338
-0.59707594 -1.0439088 -1.0986484
-10.884097 0.96104354 1.5734271
-11.06601 0.71810663 1.6067706
-11.062603 0.67826486 1.6039284
-11.020145 0.63917321 1.5913607
-10.769716 0.40079784 1.5168403
-10.761508 0.3192699 1.5107149
-10.757061 0.23954104 1.50562
-10.768211 0.16138376 1.5045029
-10.875847 -0.024490371 1.5221268
-10.843247 -0.21990223 1.5042139
-10.838551 -0.24830714 1.5016203
-10.838837 -0.32563168 1.4978287
-10.860777 -0.50064468 1.4945706
-10.852127 -0.6083892 1.487025
-10.84194 -0.66367584 1.481716
-10.771495 -0.86503327 1.4540437
-10.769124 -0.94538945 1.4494364
-10.73486 -1.0264276 1.4368213
-10.723113 -1.0486494 1.4327741
-10.683161 -1.0958304 1.4204284
-10.638205 -1.0949664 1.4092315
-10.269176 -1.1396925 1.3147343
-10.227598 -1.1363485 1.3045064
-10.205696 -1.1366403 1.2990162
-10.176378 -1.1366876 1.2916837
-10.10733 -1.1322049 1.274645
-10.20731 -1.1329491 1.2996041
-10.268094 -1.1290556 1.3149955
-10.566738 -0.86451209 1.4028777
-10.633209 -0.52248579 1.436584
-10.602219 -0.45953614 1.4319807
-10.612089 -0.43101746 1.4358735
-10.616299 -0.41519168 1.4377165
-10.620518 -0.40186027 1.4394375
-10.575754 0.015967086 1.4491208
-10.575573 0.032029793 1.449878
-10.576626 0.034737691 1.4502765
-10.622244 0.24275111 1.472074
-10.623254 0.55248004 1.4878006
-10.662498 0.60239297 1.5001059
-10.851934 0.95979005 1.5653234
-10.740376 1.1584278 1.5473559
-10.631862 1.2240366 1.5235038
-10.607706 1.2382175 1.5181729
-10.480207 1.2793275 1.4883503
-10.155693 1.2649792 1.4065001
-10.109322 1.2664928 1.394982
-10.071472 1.2622315 1.3853064
-10.022413 1.2612511 1.3729918
-9.9872532 1.2594837 1.3641129
-9.9285297 1.2593657 1.3494256
-9.8539448 1.25317 1.3304687
-9.7782469 1.2496357 1.3113663
-9.6939116 1.2717849 1.2913878
-9.6144447 1.2834734 1.272104
-9.5424271 1.2871644 1.2542828
-9.5253572 1.2861521 1.2499646
-9.4875174 1.2818907 1.2402912
-9.3995419 1.2868375 1.2185431
-9.3446217 1.2840581 1.2046734
-9.3067627 1.2847852 1.1952444
-9.2310448 1.2862394 1.1763864
-9.1174679 1.2884206 1.1480994
-9.0796185 1.2866534 1.1385484
-9.0039291 1.2806247 1.1193238
-8.931941 1.2768331 1.101136
-8.8940716 1.2800543 1.0918291
-8.7804852 1.2847298 1.0636644
-8.759716 1.2814807 1.0583094
-8.7341156 1.2787151 1.0517708
-8.6498871 1.2734275 1.0304482
-8.6120272 1.2741545 1.0210192
-8.5704403 1.2801275 1.0109202
-8.4899111 1.2770768 0.99063426
-8.4398222 1.2738137 0.97794831
-8.4141932 1.2785311 0.97177625
-8.3347559 1.2827368 0.95212597
-8.2798176 1.2849458 0.938501
-8.1539917 1.2881255 0.90720153
-8.0905418 1.2835927 0.89111173
-7.976965 1.285774 0.86282474
-7.9097872 1.2864872 0.84606493
-7.7791796 1.2776791 0.81297094
-7.7413206 1.278406 0.8035419
-7.7914476 1.2716922 0.81573904
-7.8378463 1.2702242 0.8272661
-7.9135547 1.2712642 0.84624624
-7.9514041 1.2730315 0.85579741
-8.0271215 1.2715774 0.87465531
-8.0649805 1.2708502 0.88408428
-8.1406879 1.2718903 0.90306437
-8.2164068 1.2704362 0.92192239
-8.2542458 1.2746975 0.93159568
-8.2920961 1.2764647 0.94114697
-3.4240558 1.2994757 -0.27478558
-3.241626 1.3943245 -0.31565708
-3.2335072 1.3946865 -0.31766883
-3.2036519 1.39741 -0.32499704
-2.9860508 1.4142108 -0.37856111
-2.9731667 1.41714 -0.38163602
-2.7404363 1.428764 -0.43924132
-2.6943827 1.4301126 -0.45068803
-2.4955411 1.4222455 -0.50079435
-2.4529212 1.4393145 -0.51059723
-2.3907256 1.4347237 -0.52637637
-2.1713667 1.3950038 -0.58320379
-2.0631342 1.3854445 -0.61074108
-1.9034636 1.3549274 -0.6521858
-1.8598838 1.3604751 -0.66280419
-1.8517876 1.3612472 -0.6647898
-1.7013216 1.3863262 -0.70115554
-1.5615788 1.4000269 -0.73540884
-1.4557867 1.4034785 -0.76168603
-1.425926 1.4032828 -0.7691614
-1.3717933 1.4029089 -0.78271407
-1.3176601 1.402535 -0.79626685
-1.1923099 1.3818322 -0.82864058
-0.93874836 1.3110139 -0.89557278
-1.0445576 1.3050679 -0.869416
-1.0825486 1.2995025 -0.8601957
-1.1204715 1.3039151 -0.85049403
-1.1503329 1.3041109 -0.84301847
-1.1665082 1.305061 -0.83892679
-1.2642207 1.2998871 -0.8147558
-1.3264329 1.3019832 -0.79909706
-1.3724864 1.3006349 -0.78765041
-1.4291785 1.3003803 -0.77348924
-1.4701483 1.3029443 -0.76311809
-1.4843044 1.3034638 -0.7595529
-1.5323606 1.3050405 -0.74745935
-1.5682979 1.3040335 -0.73852479
-1.6381357 1.3040835 -0.72106183
-1.6624076 1.3042616 -0.7149846
-1.7682168 1.2983155 -0.68882781
-1.7980945 1.2960168 -0.68147278
-1.8502519 1.3002132 -0.66822302
-1.8602898 1.3006074 -0.66569364
-1.9063265 1.3017534 -0.65412658
-1.9660649 1.2996503 -0.63929611
-1.9822407 1.3006006 -0.63520449
-2.1097972 1.2981169 -0.60343754
-2.1639132 1.3009852 -0.58976448
-2.1937737 1.301181 -0.5822891
-2.3076284 1.3019463 -0.5537855
-2.4375911 1.3136398 -0.52070874
-2.4755483 1.3130633 -0.51124769
-2.5353036 1.3084658 -0.49653766
-2.6112349 1.3048185 -0.47773591
-2.6760414 1.3030577 -0.46162131
-2.7140365 1.2974792 -0.45240065
-2.7980394 1.298426 -0.43135145
-2.8116412 1.2978802 -0.42797801
-2.8233988 1.2970892 -0.42507794
-2.8854809 1.2916052 -0.40983048
-2.898344 1.2911693 -0.40663633
-2.9363179 1.2880839 -0.39729646
-2.9929488 1.286824 -0.38320079
-3.0881073 1.2882082 -0.35934061
-3.1179624 1.2854848 -0.35201246
-3.1639915 1.289517 -0.34030303
-3.2019229 1.2914181 -0.33072466
-3.2697308 1.2881024 -0.31393734
-3.4377367 1.2899961 -0.27183875
-3.5298374 1.2930744 -0.24865842
-3.5596714 1.2928442 -0.241211
-3.6057217 1.2943832 -0.22962084
-3.6274366 1.2945148 -0.2241852
-3.651772 1.2959224 -0.21803069
-3.7276564 1.2972311 -0.19899312
-3.8334165 1.2933232 -0.17274672
-3.8875644 1.2969937 -0.15902555
-3.9092793 1.2971253 -0.1535899
-3.9553723 1.2936779 -0.14223826
-4.0312562 1.2949867 -0.12320074
-4.1016212 1.3004265 -0.10533672
-4.1856241 1.3013735 -0.084287398
-4.3432093 1.2649548 -0.046708293
-4.4217777 1.2600597 -0.027309604
-4.4597301 1.2594676 -0.017850503
-4.5599284 1.2646769 0.0074608102
-4.5978813 1.2640848 0.016920052
-4.6277575 1.258868 0.024128877
-4.8389812 1.2859576 0.078291312
-4.8713078 1.3019626 0.087173171
-4.9173369 1.3059949 0.098882571
-4.9988256 1.2931998 0.11861663
-5.1151981 1.3051651 0.14830934
-5.153151 1.3045729 0.15776846
-5.2290773 1.3008953 0.17656749
-5.2763648 1.2932569 0.1880084
-5.3056383 1.2907624 0.1952026
-5.3866658 1.2904096 0.2154431
-5.4277606 1.290168 0.2257053
-5.4363427 1.2893959 0.22781241
-5.5413141 1.2853574 0.25385508
-5.5791769 1.2795966 0.26303342
-5.587759 1.2788246 0.26514053
-5.666997 1.2721133 0.28461593
-5.5741477 1.2702131 0.26130733
-5.4691768 1.2742519 0.23526478
-5.3848968 1.2765683 0.21430922
-5.3529367 1.2810189 0.20654109
-5.2506452 1.2855959 0.18119542
-5.195652 1.2804292 0.16718814
-5.1344833 1.2815818 0.15195273
-5.1028032 1.2785292 0.14387964
-5.0206256 1.2833585 0.12357527
-4.9874382 1.2813834 0.11517932
-4.9816818 1.281191 0.11373054
-4.953248 1.2796592 0.1065451
-4.7771387 1.2327843 0.060173232
-4.7143283 1.2449118 0.04507564
-4.6303253 1.2439649 0.024026312
-4.5413036 1.2366993 0.0014066175
-4.427382 1.2459558 -0.026613064
-4.3296342 1.2619679 -0.050251462
-4.307898 1.2643296 -0.055567779
-4.2618265 1.2652837 -0.067038707
-4.2374697 1.2663693 -0.07307405
-4.190268 1.2825339 -0.084067561
-5.9783502 1.2726467 0.36248553
-5.8940773 1.2724688 0.34140712
-5.856235 1.2707467 0.33185998
-5.8269615 1.2732412 0.32466576
-5.7512703 1.2722912 0.30569434
-5.7305794 1.2740135 0.30060738
-5.7770038 1.2749635 0.31226161
-5.8441124 1.2766855 0.32912579
-5.9283791 1.2793577 0.35032731
-10.562735 1.3625451 1.5131408
-10.557228 1.3630018 1.5117868
-10.554042 1.3623612 1.5109583
-10.518974 1.3237123 1.5002599
-10.147152 1.2757431 1.4049025
-10.056495 1.2782412 1.3823615
-10.000328 1.2804368 1.3684287
-9.9641972 1.2827566 1.3595115
-9.9028969 1.2941514 1.3447547
-9.8916492 1.2923509 1.3418528
-9.7658911 1.2780708 1.3096979
-9.6853132 1.2874913 1.2900229
-9.6245661 1.290058 1.2749634
-9.5973282 1.2949325 1.268397
-9.5680084 1.2949185 1.261066
-9.5008202 1.2981259 1.2444282
-9.4640274 1.2990721 1.2352768
-9.4166012 1.2903441 1.2229835
-9.3702126 1.2893178 1.2113342
-9.3030348 1.290031 1.1945745
-9.248105 1.2897458 1.180827
-9.1345282 1.2919271 1.15254
-9.0355568 1.2955587 1.1279773
-9.0284586 1.2956951 1.1262094
-8.9783001 1.285342 1.1131518
-8.8988733 1.2870535 1.0933793
-8.7852964 1.2892348 1.0650923
-8.7511559 1.2872102 1.0564556
-8.7010584 1.2864414 1.043892
-8.6631899 1.2896628 1.0345854
-8.5874815 1.2886226 1.0156051
-8.515501 1.2823366 0.99729502
-8.4482937 1.2905327 0.98090166
-8.3848553 1.2835054 0.96468979
-7.7370563 -1.2282659 0.67724198
-7.8423519 -1.2746689 0.70124906
-7.8614483 -1.2765661 0.70592874
-7.8645811 -1.2769794 0.70669127
-7.9237356 -1.2781162 0.7214241
-8.1340675 -1.3117062 0.77233207
-8.1713943 -1.3125411 0.78162247
-8.2306137 -1.3126198 0.79642445
-8.2849703 -1.3147237 0.80990905
-8.3929462 -1.3138559 0.8369481
-8.4753304 -1.3181465 0.8573311
-8.5201216 -1.3174769 0.86856288
-8.5940971 -1.2877026 0.88854527
-8.6775169 -1.2077267 0.91339719
-8.8312311 -1.1053373 0.95694333
-8.9495926 -1.0957007 0.98701698
-8.9752026 -1.0955311 0.99342841
-9.0839672 -1.1020498 1.0202953
-9.1596479 -1.0935274 1.0396425
-9.273243 -1.1006986 1.0676847
-9.3132067 -1.0935134 1.0780351
-9.6002264 -1.1341093 1.1477662
-9.6743412 -1.1275293 1.1666245
-9.7116699 -1.1296114 1.1758535
-9.7996225 -1.1282222 1.1979123
-9.8857641 -1.1342591 1.2191474
-9.9510689 -1.1336266 1.2355059
-9.9596081 -1.1344014 1.2376022
-9.997467 -1.135129 1.2470313
-10.031607 -1.13324 1.2556612
-10.054252 -1.131236 1.2614228
-6.2183075 1.270597 0.42237589
-6.3068891 1.264153 0.44420069
-6.3479333 1.2715095 0.45482996
-10.640152 1.2831151 1.528528
-10.707603 1.2200875 1.542243
-10.723272 1.2017043 1.545242
-10.79213 1.1380267 1.559276
-10.890766 1.0806369 1.5810694
-3.6001596 1.3035007 -0.23055592
-3.6841626 1.3044475 -0.20950666
-3.7220516 1.3113351 -0.19968972
-3.7978933 1.3176304 -0.18041366
-3.8358035 1.3220247 -0.17071599
-3.949789 1.3052886 -0.1430541
-3.9877415 1.3046963 -0.13359493
-9.6873884 -0.33447421 1.2095078
-9.7294569 -0.45782745 1.2138629
-9.711256 -0.72905493 1.1957618
-9.9715099 -1.1277075 1.2409123
-10.028679 -1.1271622 1.2552326
-10.04866 -1.1273067 1.260221
-10.067613 -1.1301692 1.2648165
-9.0524712 -0.6518845 1.0349113
-9.0573521 -0.69188488 1.034133
-9.059288 -0.80034161 1.0291985
-9.0504065 -0.84572768 1.0247107
-8.7603159 -1.0970517 0.93962759
-8.6675835 -1.1115073 0.9157207
-8.5833445 -1.1142662 0.89452195
-8.5625648 -1.1150882 0.88928568
-8.4357567 -1.1488934 0.85589278
-8.348752 -1.1590892 0.8336311
-8.2758083 -1.1526912 0.8157137
-8.2379856 -1.1619412 0.80579543
-8.0251865 -1.2002527 0.75067824
-7.9256592 -1.1584334 0.72788429
-7.867918 -1.1504521 0.71384698
-7.7613106 -1.1134852 0.68904042
-7.7248468 -1.1009244 0.68055141
-7.6387124 -1.089875 0.65956861
-7.5922952 -1.0833727 0.64828843
-7.5440283 -1.0806015 0.63635933
-7.5269756 -1.0865346 0.63179958
-7.3187523 -1.0800179 0.58006632
-7.4036427 -1.2518723 0.59270418
-7.441483 -1.2476062 0.60237801
-7.4793415 -1.2483287 0.61180717
-9.6616802 -0.29501528 1.2050518
-9.5557175 -0.056364492 1.1904825
-9.5484095 0.15178414 1.1990547
-9.5174065 0.18219922 1.1928229
-9.4832745 0.17768039 1.1840639
-9.4630127 0.17576168 1.1789023
-9.3276434 0.17452724 1.1449962
-9.2902622 0.1840675 1.1361268
-9.2731819 0.18554945 1.1319306
-9.2523937 0.18728881 1.1268201
-9.235323 0.18627651 1.1225017
-9.2145433 0.18552168 1.1172688
-9.1766853 0.1862487 1.1078399
-9.1302862 0.1877168 1.0963129
-9.1004896 0.17888974 1.0884222
-9.0983372 0.15666629 1.0867738
-9.1031618 -0.0068195462 1.0798123
-8.9642391 -0.32716942 1.0290748
-8.9703531 -0.36848831 1.0285391
-9.0521755 -0.57206565 1.0388253
-6.0419464 1.2695583 0.37823114
-6.0626373 1.2678359 0.38331813
-6.0919108 1.2653415 0.39051232
-6.0333505 1.275319 0.37636983
-6.1383018 1.2787631 0.40278128
-6.176137 1.2829792 0.41245127
-7.3641558 -0.38527805 0.62612718
-7.3162041 -0.39655587 0.61357516
-7.1836615 -0.38404918 0.58106226
-7.2489614 -0.37844086 0.59766841
-7.2986698 -0.38437808 0.60979962
-7.3225651 -0.38530073 0.61572778
-7.3341627 -0.38505548 0.61863959
-0.78688574 1.3183085 -0.93317628
-0.87653589 1.3089178 -0.91123152
-7.526454 1.2717932 0.74949181
-7.5542517 1.2712086 0.75641233
-7.6214385 1.2680341 0.77305144
-7.6299686 1.2697536 0.7752701
-0.51065016 1.3139272 -1.0024582
-0.57287884 1.3135289 -0.98691988
-0.61893225 1.3121804 -0.97547328
-0.73273611 1.3204292 -0.94660854
-0.77877283 1.321575 -0.93504143
-0.87087965 1.3188781 -0.91214812
-0.89262772 1.3223404 -0.90653777
-0.58897018 1.3269516 -0.98222625
-0.67049026 1.3233219 -0.96202636
-7.5163736 1.2769247 0.74722791
-7.5520353 1.2795472 0.75627488
-7.6192226 1.27634 0.7729125
-7.6555424 1.2799004 0.78217083
-7.4406652 1.2758855 0.72824776
-7.4785337 1.2726637 0.73755437
0 0 0 1 0 0 0 1 0 0 0 1 0 0 0 0 0 624 1 0 0
