ply
format ascii 1.0
comment PCL generated
element vertex 523
property float x
property float y
property float z
element camera 1
property float view_px
property float view_py
property float view_pz
property float x_axisx
property float x_axisy
property float x_axisz
property float y_axisx
property float y_axisy
property float y_axisz
property float z_axisx
property float z_axisy
property float z_axisz
property float focal
property float scalex
property float scaley
property float centerx
property float centery
property int viewportx
property int viewporty
property float k1
property float k2
end_header
-10.59618 1.3193594 -1.0541991
-10.397759 1.2944225 -1.1026545
-10.281219 1.3239651 -1.1204481
-10.242307 1.3353924 -1.126012
-10.081436 1.3322043 -1.1611866
-10.036039 1.325541 -1.1725041
-10.00972 1.322647 -1.1788315
-9.9403267 1.3161978 -1.1952293
-9.8557243 1.3280709 -1.2104573
-9.7401562 1.3339162 -1.233763
-9.6636925 1.3235945 -1.2526076
-9.5812969 1.3257719 -1.2697041
-9.5101032 1.3181734 -1.2867644
-9.4255829 1.3290428 -1.3022169
-9.3349819 1.3109767 -1.3259547
-9.142561 1.3159792 -1.3659002
-8.9995899 1.2850076 -1.4039532
-8.8279877 1.311106 -1.4343539
-8.8208218 1.3096033 -1.4362494
-8.6915998 1.2958553 -1.4672043
-8.6149426 1.2902732 -1.4849465
-8.5448685 1.3004121 -1.4974859
-8.4995689 1.2913789 -1.5093546
-8.3770266 1.2909821 -1.5356584
-8.3385048 1.2929305 -1.5434269
-8.1390142 1.2940608 -1.585819
-8.0691347 1.2994602 -1.5994608
-7.9466906 1.2966937 -1.6263156
-7.812809 1.3194634 -1.6494528
-7.7742858 1.3214117 -1.6572214
-7.7366223 1.3244365 -1.6645465
-7.6621399 1.3294473 -1.6792665
-7.6265173 1.3256857 -1.687793
-7.4286985 1.2863435 -1.7395966
-7.3521395 1.2785115 -1.7578609
-7.1900177 1.3063446 -1.7858156
-7.114213 1.2795583 -1.8084934
-7.2295713 1.2782748 -1.7841315
-7.3457799 1.2556674 -1.764735
-7.498805 1.2737005 -1.7276548
-7.5799422 1.2741754 -1.7101874
-7.659605 1.2790378 -1.6919763
-7.6981206 1.2770306 -1.6842234
-7.7721682 1.2739124 -1.6691395
-7.8104973 1.2767035 -1.6602684
-7.8877373 1.2680672 -1.6458336
-7.9264545 1.2613794 -1.6391675
-8.0030155 1.2693312 -1.6208742
-8.0388794 1.2741119 -1.6120499
-8.0868378 1.2764159 -1.6012368
-8.1700945 1.2753149 -1.5836966
-8.2094765 1.274443 -1.5754845
-8.3175879 1.2742045 -1.5524204
-8.3561106 1.272256 -1.5446516
-8.4019938 1.2670708 -1.5360901
-8.4649019 1.2554294 -1.5254462
-8.5487261 1.262514 -1.5058086
-8.6258688 1.2562475 -1.4908228
-8.7028179 1.2547204 -1.4747342
-8.7412434 1.2551417 -1.4664143
-8.8181934 1.2536148 -1.4503258
-8.8952389 1.249718 -1.4347887
-8.9337616 1.2477695 -1.4270201
-8.9860344 1.2630447 -1.4121536
-9.1012144 1.2666783 -1.3866428
-9.2941208 1.2498273 -1.3494533
-9.4165649 1.2525936 -1.3225986
-9.4621572 1.2545176 -1.3123834
-9.50068 1.2525693 -1.3046149
-9.6229305 1.2600753 -1.2766575
-9.6996841 1.2632878 -1.2594668
-9.7546721 1.2699658 -1.2460946
-9.8987846 1.2716364 -1.2148699
-9.9950809 1.2667613 -1.1954517
-10.072031 1.2652342 -1.1793633
-10.161212 1.2583587 -1.1619496
-10.193712 1.2645546 -1.1535032
-10.356607 1.2403822 -1.1244996
-10.578648 0.98134583 -1.1395367
-10.582611 0.94330841 -1.1478704
-10.5957 0.85801262 -1.1656593
-10.607588 0.74390018 -1.1906608
-10.616564 0.58313841 -1.227545
-10.634315 0.50183684 -1.2433729
-10.638105 0.40941721 -1.26487
-10.632177 0.34468693 -1.2817622
-10.633602 0.30817765 -1.29027
-10.63813 0.23255439 -1.3075548
-10.640268 0.18042026 -1.3196815
-10.638833 0.15684475 -1.3256791
-10.635573 0.11917253 -1.3354694
-10.640998 0.096613184 -1.3397546
-10.644353 0.080888107 -1.3428327
-10.655116 -0.0052927881 -1.3613327
-10.580689 -0.19743349 -1.4236282
-10.652756 -0.24115537 -1.4187688
-10.665127 -0.24937528 -1.4181072
-10.706674 -0.26996014 -1.4141903
-11.075325 -0.29277068 -1.3408529
-11.181248 -0.29676276 -1.3191627
-11.209191 -0.29313642 -1.3123111
-11.241514 -0.24305533 -1.2933098
-11.257591 -0.22494991 -1.2855014
-11.264465 -0.21633813 -1.2819523
-11.243479 -0.18079938 -1.2778625
-11.218017 -0.13831471 -1.2730535
-11.168026 0.025527671 -1.2441974
-11.170512 0.082150951 -1.2299984
-11.169029 0.17682524 -1.2074635
-11.162659 0.21498452 -1.1996152
-11.149242 0.22014283 -1.2012393
-11.045187 0.26772255 -1.2120093
-10.699633 0.55005938 -1.2177638
-10.687744 0.66417193 -1.1927621
-10.684448 0.7469731 -1.1734811
-10.682894 0.7848888 -1.1646618
-10.676193 0.89064485 -1.1405677
-10.666743 0.94483107 -1.1295096
-10.663778 1.017108 -1.1126977
-10.66339 1.0265869 -1.1104929
-10.664089 1.0686184 -1.100198
-10.648394 1.2765166 -1.0533732
-10.610723 1.3162588 -1.0518371
0.21103764 0.65758193 -3.5252724
0.2203989 0.72750956 -3.510396
0.21939659 0.78865629 -3.4954224
0.21839476 0.84980291 -3.4804487
0.19795084 0.70746154 -3.5104342
0.17742443 0.61171061 -3.5291557
0.151577 0.43990242 -3.5650983
0.16852236 0.37914699 -3.5833871
0.20476151 0.24611981 -3.6232471
0.20837927 0.2184063 -3.6307101
0.22011805 0.069042578 -3.6692734
0.094020844 -0.14662249 -3.6943612
0.095623016 -0.15529518 -3.6967974
0.10131216 -0.28618622 -3.7296081
0.10133028 -0.33281916 -3.7408676
0.080534458 -0.4590888 -3.7668986
0.071730614 -0.54401702 -3.7855153
0.072576523 -0.62849844 -3.806088
0.065392017 -0.69585806 -3.8208103
0.067822933 -0.74237925 -3.8325591
0.077490807 -0.78856546 -3.8457751
0.079921246 -0.83508676 -3.8575239
0.058686733 -0.94371694 -3.8792033
0.053508759 -1.016997 -3.8957839
0.016548157 -1.1207225 -3.9129157
-0.55551672 -1.10811 -3.7875242
0.012551308 -1.1587944 -3.9212506
0.11061621 -1.1426084 -3.9383168
0.18046951 -0.93244642 -3.9025283
0.18122625 -0.85663754 -3.8843918
0.18281078 -0.81867731 -3.8755682
0.18680811 -0.78060538 -3.8672333
0.18354988 -0.69623554 -3.8461719
0.18430614 -0.62042677 -3.8280351
0.22364426 -0.49619812 -3.8064628
0.21554232 -0.36541879 -3.7731631
0.21712732 -0.3274585 -3.7643394
0.2114563 -0.24320036 -3.7427888
0.21545315 -0.20512845 -3.7344537
0.21377945 -0.082798406 -3.7045684
0.23785019 0.058217183 -3.6756787
0.25387383 0.11723898 -3.6648593
0.25545883 0.15519927 -3.6560357
0.25061607 0.20160885 -3.6437979
0.2522006 0.23956908 -3.634974
0.24653769 0.32705092 -3.6126471
0.24499035 0.34258991 -3.6085653
0.19800806 0.47137761 -3.567431
0.20382118 0.62325597 -3.5320148
-0.51563406 1.3492547 -3.2029068
-0.60559082 1.3622434 -3.1805327
-0.76641369 1.3630672 -3.1459386
-0.67645693 1.3500782 -3.168313
-0.63784218 1.3519686 -3.176115
-0.55424881 1.3473643 -3.1951046
-0.50936127 1.3384969 -3.206845
0.22130156 0.92574221 -3.4627404
0.24133539 0.94567198 -3.4622145
-0.96622658 -1.0708212 -3.6906853
-1.1269441 -1.0673211 -3.6554675
-1.2812176 -1.0702188 -3.6231728
-1.3970637 -1.0759438 -3.5997787
-1.512816 -1.079301 -3.5758331
-1.6027465 -1.0655862 -3.5532892
-1.76337 -1.0597181 -3.5175204
-1.8792157 -1.0654432 -3.4941263
-1.9500964 -1.0780255 -3.4820042
-2.1556854 -1.0653002 -3.4349632
-2.2265661 -1.0778825 -3.4228411
-2.3485746 -1.0701065 -3.3948703
-2.5480945 -1.0732498 -3.3529577
-2.7152555 -1.0633515 -3.3148177
-2.8100989 -1.0242496 -3.2850955
-2.9758904 -0.78983641 -3.1930561
-2.9834597 -0.75288445 -3.182518
-2.9854584 -0.74350029 -3.1798253
-2.9941151 -0.64817691 -3.1549652
-2.9900968 -0.58576661 -3.1407604
-2.8103979 -0.35590982 -3.1237106
-2.9154932 -0.28838459 -3.0849352
-2.9268446 -0.2823413 -3.0810487
-2.9605196 -0.28816819 -3.075253
-3.2778461 0.081173077 -2.9182367
-3.3497686 0.12648158 -2.8919184
-3.3637185 0.13768257 -2.8862312
-3.4020333 0.14167245 -2.8770738
-3.58656 0.09743093 -2.8482881
-3.6870067 0.10321449 -2.8254094
-3.7453468 0.1064937 -2.8121407
-3.7525835 0.10617022 -2.8106711
-3.9573202 0.13996239 -2.7587276
-3.9648709 0.13252826 -2.7589071
-3.9929895 0.1076837 -2.7588902
-4.276906 -0.27263412 -2.7899683
-4.3562613 -0.26817617 -2.7719207
-4.3892303 -0.27076441 -2.7654943
-4.470201 -0.28837085 -2.7524269
-4.5139279 -0.29073477 -2.7436457
-4.5388503 -0.35185045 -2.7530673
-4.7479668 -0.67780864 -2.7870219
-5.188302 -0.61697316 -2.6781633
-5.2190962 -0.36551675 -2.610882
-5.2177329 -0.33470464 -2.6037362
-5.2222233 -0.27679288 -2.5887976
-5.3607292 -0.31067094 -2.5673525
-5.694232 -0.30453184 -2.4945445
-5.7014537 -0.30491066 -2.4930916
-5.8770223 -0.36143559 -2.4691863
-5.9275708 -0.3640871 -2.4590156
-6.1065183 -0.38793981 -2.4265015
-6.1940713 -0.3707943 -2.4036381
-6.3881993 -0.067410514 -2.2888906
-6.3852501 0.0034957677 -2.2724066
-6.3847876 0.0091227442 -2.2711473
-6.3815966 0.05086033 -2.2617552
-6.3822713 0.056682065 -2.2602057
-6.386786 0.057366624 -2.2590749
-6.4300013 0.067541912 -2.2473764
-6.4345517 0.068204775 -2.2462432
-6.4356809 0.0683759 -2.2459605
-6.5111828 0.079865739 -2.2270396
-6.5997572 0.07762976 -2.2086358
-6.6806173 0.073706642 -2.1922891
-6.7216959 0.065835521 -2.1854036
-6.7206192 -0.028344885 -2.2083669
-7.0269608 -0.33710024 -2.2173753
-7.1493282 -0.33177632 -2.1899197
-7.1883726 -0.33559629 -2.1824913
-7.5287676 -0.27162725 -2.0942507
-7.6059666 -0.14425899 -2.0469966
-7.6270504 -0.14479724 -2.0426173
-7.6643305 -0.16141979 -2.0386565
-7.6803317 -0.20005283 -2.0445592
-7.6770725 -0.23770252 -2.0543442
-7.7185469 -0.4591375 -2.0989227
-7.7832937 -0.69106591 -2.1410573
-7.7590561 -0.74417841 -2.159061
-7.7645683 -1.0536438 -2.2325792
-7.8104424 -1.1174241 -2.2381632
-7.8819332 -1.2790236 -2.2618797
-8.0408974 -1.4052889 -2.2583594
-8.0707121 -1.4157974 -2.2545192
-8.0344019 -1.4234892 -2.2641418
-7.9248466 -1.3875502 -2.2788973
-7.885643 -1.3690078 -2.2828062
-7.5571933 -1.2142236 -2.3156905
-7.5108891 -1.2223519 -2.3275557
-7.4578571 -1.1894115 -2.3309467
-7.3555799 -1.1557459 -2.3446946
-7.2188687 -1.1626757 -2.3756056
-7.1946011 -1.1566861 -2.3793499
-7.1165504 -1.1344098 -2.3906655
-7.1097622 -1.1334672 -2.3918898
-6.9801755 -1.1430306 -2.4219129
-6.9489813 -1.1414435 -2.4282014
-6.7727237 -1.1723889 -2.473367
-6.7156773 -1.1745768 -2.4860957
-6.6886735 -1.175006 -2.4919746
-6.6571841 -1.1663283 -2.4966145
-6.5825491 -1.1515605 -2.5090122
-6.5645385 -1.1424046 -2.510654
-6.3876424 -1.1071339 -2.5399733
-6.349031 -1.1027501 -2.547173
-6.3096523 -1.1018575 -2.5553794
-6.2647839 -1.1006401 -2.5646815
-6.2153645 -1.0673888 -2.5672247
-5.8701186 -1.0730597 -2.6424313
-5.649416 -1.1544235 -2.7092721
-5.6234241 -1.1589253 -2.7159176
-5.4750204 -1.1180248 -2.7377844
-5.4365067 -1.1160046 -2.7455335
-5.3208694 -1.1075803 -2.7682316
-5.2824545 -1.1079236 -2.7765303
-5.1460395 -1.1265625 -2.8102043
-5.0677242 -1.0936869 -2.8190181
-5.035655 -1.0857027 -2.8239496
-4.8744297 -1.0779501 -2.8565595
-4.7651682 -1.0665154 -2.8771672
-4.6814499 -1.0693238 -2.8957498
-4.6364317 -1.0762277 -2.9070444
-4.4887838 -1.067808 -2.9365892
-4.3984337 -1.0745052 -2.9575291
-4.3598375 -1.0727799 -2.9653673
-4.29177 -1.0579101 -2.9763355
-4.1768126 -1.0549542 -3.0002079
-4.0682774 -1.0634768 -3.0254776
-3.9621549 -1.0721074 -3.0502572
-3.8756986 -1.0543112 -3.0644519
-3.8367012 -1.0531253 -3.0725062
-3.7859793 -1.0174686 -3.0747473
-3.3778977 -0.95210028 -3.1462452
-3.2907181 -1.039911 -3.1860857
-3.2473545 -1.074729 -3.203764
-3.2088635 -1.0753739 -3.2121518
-3.1704772 -1.0783889 -3.2210894
-3.1255641 -1.0876629 -3.2329333
-3.0419505 -1.0928416 -3.2520657
-2.8318048 -1.1283145 -3.3055718
-2.7931893 -1.1264062 -3.3133698
-2.6323781 -1.1275388 -3.3480358
-2.4392083 -1.1156297 -3.3864746
-2.4005926 -1.1137213 -3.3942726
-2.2847469 -1.1079965 -3.4176667
-2.2074225 -1.1018121 -3.4327114
-2.103199 -1.1195468 -3.4592824
-1.9956715 -1.1280385 -3.4843287
-1.8799191 -1.1246814 -3.5082743
-1.7192955 -1.1305491 -3.5440433
-1.5709968 -1.1094148 -3.5706587
-1.4875097 -1.1167318 -3.5902801
-1.2623558 -1.1012515 -3.6346972
-1.2113214 -1.1239775 -3.6510973
-1.1218591 -1.1495308 -3.6763985
-0.96189117 -1.1719723 -3.7160277
-0.92308855 -1.1653286 -3.7227225
-0.80733681 -1.1619712 -3.7466683
-0.69167852 -1.1609818 -3.7711651
-0.60856628 -1.1777692 -3.7929926
-0.83170557 -1.1008642 -3.7267067
-0.69571638 -0.53124338 -3.6182985
-0.68649149 -0.53362489 -3.6208463
-0.644979 -1.082557 -3.762223
-8.7175884 -1.0896 -2.0374362
-8.8428755 -1.0704949 -2.0060296
-8.9620934 -1.0744685 -1.9814914
-9.039135 -1.0784009 -1.9659638
-9.0776567 -1.0803672 -1.9581999
-9.1125193 -1.0842613 -1.9516838
-9.1546974 -1.0842996 -1.9426723
-9.1932182 -1.0862658 -1.9349085
-9.2316408 -1.0858639 -1.926594
-9.3085852 -1.0874285 -1.9105155
-9.3470078 -1.0870267 -1.9022012
-9.4271841 -1.0818245 -1.8837982
-9.5395145 -1.0944897 -1.8628314
-9.5815592 -1.0967968 -1.8543961
-9.6974125 -1.1098019 -1.8327577
-9.8263998 -1.07739 -1.7973478
-9.9716082 -1.1046599 -1.7728744
-10.013152 -1.1123976 -1.765857
-10.051772 -1.1167158 -1.7586396
-9.9885759 -1.1497488 -1.7801287
-9.9117298 -1.1505525 -1.7967577
-9.9079704 -1.1500589 -1.7974429
-9.8693523 -1.1457238 -1.8046557
-9.8271179 -1.1387722 -1.8120102
-9.6232224 -1.1780643 -1.8651013
-9.6016827 -1.177075 -1.8694694
-9.5631628 -1.1751088 -1.877233
-9.4090786 -1.1672438 -1.9082885
-9.3848763 -1.1658957 -1.9131393
-9.1907139 -1.1477058 -1.9502742
-9.0432243 -1.1240085 -1.9760978
-8.9524097 -1.1375327 -1.9987847
-8.8358831 -1.1618029 -2.0295644
-8.8170128 -1.1702917 -2.0356493
-8.7809677 -1.1905838 -2.0482562
-8.7554264 -1.1943874 -2.054637
-8.6540928 -1.1877258 -2.0747011
-8.4581165 -1.2079405 -2.1214938
-8.4418678 -1.2031387 -2.1238098
-8.4541464 -1.1699295 -2.113168
-8.4775352 -1.1688535 -2.1079059
-9.3586864 -0.050682157 -1.6495557
-9.3539686 -0.052804768 -1.651077
-9.3616409 -0.093376115 -1.6592289
-9.3479252 -0.39637741 -1.7352993
-9.3484402 -0.45302624 -1.748863
-9.3480234 -0.47597307 -1.7544909
-9.4466667 -0.47499126 -1.7331572
-9.9175053 -0.45464742 -1.6275485
-10.035206 -0.43542665 -1.5977364
-10.042882 -0.42737284 -1.5941508
-10.041424 -0.39182681 -1.5858827
-10.044157 -0.34180415 -1.5732238
-10.008894 -0.30218357 -1.571202
-9.9913616 -0.28474301 -1.5707421
-9.9580517 -0.25226727 -1.5700274
-9.79529 -0.29770893 -1.6158054
-9.6754084 -0.2748408 -1.6359247
-9.6368885 -0.27287415 -1.6436884
-9.373229 -0.053788126 -1.6471951
-3.7280478 1.2773986 -2.5332129
-3.6313825 1.2596649 -2.5581672
-3.3549974 1.258389 -2.6175857
-3.277386 1.2713282 -2.6310611
-3.1162653 1.2767124 -2.6642203
-3.0458081 1.2817067 -2.6780837
-2.9235985 1.2782515 -2.7050545
-2.8390889 1.2798123 -2.7227519
-2.7691085 1.2875403 -2.7358532
-2.7622685 1.2883759 -2.7371144
-2.6019571 1.2914604 -2.7706556
-2.5300794 1.2973071 -2.7846167
-2.4077806 1.2969662 -2.8108549
-2.3710635 1.3038498 -2.8170462
-2.3151031 1.3125676 -2.8269103
-2.2207978 1.3219212 -2.8448215
-2.1822736 1.3214383 -2.8531773
-2.0663388 1.3294821 -2.8760307
-1.9701998 1.3033626 -2.9028964
-1.9436522 1.304662 -2.9082606
-1.9122775 1.3061979 -2.9145999
-1.7449656 1.3207153 -2.9468787
-1.7062597 1.3249786 -2.9541278
-1.5776882 1.3138801 -2.9843042
-1.4556618 1.30642 -3.0122025
-1.3785233 1.3078274 -3.0283604
-1.2237005 1.3248805 -3.0573561
-1.1077652 1.3329244 -3.0802097
-1.0626054 1.331176 -3.0902901
-1.0240808 1.3306932 -3.0986457
-0.98528481 1.3373297 -3.1053412
-0.95312452 1.3452314 -3.110312
-1.0755138 1.343199 -3.0846272
-1.1525617 1.3441648 -3.0679157
-1.2686787 1.3313749 -3.046169
-1.3909774 1.3317157 -3.0199308
-1.4423194 1.3465947 -3.0053589
-1.5194583 1.3451874 -2.9892008
-1.6353936 1.3371437 -2.9663472
-1.6803722 1.3436381 -2.9551601
-1.7188964 1.344121 -2.9468045
-1.7961259 1.3403405 -2.9312
-1.912061 1.3322967 -2.9083467
-1.9570394 1.3387913 -2.8971596
-2.1178622 1.3396149 -2.8625655
-2.1524999 1.3324844 -2.8568788
-2.1887283 1.3274499 -2.8503456
-2.2659578 1.3236694 -2.8347411
-2.3945296 1.3347679 -2.8045647
-2.5891404 1.3339378 -2.7631435
-2.597985 1.3340483 -2.7612255
-2.6713784 1.3251748 -2.7476707
-2.7947929 1.322118 -2.722014
-2.8780921 1.3344127 -2.701231
-2.9876692 1.3158393 -2.6822789
-3.0649667 1.3100097 -2.6671546
-3.1933877 1.3268491 -2.6356244
-3.2318795 1.3274893 -2.6272378
-3.3541939 1.3285744 -2.6008165
-3.3863692 1.3182003 -2.5964391
-3.5541201 1.3167205 -2.5609195
-3.5861905 1.3087164 -2.5559926
-3.6634877 1.3028868 -2.5408683
-3.7405756 1.3017974 -2.5246444
-3.7923281 1.3102466 -2.5115366
-3.9015908 1.2987828 -2.4909358
-4.0304317 1.3061424 -2.4616041
-4.1013074 1.2916687 -2.4499397
-4.2681155 1.3115182 -2.4094732
-4.3068166 1.3074185 -2.4021859
-4.422605 1.3022292 -2.3786747
-4.4999027 1.2963997 -2.3635502
-4.6670246 1.3091394 -2.3247328
-4.7699714 1.2866615 -2.3081412
-4.8536901 1.2894765 -2.289557
-4.9438295 1.3009357 -2.2675128
-4.9760041 1.2905616 -2.2631357
-5.1435461 1.2938216 -2.2265167
-5.1821423 1.2920918 -2.2186797
-5.1992841 1.2919736 -2.2150421
-5.276412 1.2855986 -2.2000854
-5.2980356 1.2845327 -2.1957181
-5.3918662 1.2819576 -2.1762722
-5.4619803 1.2692761 -2.1643379
-5.538918 1.2676384 -2.1482785
-5.4550614 1.2606013 -2.1679115
-5.3781233 1.2622389 -2.1839709
-5.2597189 1.2279265 -2.2175763
-5.2210178 1.2320261 -2.2248638
-5.1509466 1.2288799 -2.2406092
-4.9761791 1.2345955 -2.276607
-4.8602858 1.2421547 -2.2995687
-4.7446017 1.244974 -2.3236294
-4.5899019 1.2590029 -2.3533287
-4.5515156 1.2559929 -2.3622649
-4.4742184 1.2618221 -2.3773894
-4.4356222 1.263552 -2.3852265
-4.3135171 1.2577269 -2.4127471
-4.2619739 1.2445378 -2.426954
-4.1074843 1.2538267 -2.4577527
-3.9852746 1.2503716 -2.4847236
-3.9533088 1.2560059 -2.4902
-3.7986095 1.2700347 -2.5198994
-6.3855195 1.2425174 -1.9732797
-6.4141216 1.2481209 -1.9658101
-6.5531378 1.2589604 -1.9334623
-6.6630654 1.2459024 -1.9131038
-6.5139551 1.2775443 -1.9373566
-6.3916774 1.2701415 -1.9652948
-6.3147397 1.2717793 -1.9813542
-6.2067747 1.2698833 -2.0049024
-6.0709443 1.2380247 -2.0416422
-6.1095562 1.2336528 -2.0344396
-6.2319288 1.2386868 -2.0070527
-6.8236094 1.2236202 -1.8841469
-6.707489 1.2438416 -1.9041005
-6.7470179 1.250571 -1.8940222
-6.7384982 1.24932 -1.8961463
0 0 0 1 0 0 0 1 0 0 0 1 0 0 0 0 0 523 1 0 0
