ply
format ascii 1.0
comment PCL generated
element vertex 478
property float x
property float y
property float z
element camera 1
property float view_px
property float view_py
property float view_pz
property float x_axisx
property float x_axisy
property float x_axisz
property float y_axisx
property float y_axisy
property float y_axisz
property float z_axisx
property float z_axisy
property float z_axisz
property float focal
property float scalex
property float scaley
property float centerx
property float centery
property int viewportx
property int viewporty
property float k1
property float k2
end_header
-6.3027182 -0.33421659 2.2117386
-6.3426142 -0.36693767 2.2192693
-6.6537638 -0.67921978 2.2880678
-6.7338138 -0.66981357 2.289942
-6.7730427 -0.65809947 2.2896075
-6.8126698 -0.6498909 2.2899089
-7.0559645 -0.41793868 2.2597439
-7.0983257 -0.35129082 2.249861
-7.1365328 -0.34710228 2.2508085
-7.1764827 -0.34724471 2.2525966
-7.2571411 -0.35696334 2.25787
-7.3362823 -0.34781438 2.2597494
-7.4760947 -0.35022813 2.266345
-7.5560317 -0.34809962 2.2694976
-7.5759807 -0.34866893 2.2704782
-7.6766014 -0.36038262 2.2769845
-7.7555909 -0.36095041 2.2805705
-7.7956161 -0.35625178 2.2815084
-7.8762741 -0.36596459 2.2867806
-7.9955168 -0.34729612 2.2887511
-8.1553917 -0.34303916 2.2950559
-8.3949375 -0.35361424 2.3074923
-8.4756708 -0.3584812 2.3119135
-8.5578461 -0.38703078 2.3205743
-8.6758747 -0.3880192 2.3259573
-8.6915388 -0.40233862 2.3291736
-9.1197195 -0.45584065 2.3575044
-9.1997328 -0.39098918 2.3495998
-9.2172813 -0.37249941 2.3471138
-9.2528439 -0.3338612 2.3418698
-9.3585453 -0.33882022 2.347409
-9.9200573 -0.31896898 2.3686891
-10.000394 -0.34520152 2.3768601
-10.033847 -0.44225508 2.3954506
-10.476469 -0.56019396 2.4357812
-10.658813 -0.20875698 2.3818569
-10.646935 -0.16994399 2.3744886
-10.658008 0.15957017 2.3168716
-10.6589 0.1957074 2.3105388
-10.659034 0.22498588 2.3053818
-10.541339 0.57439768 2.2385733
-10.680979 0.77275258 2.2097585
-10.55201 1.0971797 2.1468582
-10.513498 1.1284354 2.139647
-10.353678 1.2457024 2.1119153
-10.018142 1.2575589 2.095017
-9.9949226 1.2563775 2.0942006
-9.913579 1.261681 2.0896754
-9.8183174 1.2534466 2.0869236
-9.6968002 1.2629656 2.0798821
-9.6186066 1.2566041 2.0775533
-9.5370388 1.2659762 2.0723007
-9.4970512 1.2636998 2.0709374
-9.3779602 1.2547543 2.0672593
-9.2979851 1.2502015 2.0645328
-9.2181625 1.2553416 2.0601034
-9.098237 1.2509356 2.055588
-9.0575285 1.2604682 2.0521104
-8.977705 1.2656087 2.0476813
-8.8985634 1.2565163 2.0457919
-8.8187027 1.2592334 2.0417886
-8.7388783 1.2643735 2.0373592
-8.5799656 1.2709851 2.0291803
-8.4991426 1.2628312 2.0270512
-8.3762264 1.2847834 2.017756
-8.3378639 1.2846136 2.0160928
-8.2586479 1.2706749 2.0150547
-8.1397839 1.2762693 2.0088227
-8.0998344 1.2764162 2.0070336
-8.0191383 1.2836723 2.002193
-7.9796252 1.2827613 2.0006096
-7.9001994 1.2844203 1.996812
-7.7801609 1.2727442 1.9935734
-7.7402115 1.2728909 1.9917846
-7.6202111 1.2636384 1.9881203
-7.5802236 1.2613617 1.986757
-7.4804039 1.2608397 1.9824439
-7.4396577 1.2679824 1.9793862
-7.2807312 1.2664217 1.9726477
-7.120894 1.2645878 1.9659172
-7.0800724 1.2668846 1.9637107
-6.9586692 1.28374 1.9553807
-6.8786936 1.2791886 1.9526539
-6.8371897 1.2957497 1.9479018
-6.6383128 1.2943362 1.9393744
-6.517592 1.2969275 1.9335898
-6.436821 1.2993715 1.9295943
-6.3170094 1.3022361 1.9238017
-6.2778559 1.2953877 1.9232814
-6.1557698 1.3265076 1.912406
-6.275733 1.3333347 1.9164963
-6.2960377 -0.34142244 2.2127144
-6.2570782 -0.39406618 2.2202783
-6.22054 -0.45156434 2.2288048
-6.2188196 -0.47496656 2.2328556
-6.1988354 -0.56294024 2.2474866
-6.2396712 -0.72515923 2.277894
-5.928463 -1.0764118 2.3260989
-5.8085756 -1.0784073 2.3211601
-5.7286763 -1.0781225 2.3175838
-5.6488523 -1.0729922 2.3131561
-5.4897361 -1.0867018 2.3085518
-5.2180214 -0.58550769 2.2081811
-5.2550406 -0.51577461 2.1975183
-5.2555027 -0.50056803 2.1948574
-5.1794195 -0.55317378 2.2007761
-4.7252302 -0.52885574 2.1764438
-4.7248344 -0.5604102 2.1819904
-4.8239861 -1.0527641 2.2731867
-4.9602962 -1.0746975 2.2830698
-11.004034 0.52114224 2.2683837
-11.018797 0.50007272 2.2727506
-11.01782 0.48606837 2.275177
-10.984884 0.35914344 2.2961049
-10.979206 0.31555229 2.3035412
-10.978674 0.11857338 2.3382523
-10.985622 0.08777003 2.3439908
-10.982952 0.036648855 2.3528876
-10.981739 -0.040885136 2.3665061
-10.936419 -0.064948887 2.3687494
-10.786831 -0.32553643 2.4080992
-10.772553 -0.79477441 2.4902134
-10.649465 -1.0304325 2.5263364
-10.486553 -1.1347769 2.5375469
-10.406768 -1.1272136 2.532692
-10.368637 -1.1265198 2.5308869
-10.047637 -1.1571136 2.5221155
-9.9490013 -1.1346585 2.513803
-9.8657274 -1.1184968 2.507278
-9.788785 -1.1028447 2.5011222
-9.7405872 -1.0932515 2.4973035
-9.6273565 -1.0906878 2.4918544
-9.5873308 -1.0953864 2.4909167
-9.509819 -1.1160784 2.4911447
-9.5089102 -1.1163517 2.4911528
-9.4689217 -1.1186274 2.4897892
-9.3482389 -1.1136132 2.4835792
-9.2674675 -1.1111693 2.4795837
-9.2275181 -1.111022 2.4777946
-8.9868155 -1.2032851 2.4834416
-8.9672394 -1.2067091 2.4831812
-8.750473 -1.1326646 2.4605582
-8.6298275 -1.1252276 2.4539225
-8.5505724 -1.1416203 2.4533155
-8.5107365 -1.1342043 2.4502499
-8.4300785 -1.1244915 2.4449775
-8.2711887 -1.1236291 2.4378135
-8.1514921 -1.1134958 2.4307442
-8.0721989 -1.1323115 2.4305627
-8.0323248 -1.1273184 2.4279225
-7.9126277 -1.1171849 2.4208531
-7.8309841 -1.1125913 2.41644
-7.7510471 -1.1147199 2.4132876
-7.6725883 -1.1381079 2.4139493
-7.5728087 -1.1359162 2.4091594
-7.5328217 -1.1381966 2.4077969
-7.477778 -1.145269 2.4066148
-7.2929349 -1.1494559 2.3991957
-7.2074695 -1.1579831 2.3969276
-7.105556 -1.186434 2.3974469
-6.8488746 -1.2119104 2.3906116
-6.8090715 -1.2350936 2.3929431
-6.6731915 -1.2694335 2.393002
-6.6474328 -1.2637638 2.3908653
-6.4133568 -1.1320432 2.3573079
-6.3226361 -1.1271346 2.3524387
-6.2526112 -1.1341537 2.3505862
-6.0912576 -1.1171392 2.3404651
-5.9737587 -1.1401677 2.3393404
-5.8939347 -1.1350373 2.334913
-5.8133144 -1.122896 2.3292141
-5.7341733 -1.1320449 2.3273349
-5.6543112 -1.1293373 2.3233328
-5.6143236 -1.1316177 2.3219702
-5.5328321 -1.1173108 2.3158512
-5.4921241 -1.1077346 2.312366
-5.3339167 -1.121187 2.3077562
-5.2133093 -1.1113259 2.3006947
-5.1723752 -1.1162864 2.299763
-5.0924382 -1.1184243 2.2966123
-5.0533218 -1.12287 2.2956698
-4.9213214 -1.0992402 2.2856777
-4.8414669 -1.0941575 2.2812572
-4.8014479 -1.0988979 2.2803271
-4.7215328 -1.0986698 2.2767601
-4.4818773 -1.0907034 2.2647789
-4.4419498 -1.0881622 2.2625687
-4.3616557 -1.0837604 2.258249
-4.1622448 -1.0873635 2.2500842
-3.8415384 -1.0666485 2.2322779
-3.7593312 -1.131112 2.2400174
-3.736659 -1.127335 2.2383506
-3.5407596 -1.1531746 2.2342618
-3.5011494 -1.1596612 2.2336576
-3.4586945 -1.1595401 2.2317626
-3.4007549 -1.1498874 2.2275035
-3.3780828 -1.1461104 2.225837
-3.2032881 -1.0821981 2.2068529
-3.0831275 -1.0704006 2.1994696
-3.0424433 -1.0595123 2.1957543
-3.0819921 -1.0578803 2.1972117
-3.2025616 -1.071424 2.204921
-3.2817509 -1.0608779 2.2065561
-3.3210125 -1.0477905 2.205981
-3.3606222 -1.0413038 2.2065852
-3.4811614 -1.0572748 2.214721
-3.5211191 -1.0573889 2.2165046
-3.6003692 -1.0419883 2.2172861
-3.680285 -1.0422165 2.2208533
-3.7605484 -1.0490454 2.2255995
-3.8404944 -1.0468464 2.22874
-3.8749878 -1.0500546 2.230828
-4.1601267 -1.0501863 2.2434349
-4.2404203 -1.054588 2.2477546
-4.2799392 -1.0553831 2.2496388
-4.3494868 -1.0514094 2.2520072
-4.3594327 -1.0506127 2.2523057
-4.3994036 -1.0539793 2.2546635
-4.5592351 -1.0544355 2.2617974
0.89628124 0.59070361 1.7309372
0.91652155 0.54182166 1.7386637
0.89798117 0.43543202 1.7582424
0.89734411 0.50628686 1.7457762
-5.6763735 1.3282741 1.8909379
-5.7978907 1.3186877 1.8979912
-5.9860644 1.3182709 1.906369
-6.0776143 1.3225027 1.909663
-5.8446484 1.332777 1.8975701
-5.876411 1.3387784 1.8979136
-5.8813047 1.3396344 1.8979787
-6.0111418 1.3391559 1.9037929
-6.0943341 1.331857 1.9087514
0.47091055 -1.1365763 2.0542934
0.52098465 -1.102222 2.0460258
0.51932812 -0.91585702 2.0132356
0.54101801 -0.66339076 1.9677591
0.54120684 -0.66021854 1.9671915
0.85607529 -0.35637268 1.8997165
0.89480639 -0.32214308 1.8919712
0.8946228 -0.29961145 1.8880062
0.91143227 -0.14773738 1.8604833
0.89007235 -0.046280146 1.8435352
0.88975954 -0.0003105253 1.8354429
0.90292788 0.091025814 1.8187557
0.90051508 0.25260985 1.7903689
0.86494589 0.14062102 1.8116864
0.8718338 0.011582151 1.8341368
0.85533714 -0.18626153 1.8697522
0.52916813 -0.4293288 1.9270083
0.4974041 -0.46590525 1.9348599
0.44825363 -0.50747097 1.9443586
0.1807909 -0.62615955 1.9770913
0.10011673 -0.63975799 1.9830495
0.060454845 -0.6608184 1.9885136
0.050838947 -0.68026322 1.9923668
-0.17068958 -1.0791045 2.072474
-0.49837828 -1.1286118 2.0956652
-0.61921406 -1.1499517 2.1047609
-0.6598134 -1.1640791 2.1090438
-0.77936697 -1.157362 2.1131356
-0.81932592 -1.157461 2.1149163
-0.89956236 -1.1646732 2.1197293
-1.0198326 -1.1490955 2.1222899
-1.1393414 -1.1628445 2.1299884
-1.1969876 -1.1460277 2.1295671
-1.3120179 -1.1005344 2.1266215
-1.4991164 -1.1179577 2.1379507
-1.5393944 -1.1250709 2.1409826
-1.6182451 -1.1295379 2.1452501
-1.6977663 -1.1456108 2.1515937
-1.7789645 -1.1738658 2.1601596
-2.0593524 -1.0851715 2.1568935
-2.1792269 -1.0854685 2.1622362
-2.2591729 -1.0832438 2.1653719
-2.3391185 -1.0810192 2.1685078
-2.4582348 -1.0769786 2.1730521
-2.4988928 -1.0862607 2.1764832
-2.5392303 -1.0885284 2.1786633
-2.6980729 -1.0703044 2.1824596
-2.8435328 -1.0575796 2.1866353
-2.8835208 -1.0552665 2.1879921
0.10784054 -1.0766957 2.0597572
0.13026714 -1.0740837 2.0583067
0.27032042 -1.065695 2.0506468
0.30756569 -1.0735259 2.050384
0.45017719 -1.1270584 2.05353
-7.1967373 1.2944247 1.964003
-7.2750063 1.3056982 1.9654691
-7.3564978 1.2914127 1.9715846
-7.4945979 1.3007004 1.9760413
-7.5944519 1.2948285 1.9814836
-7.655231 1.2955738 1.9840344
-7.7743216 1.3045192 1.9877126
-7.8177972 1.2983317 1.9907224
-7.9349923 1.301816 1.99528
-8.0150051 1.3087921 1.9975809
-8.0866995 1.3067266 2.0011091
-8.0966616 1.3069074 2.0015168
-8.1091709 1.306644 2.0021155
-8.134779 1.3035051 2.003799
-8.2146397 1.3007882 2.0078025
-8.2955894 1.3133534 2.0091591
-8.4146538 1.317017 2.0137677
-8.5720119 1.3200738 2.0201731
-8.6951733 1.3138732 2.0267019
-8.7517681 1.3182014 2.0284362
-8.9354038 1.2890664 2.041678
-9.0535851 1.2977046 2.0453703
-9.1341667 1.2831783 2.0514879
-9.2140665 1.2828847 2.0550659
-9.3331938 1.2942533 2.0583184
-9.4530811 1.2962362 2.0632596
-9.5729685 1.298219 2.0682008
-9.693614 1.2908158 2.0748305
-9.8135004 1.2927988 2.0797718
-9.9097023 1.2918705 2.0841808
-9.9333496 1.2923582 2.0851386
-9.9733372 1.2946347 2.0865018
-10.013326 1.2969111 2.0878651
-10.393666 1.3034334 2.1035001
-10.429638 1.3197252 2.1022146
-10.439625 1.3196864 2.1026623
-10.511959 1.3145602 2.1067584
-10.630899 1.2559483 2.1223428
-10.69635 1.2341529 2.1290746
-10.752421 1.1956979 2.1383302
-10.774666 1.181074 2.1418908
-10.831638 0.98538822 2.1789117
-10.830954 0.96950942 2.1816814
-10.829587 0.93775159 2.1872213
-10.829624 0.91244286 2.1916859
-10.827687 0.84434301 2.2036088
-10.827003 0.82846397 2.2063787
-0.5399189 -1.0652119 2.0863187
-0.61855412 -1.0373528 2.0848765
-0.69844151 -1.0399736 2.0888641
-0.77870798 -1.0447632 2.093251
-0.85842133 -1.0282561 2.093858
-1.0062056 -1.0259444 2.0999725
-1.1783228 -1.0096661 2.1046977
-1.2981977 -1.0099632 2.1100404
-1.4180431 -1.0126829 2.115809
-1.4583511 -1.0173736 2.1184149
-1.497931 -1.0214643 2.120883
-1.6185036 -1.0247837 2.1267896
-1.698421 -1.0249817 2.1303513
-1.7402139 -1.0284489 2.132807
-1.8182068 -1.032547 2.1369717
-1.9376731 -1.033098 2.1423411
-2.0174885 -1.0249435 2.1444254
-2.057487 -1.0259193 2.1463628
-2.2573395 -1.0338901 2.1565881
-2.3371964 -1.0389336 2.1610017
-2.3775048 -1.0436242 2.1636076
-2.6016064 -1.0245726 2.1701381
-2.6822181 -1.0380023 2.1760638
-2.8419886 -1.0433131 2.1840513
-2.8811588 -1.0375075 2.1847563
0.60398006 1.4243475 1.5968344
0.60225344 1.4502418 1.5923445
0.48303127 1.441326 1.5991781
0.37785578 1.4575142 1.600965
0.31966782 1.4455612 1.6056408
0.20508194 1.4519506 1.609571
0.085282326 1.4527587 1.6147153
0.077706337 1.4505703 1.6154356
-0.03452301 1.4186575 1.6260159
-0.073959351 1.4106326 1.6291714
-0.11482811 1.3733414 1.6375508
-0.44584417 1.3087267 1.6635531
-0.52570105 1.3036736 1.6679684
-0.60561705 1.3034664 1.6715317
-0.64478636 1.3052455 1.6729466
-0.72546196 1.3007326 1.6773028
-0.80461884 1.3048311 1.6800733
-0.84454679 1.3023046 1.682281
-0.88409567 1.3019308 1.6840923
-0.92449379 1.3045202 1.6854184
-1.0450983 1.2974808 1.6919823
-1.0850863 1.2998 1.6933379
-1.2046099 1.3040651 1.6978607
-1.2449188 1.2993857 1.7004647
-1.3648825 1.3063436 1.7045319
-1.4448285 1.3085592 1.7076695
-1.4844365 1.3130313 1.7086288
-1.6040502 1.3245651 1.7118738
-1.7638826 1.3241506 1.7190005
-1.8038106 1.321624 1.7212081
-2.0634274 1.1413785 1.7644494
-2.0803447 1.0952977 1.7733217
-2.1208525 1.0924023 1.77562
-2.1610508 1.0870496 1.778338
-2.1906395 1.0952829 1.7781918
-2.4029098 1.2646129 1.7577004
-2.5233426 1.2766867 1.7608863
-2.6234469 1.2933881 1.762359
-2.6837339 1.2886568 1.7658539
-2.7037427 1.2910283 1.7663188
-2.783339 1.2978196 1.7686338
-2.9029226 1.3069304 1.7723048
-2.9432609 1.3046739 1.7744827
-3.0231771 1.3044667 1.7780461
-3.1433723 1.2971572 1.7846395
-3.2229977 1.3063716 1.7865287
-3.3431334 1.2942162 1.7939739
-3.5030255 1.2986475 1.8002489
-3.6225498 1.3029125 1.8047715
-3.7028167 1.2981296 1.8091573
-3.8620083 1.3117124 1.8137875
-3.6618669 1.3168061 1.8040566
-3.5812502 1.3261648 1.7988486
-3.5413218 1.3286914 1.796641
-3.4614351 1.3313215 1.7926517
-3.3987689 1.3457508 1.7873417
-3.3813477 1.3444839 1.7867963
-3.2615848 1.3269937 1.7845951
-3.2215967 1.3246745 1.7832394
-3.1417103 1.3273045 1.7792501
-3.0620844 1.3180902 1.7773609
-2.981818 1.3228732 1.7729752
-2.94221 1.3184011 1.7720158
-2.8626738 1.3164555 1.7688489
-2.8219554 1.3208648 1.7662743
-2.7820568 1.3258142 1.7636408
-2.7221491 1.3283924 1.7605424
-2.6814604 1.3352245 1.7575419
-2.6215234 1.3353802 1.7548693
-2.562346 1.3312297 1.7529896
-2.5223579 1.3289105 1.7516339
-2.402483 1.3292212 1.7462888
-2.2819381 1.3411065 1.7388731
-2.2020512 1.3437365 1.7348838
-2.0822954 1.3537391 1.7278349
-1.9624209 1.35405 1.7224898
-1.8428969 1.349785 1.7179672
-1.683485 1.3410139 1.7124788
-1.6034684 1.343408 1.7085253
-1.5634804 1.3410888 1.7071695
-1.4831839 1.3434489 1.7032098
-1.4028578 1.3433861 1.6996759
-1.3235531 1.3271731 1.699035
-1.283565 1.3248538 1.6976793
-1.2036481 1.3250611 1.6941159
-1.1230021 1.3319968 1.6893338
-1.0833941 1.3275247 1.6883744
-0.96378088 1.315991 1.6851295
-0.8838048 1.3113524 1.682418
-0.7633481 1.3305064 1.6737244
-0.64408541 1.3143971 1.6713018
-0.56956387 1.3185352 1.6672834
-0.52467966 1.3198239 1.6650754
-0.48683929 1.3255289 1.6623994
-0.48437166 1.3245031 1.6624714
-0.051308155 -1.0829108 2.0678766
-6.9554462 1.3092989 1.9507315
-6.8355975 1.3097404 1.9453645
-6.635849 1.3104767 1.9364195
-6.5559115 1.3083481 1.9332671
-7.0361419 1.3020091 1.9555782
-7.0768876 1.2948663 1.9586359
0.60356522 1.4034269 1.6005418
0.48361588 1.36221 1.6131034
0.24481583 1.3736098 1.6216319
0.085075378 1.3675632 1.6297476
0.046236515 1.3642045 1.632054
-0.033876896 1.3584887 1.6365974
-0.073883533 1.3569102 1.6386414
-0.11572123 1.3577216 1.6403446
-4.0226011 1.3069922 1.821707
-3.9551122 1.3023213 1.8195523
-3.9019663 1.3116087 1.8155692
-4.7419376 1.3123959 1.8524997
-4.462111 1.3034296 1.8417315
-4.2624092 1.3112164 1.8315454
-4.4618206 1.3128512 1.8400574
-4.1819944 1.3038847 1.8292893
-4.1467695 1.31582 1.8256302
-4.1014967 1.3229351 1.8223774
0 0 0 1 0 0 0 1 0 0 0 1 0 0 0 0 0 478 1 0 0
