ply
format ascii 1.0
comment PCL generated
element vertex 249
property float x
property float y
property float z
element camera 1
property float view_px
property float view_py
property float view_pz
property float x_axisx
property float x_axisy
property float x_axisz
property float y_axisx
property float y_axisy
property float y_axisz
property float z_axisx
property float z_axisy
property float z_axisz
property float focal
property float scalex
property float scaley
property float centerx
property float centery
property int viewportx
property int viewporty
property float k1
property float k2
end_header
-0.41971064 -1.0837301 3.1375461
-0.30002427 -1.0705248 3.1305594
-0.2541728 -1.0737123 3.1273398
-0.22023106 -1.0799794 3.1246994
-0.094454288 -1.0627805 3.1175759
-0.054243088 -1.0630714 3.1149173
0.025035381 -1.0415984 3.1111274
0.20958185 -1.0600406 3.0977993
0.26396132 -1.0586861 3.0943191
0.34469986 -1.059878 3.0889411
0.42152214 -1.059589 3.0839174
0.54386425 -1.0179857 3.0786264
0.58447933 -0.9793539 3.0785041
0.62374973 -0.93812883 3.0786407
0.66373205 -0.89827645 3.0786405
0.34252453 -0.8100245 3.105535
0.40139818 -0.25928348 3.1379337
0.40006113 -0.2170047 3.1408052
0.39483356 -0.06259425 3.1513152
0.46720552 0.16304681 3.161422
0.66652298 0.36394352 3.1615667
0.62622023 0.64381987 3.1826403
0.5861845 0.76357406 3.1931534
0.50601912 0.88357997 3.2063169
0.42593193 1.0034288 3.2194653
0.3158927 1.0832789 3.2319458
0.2258625 1.242907 3.2483659
0.026278496 1.2021323 3.2587817
-0.14514637 1.2856436 3.2755327
-0.2865479 1.3679513 3.2902336
-0.38507748 1.4221393 3.3002689
-0.52471018 1.4038246 3.3082285
-0.56704521 1.4084649 3.3113129
-0.66678739 1.4252616 3.3189659
-0.74657917 1.4247556 3.3241701
-0.78647518 1.4245025 3.3267722
-0.86687374 1.4077905 3.3309491
-1.0276768 1.4092252 3.3415985
-1.1461513 1.4458576 3.3517871
-1.3039081 1.4586049 3.3629816
-1.5058203 1.422395 3.3738508
-1.5469358 1.4245887 3.376694
-1.6255081 1.421636 3.3816571
-1.7028606 1.4162364 3.386379
-1.7826521 1.4157306 3.3915832
-1.8237674 1.4179243 3.3944263
-1.9839644 1.4405445 3.406431
-2.0661893 1.4050936 3.4094939
-2.26261 1.3379545 3.4179661
-2.3748202 1.3571622 3.4265964
-2.382072 1.356656 3.4270391
-2.4221959 1.3543718 3.4295223
-2.462091 1.349139 3.4317966
-2.5032046 1.3388833 3.43382
-2.6978574 1.3142492 3.4449749
-2.7194703 1.3165215 3.446543
-2.782619 1.3259937 3.4513118
-2.9022784 1.3399379 3.4600844
-2.9421322 1.3221771 3.4615309
-2.945715 0.84040946 3.4300447
-3.0236847 0.75763196 3.4297121
-3.2974272 0.54865348 3.4339204
-3.3378804 0.36778003 3.4246664
-3.3527524 0.31038854 3.4218638
-3.3949513 0.19052215 3.4167411
-3.3393185 0.16257663 3.4112494
-3.1745155 -0.14937903 3.3798914
-3.119225 -0.30857086 3.3657804
-3.1042085 -0.34828162 3.36218
-3.3327184 -0.86311829 3.3432803
-3.3719625 -0.86935472 3.3454456
-3.6217318 -0.96777117 3.3553603
-3.6214066 -0.97570086 3.3548169
-3.6183388 -1.0025569 3.3528471
-3.6166654 -1.0050111 3.3525758
-3.530175 -1.0390522 3.3446572
-3.4102349 -1.0310332 3.3373125
-3.400579 -1.0304887 3.3367145
-3.2510009 -1.049145 3.3256679
-3.2124505 -1.0667329 3.3219793
-3.1728654 -1.0783852 3.3186138
-3.0531931 -1.0997837 3.3093495
-3.0282607 -1.1045529 3.307399
-3.0016627 -1.1067966 3.3055053
-2.9301891 -1.1161311 3.3001993
-2.853766 -1.118019 3.2950585
-2.7706451 -1.1322132 3.2886679
-2.7324467 -1.1244429 3.2866721
-2.6111317 -1.1283771 3.27845
-2.4568391 -1.0866506 3.2710698
-2.4169433 -1.0839087 3.2686317
-2.3758287 -1.0786678 3.266278
-2.2561545 -0.96089292 3.2661774
-2.2162626 -0.92578423 3.2658706
-2.2159741 -0.78199869 3.2753191
-1.9375911 -0.34033203 3.2861273
-1.5578971 -0.68759251 3.2383394
-1.5640991 -0.72497958 3.2362847
-1.5615966 -0.80463588 3.2308755
-1.5417011 -0.82940447 3.2279387
-1.4719129 -1.0530378 3.2086329
-1.4594438 -1.0678974 3.2068362
-1.3771989 -1.1968416 3.1929474
-1.2986269 -1.1938567 3.1879866
-1.2575114 -1.196085 3.1851411
-1.1801586 -1.1906198 3.1804235
-1.1390433 -1.1928481 3.177578
-1.1003671 -1.1901155 3.1752191
-1.0592515 -1.1923438 3.1723738
-1.0193558 -1.1920916 3.1697714
-0.98067927 -1.1893589 3.1674128
-0.93956399 -1.1915872 3.1645672
-0.89844871 -1.1938155 3.1617217
-0.81865692 -1.1933111 3.1565175
-0.73886538 -1.1928067 3.1513131
-0.50072193 -1.0792643 3.1431577
-4.7766199 0.14417176 3.5043814
-4.8167853 0.37781194 3.5224016
-4.8166876 0.38263929 3.5227129
-4.7772012 0.58231324 3.5332685
-4.697464 0.74202383 3.5385504
-4.69768 0.74730837 3.5389125
-4.739593 0.99840206 3.5581968
-4.7393727 1.0626816 3.5624146
-4.7400575 1.103434 3.5651429
-4.7397652 1.1179161 3.5660772
-4.7947507 1.2220346 3.5765421
-4.8596077 1.2588437 3.5832229
-4.9318933 1.2607323 3.5880921
-5.0589504 1.219837 3.5937393
-5.3151174 1.2313249 3.6113105
-5.3952355 1.2585011 3.6183586
-5.5555997 1.2584012 3.6288784
-5.6756601 1.2580094 3.6367333
-5.7151113 1.2570344 3.6392586
-5.9548502 1.2159439 3.6522894
-6.0745153 1.2348348 3.6613879
-6.19416 1.2412783 3.6696658
-6.314621 1.2936412 3.6810205
-6.394803 1.293591 3.6862803
-6.4346809 1.2932495 3.6888754
-6.6355181 1.3334315 3.704704
-6.835166 1.292366 3.7151048
-6.9536343 1.2945782 3.7230268
-7.0732913 1.30849 3.731797
-7.1963291 1.3075532 3.7398114
-7.3941126 1.3680381 3.7567763
-7.4735031 1.406553 3.7645235
-7.4926796 1.4059108 3.7657399
-7.6924052 1.4119732 3.779249
-7.812655 1.4439878 3.7892501
-7.8525314 1.4436144 3.7918429
-8.0545769 1.331364 3.7977142
-8.1724901 1.337745 3.8058741
-8.2123671 1.3373713 3.8084669
-8.2539644 1.3319861 3.8108428
-8.4117775 1.3479526 3.822253
-8.5331163 1.3368406 3.8294859
-8.6510715 1.3606499 3.8387961
-8.6909428 1.3577865 3.8412247
-8.7308178 1.3574131 3.8438175
-8.7723989 1.3445585 3.8457005
-8.8533974 1.3207569 3.8494499
-8.9734497 1.315271 3.8569689
-9.0122499 1.3183411 3.8597178
-9.0307827 1.3197137 3.8610249
-9.0532198 1.3219934 3.8626475
-9.1728544 1.3233625 3.8705904
-9.2109976 1.3230211 3.8730717
-9.250103 1.3176593 3.8752856
-9.3705273 1.331486 3.8841004
-9.4503098 1.3431879 3.8901079
-9.6497803 1.3786666 3.9055371
-9.7703218 1.3515409 3.9116633
-9.8489075 1.2697384 3.9114356
-9.8611803 1.1899489 3.9069874
-9.8752527 1.1242831 3.9035873
-9.880209 1.1092999 3.9029262
-9.8776379 1.0694861 3.900136
-9.8750687 1.0296724 3.8973458
-9.8736076 0.94815087 3.8918822
-9.8802624 0.7482872 3.8791592
-9.8758183 0.6334694 3.8713074
-9.8923359 0.54899532 3.8668296
-9.8890152 0.51166975 3.8641539
-9.8896103 0.42950946 3.8587832
-9.8951139 0.3074685 3.8511088
-9.8900518 0.26767707 3.8481565
-9.8939829 0.13249326 3.8395135
-9.8920794 0.028638437 3.8325505
-9.8978739 -0.064228222 3.8268161
-9.8112192 -0.091269955 3.8193476
-9.6832342 -0.18518202 3.8047631
-9.6600504 -0.18243758 3.803422
-9.5386829 -0.18380807 3.7953653
-9.4824467 -0.18169598 3.7918131
-9.4439754 -0.18290786 3.7892082
-9.288702 -0.17890786 3.7792795
-9.0587654 -0.52765769 3.7412233
-9.0494595 -0.56629914 3.7380681
-8.809164 -0.67715311 3.7149963
-8.7691469 -0.73403436 3.7086244
-8.6605892 -0.81533289 3.6961455
-8.4874153 -1.0836747 3.66711
-8.4422379 -1.1244277 3.6614611
-8.3971195 -1.1415297 3.6573734
-8.2774849 -1.1428821 3.6494317
-8.2393475 -1.1399956 3.6471186
-8.1595945 -1.1392375 3.6419334
-8.0382261 -1.140608 3.6338766
-7.9102879 -1.1692331 3.623594
-7.8820105 -1.1665981 3.6219115
-7.6811333 -1.112283 3.6123023
-7.6324692 -1.1141378 3.6089859
-7.5996408 -1.1140325 3.606838
-7.5876083 -1.1137114 3.6060693
-7.5216274 -1.110767 3.601932
-7.4817448 -1.1128775 3.5991755
-7.4383841 -1.1200032 3.59586
-7.3489933 -1.0907081 3.5919213
-7.2293549 -1.0946007 3.583812
-7.1877441 -1.0996569 3.5807478
-7.0299788 -1.0878203 3.5711715
-6.8670025 -1.0972104 3.5598555
-6.749114 -1.0857348 3.5528729
-6.5878763 -1.0872202 3.5421917
-6.5098686 -1.0736177 3.537967
-6.3884921 -1.0854152 3.529223
-6.2688694 -1.0793567 3.52177
-6.1908851 -1.0508274 3.5185297
-5.9897509 -1.0643908 3.5044341
-5.9498858 -1.0565664 3.5023327
-5.873456 -1.0140387 3.5001161
-5.6703043 -0.84708893 3.4977739
-5.5133514 -0.8058629 3.490186
-5.4752131 -0.79759705 3.4882269
-5.3123055 -0.80404294 3.4771092
-5.2617531 -0.72397488 3.479063
-5.2710319 -0.68977559 3.4819238
-5.2386365 -0.1805058 3.5133297
-5.1317601 -0.14633299 3.5085645
-4.9738774 -0.16743056 3.4968121
-4.9320269 -0.16004889 3.4945512
-4.7328629 -0.21019171 3.4781764
-4.6208611 -0.63747776 3.4426906
-4.6111431 -0.67677039 3.4394655
-4.6108913 -0.63739359 3.4420416
-4.6525583 -0.15815271 3.4763317
-4.692832 -0.038671687 3.4868424
0 0 0 1 0 0 0 1 0 0 0 1 0 0 0 0 0 249 1 0 0
