ply
format ascii 1.0
comment PCL generated
element vertex 1428
property float x
property float y
property float z
element camera 0
property float view_px
property float view_py
property float view_pz
property float x_axisx
property float x_axisy
property float x_axisz
property float y_axisx
property float y_axisy
property float y_axisz
property float z_axisx
property float z_axisy
property float z_axisz
property float focal
property float scalex
property float scaley
property float centerx
property float centery
property int viewportx
property int viewporty
property float k1
property float k2
end_header
-0.050818652 1.0484838 -4.8733149
-0.036718816 1.0475231 -4.7537313
-0.34796432 -1.2592233 -5.3178983
-0.38782838 -1.2162569 -5.1486716
-0.37464252 -1.2339051 -4.5191331
-0.32864162 -1.2250177 -4.7580209
-0.32510069 -1.2231206 -4.6555691
-0.20871589 -1.2223767 -4.7621536
-0.29005083 -1.2222354 -4.7993636
-0.25085256 -1.2220562 -4.8232327
-0.37333432 -1.2026471 -4.7487831
-0.37189022 -1.2005363 -4.7087865
-0.37624016 -1.2043692 -4.8287506
-0.049774408 0.36952659 -4.9991021
-0.050592393 0.2891854 -4.9597206
-0.03936848 0.21850847 -4.8796053
0.030110151 0.11987636 -4.3267775
-0.042390257 0.16854313 -4.8809605
-0.064536273 0.25014791 -5.0796442
-0.11066982 0.22122282 -5.3499136
-0.059761047 0.21940982 -5.0352407
-0.054626584 0.21896429 -4.9591241
-0.01281479 -0.02382502 -4.4817038
-0.029916942 0.12553692 -4.521524
-0.013662815 0.0015412122 -4.526495
-0.08755818 0.49735671 -3.3471
-0.013822526 0.65953618 -3.4805808
-0.048165381 0.52282441 -3.3582628
-0.017014116 0.38087866 -3.6024127
-0.1140776 0.29227641 -5.3527665
-0.082218051 0.30883861 -4.3451266
-0.083084911 0.38888624 -4.3492045
-0.13480523 0.30762017 -4.2781706
-0.13299122 0.38763443 -4.2773433
0.19227329 -0.91986465 -0.44101015
0.21094228 -0.86995935 -0.40142241
0.21604666 -0.62976158 -0.44060504
-0.34934953 -1.2564882 -5.3578591
-0.3907108 -1.2537999 -5.3964372
-0.39939901 -1.2306443 -5.4686174
-0.39645812 -1.233922 -5.3886995
0.099345177 -1.1017593 -2.0366611
0.21976925 -1.0812234 -2.0231493
0.059025109 -1.118593 -1.9981797
-0.18063548 -1.1274568 -3.690737
-0.30375746 -1.2051066 -4.0073881
-0.24114504 -1.079545 -3.7682326
0.21898673 -0.46957317 -0.48005199
0.22717114 -0.3893511 -0.52252191
0.20188303 -0.42876914 -0.67940712
0.33654213 -0.39259824 0.32168388
0.45463422 0.46857178 0.54919219
0.49595165 0.50894916 0.59522235
0.49726605 0.44395763 0.6152066
0.49941498 0.36647233 0.65517735
0.45561367 0.54858208 0.59666467
0.48064804 0.16660047 0.32600188
0.49497455 0.20423213 0.5535785
0.45037982 0.14851326 0.69703281
0.45095584 0.12197262 0.71418905
0.46085936 0.21111338 0.65661132
0.45326862 0.16191474 0.72204924
0.45308277 0.20182939 0.72998881
0.66046828 0.27040499 1.4899452
0.49880376 0.11565451 0.34796655
0.47699916 -0.031616837 0.23328465
0.50193822 0.0069731176 0.3110981
0.3690913 0.74403596 -1.5325158
0.38407335 0.6240046 -1.5498152
0.3851079 0.90270543 -1.774161
0.41329736 0.99010313 -1.8156729
0.22555609 -0.3141934 -0.55966985
0.30936927 -0.10847926 -0.64175731
0.84254044 0.19578098 1.6480229
0.72090554 -0.12377805 1.4883759
0.72122455 -0.10894108 1.5035338
0.76335531 -0.004616484 1.6058698
0.72951698 -0.047846645 1.8641307
0.76960081 0.070373043 2.0642369
0.74083936 -0.16861036 1.9425156
0.58719921 -0.63251722 2.1425414
0.49887618 0.79494846 0.22380447
0.42636845 1.3095291 -0.21708161
0.44073302 1.1113952 -0.33645147
0.43803856 1.1513823 -0.33660015
0.44498754 1.0316498 -0.29609281
0.46137661 1.0724291 -0.17682552
0.62861937 0.75017798 0.45028138
0.80717063 1.2318032 1.0841235
0.7459625 1.1512426 1.0313168
0.66300189 0.67548621 0.17889863
0.5255363 1.0887498 -0.85952091
0.47639918 1.1469965 -1.1183505
0.47512031 1.146771 -1.155828
0.37963197 0.86385071 -1.5736204
0.38258356 0.77136505 -1.5731646
0.37350056 0.86405599 -1.5333884
0.34672546 1.1847479 -1.3943206
0.44305632 1.3256267 -0.89815569
0.50622654 1.2288924 -0.81968129
0.66556621 0.19455947 1.5886204
0.67491829 -0.44622549 1.661474
0.68454051 -0.40700802 1.7416341
0.68119186 -0.32704481 1.7426012
0.70617837 -0.20721465 1.7831156
0.81101137 -0.17139244 2.260428
0.67047864 0.31049478 1.5696249
0.70686847 -0.52365434 1.4595079
0.68881863 -0.72465718 1.5304627
0.67321622 -0.64491177 1.5393226
0.66699558 -0.76498008 1.5382295
0.66811705 0.074143499 1.6272662
0.68162495 0.11058324 1.6893582
0.67104071 0.034175634 1.6267431
0.68656331 -0.011542022 1.7058012
0.6794917 -0.16706362 1.7443764
0.6614185 -0.0050418526 1.5465827
0.67723525 0.14851981 1.4676847
0.7642054 -0.084607095 1.6049821
0.90455079 0.1489405 2.3234243
0.90412509 0.069379956 2.2825594
0.20777914 -1.1094464 -0.52240211
0.1434648 -1.0688797 -0.71261382
0.3102138 -0.3116366 0.077792048
0.51232815 -0.64615452 -0.41094169
0.50862306 -0.54825342 -0.50545573
0.62773883 -0.03043744 0.10798013
0.60539168 -0.13018301 0.028284192
0.58515328 -0.070270598 0.029241443
0.57274562 -0.47424737 0.48376381
0.59932101 -0.47178993 0.38726592
0.57230693 -0.45102885 0.18817002
0.57232022 -0.49402997 0.46355319
0.68924254 -0.98134744 1.4551466
0.89096683 -0.050958693 2.2991946
0.86659181 -0.131143 2.2916057
0.85476375 -0.051800251 2.3403635
0.80797827 -0.45542207 2.6176734
0.85183889 -0.25094411 2.2582693
0.2241905 -1.1086071 -0.69807571
0.33470458 -0.99047732 -0.16608584
0.33981308 -0.95080638 -0.08604604
0.33592606 -0.95064759 -0.12593484
0.34714141 -0.91077459 -0.086130738
0.29761693 -0.87264633 0.2934823
0.86592633 -0.33017877 2.201936
0.75333095 -0.094856709 2.5182366
0.58382368 -0.65130532 2.0298831
0.68379432 -0.68746006 1.7786636
0.68921721 -0.60784459 1.8193696
0.67794645 -0.72708011 1.7384012
0.84848893 -0.41009262 2.1766186
0.73684841 -0.7295419 2.016654
0.86236465 -0.36883011 2.0765631
0.73387253 -0.56913066 1.9784517
0.61239827 -0.53268468 2.1828339
0.8109318 -0.42767617 1.6973557
0.81008112 -0.46724144 1.6569345
0.77509946 -0.64620781 1.7536809
0.79320198 -0.52492666 1.6568527
0.30936643 0.14844191 -0.72641391
0.31842205 0.10871886 -0.6864599
0.3360568 0.14886004 -0.67729723
0.38033104 0.26947713 -0.60949188
0.39996117 0.390037 -0.53083926
0.40206784 0.47004643 -0.53139263
0.41865286 0.47082683 -0.41189131
0.34723651 -0.069017708 -0.48280728
0.44098958 -0.050367892 -0.08573997
0.43390778 0.050128326 -0.20514101
0.4413234 0.11280869 -0.09031862
0.50645101 -0.028262556 -0.50317401
0.42474928 -0.14991143 -0.20567161
0.5856545 -0.19026849 0.028714836
0.33041143 -0.028563708 -0.60212469
0.36639929 0.46847391 -0.77030993
0.52640158 1.0688857 -0.8369174
0.52971762 0.94937027 -0.75626338
0.4722608 1.0692021 -0.7375133
0.42086518 1.2309939 -0.38902467
0.45330063 0.91215789 -0.21560943
0.43941003 0.87139046 -0.33496207
0.62515885 1.0760086 0.2978518
0.62366712 1.1131883 0.33398426
0.62613112 1.1562468 0.33735979
0.12083599 1.3368537 -2.1279712
0.28441736 1.1026994 -1.6918805
0.22560301 1.1839739 -1.4252037
0.29912668 1.1031491 -1.6273462
0.29386485 0.9829787 -1.6514585
0.22705242 1.1842295 -1.3827292
0.23401287 0.96527326 -1.2090456
0.36653003 1.1832362 -0.81463945
0.32563537 1.370543 -0.81437111
0.37644657 0.54688156 -1.0512925
0.37040937 0.94872415 -0.73331267
0.10699594 1.368168 -2.3937938
0.1750246 1.3255633 -2.1165519
-0.057285547 -0.63576877 -3.0099719
-0.062684655 0.16977541 -5.0353518
0.031056821 -0.00088168681 -4.2478924
-0.0052208006 -0.11917299 -4.4478703
-0.0087780058 -0.18405443 -4.4427614
-0.021262765 0.28760853 -4.7606139
-0.04736504 0.85156333 -5.2353029
-0.0065127313 0.05594413 -4.4414277
-0.01160562 0.081550971 -4.5258155
0.011670649 0.040154278 -4.36691
-0.013442189 -0.038456351 -4.5268784
-0.19614336 -0.47909984 -3.5240049
-0.2983354 -1.2333237 -5.0392904
-0.21838328 -1.2332296 -5.0420551
-0.058919013 -1.1534917 -4.2956095
-0.090392768 -1.183476 -4.0546389
-0.0043371022 -1.124748 -3.871963
-0.0060766041 -1.1242788 -3.9219306
-0.0088168681 -0.14405516 -4.4425249
-0.015196681 -0.14382577 -4.4823275
-0.015235543 -0.10382652 -4.4820905
-0.015157789 -0.18382505 -4.4825644
-0.098866612 -1.1587251 -4.2942677
-0.14151475 -1.178207 -4.3730178
-0.25718799 -1.1625824 -4.243763
0.65779626 -1.0668571 1.6953664
0.45235401 -1.1443924 1.5009747
0.450454 -1.0852191 1.4616494
0.4866972 -1.0847669 1.342931
0.44913816 -1.1258731 1.4062228
0.50835985 -1.1258334 1.4593644
0.66779596 -0.24630386 1.663852
0.66317087 -0.28546646 1.5835328
0.66907042 -0.4858456 1.6212115
0.66742188 -0.56586361 1.6204033
0.67071831 -0.52538335 1.5807109
-0.16536215 -1.205256 -3.9121425
-0.2028617 -1.1662195 -3.8329201
-0.03945896 0.40820894 -4.8390322
-0.15952149 1.1307459 -5.1891041
-0.1519433 1.1700966 -5.1089849
-0.12762013 1.0498619 -5.0707984
-0.14815888 1.1304536 -5.1494708
-0.16395774 1.3059549 -4.1458688
-0.11386582 1.3156879 -3.8673868
0.070486546 1.1830075 -3.7154901
-0.051411003 1.3405313 -3.5891879
-0.088373929 1.3478956 -4.2582436
-0.023448914 0.87136185 -4.5161204
-0.16961351 1.3499184 -4.5065041
-0.021292806 0.91138017 -4.5157523
0.11893949 -1.1080749 -0.91955519
0.12004942 -1.1078945 -0.95961744
0.13617817 -1.0480003 -0.91989911
0.13938594 -1.0683815 -0.83004189
0.28778049 -1.0537903 -1.1653366
0.36726964 -1.0259023 -1.1779854
0.36766899 -1.0384445 -1.1680465
0.3298043 -1.0663608 -1.1093144
0.29068291 -1.084129 -1.0855172
0.14658155 -0.74690139 -1.1591299
0.13564026 -0.78554392 -1.4791095
0.16656286 -0.78679299 -1.1649961
0.085782349 -0.74611104 -1.3971615
0.064461559 -0.82567656 -1.5168319
0.65147191 0.55033612 1.4501634
0.59043127 0.86983049 0.5316751
0.59114063 0.94983864 0.57165253
0.62715691 0.91017127 0.45028818
0.50198901 0.99566448 0.34256232
0.50335312 0.99590504 0.38253832
0.45720446 0.67264593 -0.13425344
0.44026875 0.51209897 -0.21275735
0.42823213 0.37157491 -0.29154897
0.43835801 0.39209068 -0.21197003
0.44358483 0.39258355 -0.13210338
0.46426228 0.39408565 0.10732591
0.45848888 0.27382505 0.068222582
0.46000776 0.47383106 0.066967249
0.44768459 0.11307274 -0.050513327
0.20052911 0.4758212 -1.0848857
0.21904001 0.54614192 -1.0459166
0.19816819 0.40034223 -1.164399
0.2426531 0.78664672 -0.98062921
0.24250799 0.74658775 -0.99038917
0.42423034 0.63108629 -0.37302202
0.38434845 0.46949488 -0.61083257
0.38879889 0.34975064 -0.5702399
0.18403426 0.22527683 -1.1628631
0.20456298 0.18607599 -1.0432558
0.17523232 -0.3081052 -0.85557806
0.22276856 -0.31135425 -0.63960993
0.21331809 -0.18776464 -0.89641488
0.21739046 -0.22824094 -0.78415924
0.12728804 -0.7470727 -1.1384481
0.21932346 -0.48334244 -0.76029348
0.21565841 0.061817572 -0.79787755
0.24761279 0.22705367 -0.91239208
0.11324021 -0.20814064 -1.4758816
0.15737098 -0.20597643 -1.3573319
0.15767591 0.10481707 -1.2187734
0.098986715 -0.18517554 -1.5953624
0.25088388 -0.12982762 -0.9600122
0.20878339 0.2125781 -0.97710925
0.20443295 0.23630925 -1.0035298
0.21833865 0.2266088 -0.9639219
0.20478806 0.16381133 -1.0031056
0.42468205 0.59113252 -0.36529252
0.45334178 0.67239362 -0.17414409
0.24326628 0.62662119 -0.98469013
0.24179147 0.66639453 -1.0224017
0.35651293 -1.0261683 -1.1275823
0.29894075 -0.73532224 -0.80415267
0.49987498 1.1958876 0.38145363
0.49601233 1.1956352 0.34156299
0.50256944 1.1559004 0.38160229
0.62788713 1.0764897 0.3778038
0.62532884 1.110163 0.45029676
0.62208211 1.1501384 0.37035048
0.49720293 1.2289932 0.5349319
0.5029307 1.1490422 0.53474844
0.49653271 1.0289787 0.53501344
0.46225452 1.3140709 0.10185832
0.47627333 1.2339032 0.061838388
0.47630718 1.2743714 0.14164168
0.43715915 1.336453 0.10258001
0.1592451 -0.98737359 -1.0405165
0.8336919 0.87197983 2.2840488
0.83123279 0.75195062 2.3241978
0.77931488 1.0290045 1.92573
0.7826063 0.8265245 1.9656954
0.8773284 0.91236675 2.6026721
0.73860145 -0.89041066 2.0949128
0.73270071 -0.92914319 1.9746163
0.72972417 -0.88828778 1.8951054
0.713404 -0.88713479 1.7755706
0.66704851 -0.76586759 1.6182637
0.67294866 -0.84669089 1.6972513
0.73599708 -0.88866293 1.9349239
0.49437732 0.82894659 0.63271165
0.4951767 0.90895545 0.67518747
0.5126583 0.78911448 0.57452703
0.49377987 0.58893436 0.55525172
0.67554212 0.79807675 1.2090693
0.75670952 0.91132081 1.2686522
0.7852819 0.67156446 1.4453063
0.74283308 0.5111714 1.4068561
0.59989339 0.14988351 0.61159241
0.67098314 1.3905411 1.6493487
0.72848254 1.2710601 1.6873369
0.72527492 1.1910291 1.6474495
0.77322048 0.99144888 1.8859344
-0.23356691 1.3687294 -4.9844551
-0.10189056 1.3307623 -4.8692064
-0.109615 1.3289099 -4.949007
-0.071981311 1.2890686 -4.9506288
-0.1652886 1.2551378 -5.7081895
-0.10863605 1.3074344 -5.0692945
0.095541984 1.3685247 -2.4334002
0.12897474 1.3302041 -2.5551379
0.18569095 1.1252046 -2.07915
0.2750276 1.3109323 -1.1324773
0.45942956 1.2275017 -1.0181959
0.34380981 1.361882 -1.455323
0.25897259 1.3831637 -1.5926399
0.30440542 1.3843137 -1.4341013
-0.11594871 0.37764871 -5.3970165
-0.050792933 0.57019681 -5.0774388
-0.0014087558 1.2049471 -4.4334254
-0.0014748871 1.1501735 -4.3937225
0.027972162 1.1881394 -4.1942291
0.0040561855 1.0849732 -4.4346156
0.032615662 1.1077237 -4.1552677
0.054029971 0.74608719 -3.9999721
0.065130949 0.66526985 -3.921222
0.040338278 0.66734469 -4.1204386
0.14129233 0.46297184 -3.6660752
0.15960303 0.6224429 -3.6049199
0.19351162 0.47953448 -3.3275509
-0.055917233 0.77186966 -5.2757015
-0.056073219 0.81186795 -5.2753615
-0.051811457 0.77086699 -5.155776
-0.11281392 0.9762857 -5.2320194
-0.12233558 0.96362591 -5.5119734
-0.12826285 0.97258091 -5.3916211
-0.056366295 1.1291384 -4.9525003
-0.052674025 0.93153894 -5.2344527
0.18058349 1.022018 -3.5486865
0.12841889 0.86031926 -3.4410069
0.18831956 0.66063195 -3.4254117
0.31943059 0.38642323 -2.0922885
0.17910162 1.2492487 -2.4352849
0.90519786 0.6926378 2.0013418
0.28516722 0.90223575 -1.7707478
0.28880745 0.62178612 -1.8492323
0.41757348 0.95332599 -1.6955255
0.35417992 1.1430269 -1.6945038
0.41590488 0.98284233 -1.7769449
0.39743841 0.98323119 -1.6950184
0.25317681 1.3120831 -1.7721224
0.25449193 1.3223233 -1.7322049
0.34693351 1.1813536 -1.974655
0.1895308 0.80725729 -2.2579687
0.1361056 1.1293542 -2.4775829
0.17714199 0.56697983 -2.245188
0.17508924 0.80695534 -2.2424331
0.53469366 0.22964653 -0.70957673
0.53199941 0.32675281 -0.7751081
0.50897682 0.38867596 -0.85474306
0.48755109 0.40334105 -0.89412415
0.89501023 0.79255986 1.7440133
0.89528584 0.75256073 1.7415133
0.89636075 0.79257059 1.7814889
0.85446233 0.39217734 1.6280131
0.90013134 0.87260306 1.9064112
0.82326758 1.3919011 2.4043531
0.83236855 1.3319834 2.3640163
0.8979305 1.3300997 1.9613948
0.89541495 1.2900784 1.8814452
0.91524637 0.95272589 2.3461287
0.95306063 0.93307352 2.2797294
0.95347095 0.73057055 2.2397468
0.90047503 0.9926095 1.9463902
0.8927266 1.032549 1.7415252
0.44287354 1.2318729 -0.25720152
0.43726221 1.0311452 -0.3758741
0.66435874 0.95595932 0.25721252
0.4557918 1.1924021 -0.1773569
0.47510511 1.1936637 0.022096395
0.48435664 1.1139418 0.06228441
0.75079703 0.71123219 1.8868229
0.73048896 0.43103823 1.8075833
-0.24112591 1.3724371 -5.4244385
-0.1563417 1.2941543 -5.5880952
-0.32655284 1.3734391 -5.5816045
0.50463724 -1.105759 1.8999488
0.72648001 -1.0492115 1.9735231
0.71393418 -1.0484611 1.8938861
0.065520704 -0.26483753 -1.7046053
0.14586437 0.01531288 -1.6611799
0.061007917 -0.26428637 -1.8345258
0.21721794 0.22169355 -1.803107
0.19697547 0.36510268 -1.2041702
0.18267012 0.22503625 -1.2028391
0.28750366 0.98271465 -1.6912638
0.28422877 0.86246574 -1.7304524
0.49006262 0.30870464 -0.8336044
0.33851317 -0.14285442 -1.8961821
0.33647117 -0.18149257 -1.9237919
0.34320673 -0.16591582 -1.7638619
0.35108909 0.10161345 -1.9282755
0.33889487 -0.13040763 -1.8836348
0.19074628 0.63246524 -3.3657713
0.3417033 -0.13824672 -1.8037167
0.33454129 -0.084899664 -2.0033641
0.33456001 0.09750174 -1.9800769
0.11036915 -0.18530187 -1.5557339
0.15594067 -0.19580701 -1.3972635
-0.17236045 1.3530866 -4.5864334
-0.015508711 1.1114271 -4.51373
0.026135623 -0.90474498 -1.7659891
0.044182837 -0.22383234 -1.9538431
0.061248094 -0.32178536 -1.8347781
0.059640259 -0.26911667 -1.8745233
0.062209934 -0.34439096 -1.8098922
0.2601614 -0.22272173 -2.0013652
0.292317 -0.24255592 -2.0978518
0.2255986 -1.0537498 -1.8035681
0.037697673 -1.0638609 -1.957182
0.097163081 -1.0107522 -2.0390713
0.072924346 0.14351514 -3.7672167
-0.10327235 0.1946767 -4.1213017
0.072582215 0.18351105 -3.7667575
-0.14648196 -0.47149411 -3.2454801
-0.14695081 -0.38649926 -3.2446656
0.13689777 -1.0559418 -2.1000788
-0.01622954 -0.45360914 -2.9496515
0.29848596 0.20623986 -2.0935352
0.31224835 0.019669726 -2.0560572
0.19836602 0.18053316 -2.2106862
0.18951897 0.16664155 -2.2100818
-0.048358828 -0.23879585 -2.6863468
0.17867698 0.070591122 -3.0115535
0.86595321 0.79230189 1.5624423
0.84566325 0.87212217 1.5056133
0.86591411 0.91230822 1.5223832
0.89274848 0.87254429 1.7015443
0.68319637 0.79063451 1.488977
0.49552158 0.27563816 0.34711587
0.49977607 0.19589277 0.38747454
0.47137919 -0.82861233 -0.46032405
0.46464893 -0.58791697 -0.62417001
0.48793453 -0.58823323 -0.52992207
0.44846022 -0.70840418 -0.52906078
0.3423596 -0.70808423 -0.70298254
0.44707575 -0.9087615 -0.44981381
0.431651 -0.90877342 -0.4617857
0.39604372 -0.58775306 -0.72685051
0.22007574 -1.0605713 -1.9635032
0.33530864 -0.10248414 -1.983453
0.35339168 0.14162403 -1.9285948
0.37453166 0.3420881 -1.867985
0.33191559 0.21956336 -2.0323501
0.29282612 -0.082940966 -2.0563445
0.29297569 -0.2202684 -2.0751507
0.75175768 -1.0682101 2.1326029
0.7500034 -1.0900356 2.0698886
0.68541837 -0.40469477 1.5340133
0.68794471 0.47065943 1.6089754
0.69447732 0.43071613 1.6412725
0.6743784 0.43053544 1.5694499
0.87604183 0.59237897 1.7222397
0.86068571 0.31222445 1.7804108
0.8612904 0.33472994 1.802897
0.89565146 0.71256238 1.7415116
0.89347965 0.79254758 1.7015409
0.73469889 0.74859345 1.7272885
0.84750956 0.012281016 1.7409441
0.84995443 -0.045830429 1.7977736
0.84934354 0.034079537 1.8061569
0.78730249 -0.32454756 1.6191738
0.78560168 -0.2841222 1.5796404
0.83275563 -0.24538079 1.7386432
0.81180906 -0.39061067 1.7377491
0.89213896 0.17305058 1.9413629
0.85916328 0.25221044 1.7229455
0.83747256 0.63200092 2.3627825
0.84210348 0.59203804 2.4464312
-0.010655254 0.16117078 -4.4850745
0.011272877 0.1201377 -4.3648944
-0.0065516233 0.095943391 -4.4411907
0.057564378 1.1289941 -2.5047381
-0.091408968 1.132731 -5.3915439
-0.050000668 1.1288251 -4.9126964
-0.035974085 1.2071819 -4.7123971
-0.026953995 1.1668808 -4.673018
-0.019375741 1.2062316 -4.5928988
0.0069598556 1.3079479 -4.1921234
-0.12407145 1.3163126 -4.1472111
0.047568113 1.3066771 -3.833359
-0.045600742 1.3247586 -4.4309111
-0.41964641 -1.2332294 -5.0751181
-0.17840722 -1.2331827 -5.043438
-0.17702928 -1.228418 -5.0034328
-0.27898845 -1.2241175 -4.4795604
-0.23763689 -1.2168059 -4.4409232
-0.37918106 -1.2010915 -4.9086685
-0.38064274 -1.2007027 -4.9486399
-0.41182742 -1.2058308 -4.7073779
-0.0064349771 -0.024054408 -4.4419012
-0.026957184 -0.023131013 -4.601284
-0.028417736 0.057102785 -4.6407862
-0.020616263 0.016638875 -4.561245
-0.023075879 -0.023363322 -4.5613952
-0.027034938 0.056867525 -4.6008105
-0.029416829 -0.06313321 -4.6014347
0.093209505 0.8632195 -3.7198918
-0.020612448 0.66082489 -3.597904
0.089250267 0.86364341 -3.7597716
0.02143389 0.66212106 -3.6794848
-0.015649945 0.50052893 -3.5698535
-0.016339421 0.45336851 -3.6003768
-0.018135935 0.4199343 -3.5206263
0.16682638 0.58113033 -3.4855578
0.1650124 0.5011161 -3.4863851
-0.15321907 1.0861135 -5.2297177
-0.1231831 1.0119213 -5.3114161
-0.14402142 0.38707599 -4.236917
-0.14583543 0.30706176 -4.2377443
-0.1157749 0.34641156 -4.1583452
-0.3803114 -1.2239997 -4.5160794
-0.37681445 -1.2005485 -4.5251403
-0.34404978 -1.2011238 -4.4462342
-0.36458179 -1.2024807 -4.5089297
-0.34683308 -1.2003732 -4.5261827
-0.41274455 -1.2219059 -4.8751669
-0.32812551 -1.2226059 -4.7430153
-0.24488929 -1.2230706 -4.6508384
-0.4064512 -1.2339957 -5.3883348
-0.026424795 -1.0953764 -2.7752059
-0.073009133 -1.0552664 -2.8132334
0.078545541 -0.85170126 -3.0967803
0.061665237 -0.85196781 -3.0786836
-0.16044793 -1.2187413 -4.523654
-0.19903877 -1.2215235 -4.4823108
-0.081678152 -1.1259193 -3.7942326
-0.1202617 -1.1265285 -3.7528691
-0.30903915 -1.2043705 -4.0872493
-0.023997217 -0.22359788 -4.5225172
-0.018694252 -0.26406473 -4.4428897
0.23033784 -0.4621996 -0.4403905
0.11511958 -0.3258082 -1.4364216
0.19049467 -1.0239018 -1.8022221
0.22698715 -1.0539194 -1.7635926
0.33619499 -0.39255586 0.31169009
0.45644587 0.38858372 0.57916927
0.51489109 0.42911813 0.61457574
0.55809295 0.34950972 0.61304164
0.49997199 0.15589392 0.38770854
0.52096796 -0.11725849 0.70938122
0.52011788 -0.037267894 0.71026886
0.48386252 0.082333952 0.71271253
0.5352425 0.0027038604 0.72772622
0.65557122 0.074893892 1.5476294
0.67699605 0.15607271 1.4627707
0.74863911 0.19120771 1.4867904
0.50737101 0.0078122467 0.39249492
0.49385625 -0.037112176 0.67108595
0.59815145 -0.19179484 0.38849461
0.59831852 -0.23179415 0.38831913
0.58912116 -0.19384575 0.46624637
0.62517351 0.51554352 0.22117597
0.66611993 0.39051256 0.28892934
0.6214729 0.43482411 0.10171604
0.62166882 0.39482525 0.10195005
0.49435261 0.088096157 0.31574023
0.3846103 0.58406585 -1.5395871
0.345507 0.73665941 -1.4916425
0.38282844 0.72136647 -1.572872
0.44514489 0.35282525 -0.091893375
0.43761548 0.31232181 -0.17144066
0.45306614 0.31333104 -0.011878014
0.66648555 0.35051423 0.28892767
0.62342483 0.31506813 0.14239407
0.22426152 -0.33652344 -0.59974414
0.86260378 0.11223352 1.7829006
0.73217505 -0.047872961 1.8690484
0.76412505 -0.0083548278 1.9434965
0.85138965 -0.04631424 1.8427482
0.85189438 -0.086336434 1.8448029
0.76209849 -0.69559264 2.5865366
0.49462166 0.87469387 0.18344581
0.649261 0.75032771 1.3701336
0.64489555 1.0703028 1.3301735
0.7220673 1.1109982 1.6075621
0.7163614 1.0309443 1.5677648
0.66809398 0.95051336 1.2493199
0.67360258 0.99056721 1.2040807
0.63161659 1.2301933 1.2105284
0.52729225 1.0089927 -0.8190769
0.62894124 1.0301893 0.53024137
0.66756052 0.39052403 0.32890332
0.88092649 1.0724562 1.4242332
0.88056087 1.1124547 1.4242349
0.81329846 1.1918508 1.2440178
0.79638994 1.0716889 1.2996972
0.6239906 1.0357691 0.25810981
0.48669308 1.1944206 0.1417684
0.50287896 1.0290469 0.2946291
0.24239479 1.3836712 -1.4920173
0.17025106 1.3612249 -1.8496363
0.15283589 1.3394449 -2.0355275
0.4051013 1.3483142 -0.83445954
0.39681906 1.3102511 -0.4962455
0.69794416 1.3908206 0.87037325
0.62968045 1.3901975 0.85031891
0.65635115 1.3904423 0.82684302
0.62567258 1.2301694 0.49027586
0.6944437 1.3107902 0.75294614
0.62674755 1.2701792 0.53025162
0.62530696 1.2701677 0.49027753
0.62782252 1.310189 0.57022727
0.48381007 0.99417412 0.10304779
0.7412644 -0.20860568 1.9420717
0.78650349 -0.21254963 2.3408127
0.78357923 -0.29213759 2.3000271
0.68125933 0.15058157 1.6893599
0.77970159 0.18826354 2.2652962
0.77715015 0.18912365 2.1853414
0.77082431 0.19038638 2.0654888
0.68571234 -0.046995401 1.7454696
0.73004925 0.032547697 1.8299587
0.72261131 0.4309696 1.7278154
0.69601887 0.35072592 1.6637545
0.68621677 0.27063361 1.649121
0.67011303 0.3504931 1.5696266
0.76547986 -0.32414886 1.5623419
0.72417259 -0.50596428 1.459146
0.74482518 -0.56412566 1.5379066
0.6859231 -0.44471696 1.536068
0.67449391 -0.28667435 1.7032266
0.53609258 -0.07728675 0.72683859
0.88267624 0.15239462 2.3500335
0.17987002 -0.60851336 -0.75945413
0.21937644 -0.62922037 -0.56079185
0.62740469 0.049561158 0.1083312
0.51086652 -0.35470483 0.46701312
0.59848559 -0.27179345 0.38814354
0.59124696 -0.27426639 0.50533605
0.64866745 -0.92554307 1.4570417
0.22670725 -1.1089145 -0.62562007
0.18569027 -1.1089604 -0.65421385
0.20639059 -1.1092768 -0.56237763
0.18745008 -1.0941832 -0.60168016
0.50876272 -0.59077716 0.06971091
0.5274682 -0.47059736 0.047057271
0.51015127 -0.59094679 0.10968643
0.56580788 -0.39026669 0.0085434318
0.50770837 -0.67060614 0.029384315
0.51245457 -0.46876362 -0.38517812
0.44485226 -0.50964892 -0.24792075
0.43502545 -0.54969156 -0.2477493
0.3444162 -0.59061062 -0.1247021
0.79080802 -0.37427852 2.4990261
0.81856132 0.066914037 2.4228413
0.77156609 0.025509939 2.5039411
0.77788967 0.11142937 2.4864075
0.8039301 0.11166913 2.4454432
0.8361572 -0.32623151 1.8177102
0.89936709 -0.028646171 2.0990531
0.86372012 -0.3692871 2.1190391
0.67273641 -0.43924263 2.3820269
0.68246633 -0.56658661 1.6999609
0.3416121 0.10786133 -0.6445967
0.33702004 0.1089965 -0.65457672
0.41498613 0.4305757 -0.45154795
0.30653253 0.17203543 -0.76054198
0.41428477 0.11104254 -0.36955324
0.41814744 0.11129485 -0.32966259
0.42174545 0.17060255 -0.3242808
0.43184209 0.1920612 -0.21054399
0.43130514 0.23199992 -0.22077197
0.44709682 0.23306929 -0.051215351
0.44756606 0.16966069 -0.085034788
0.44739896 0.20965998 -0.084859312
0.45517302 0.20934244 -0.0050817132
0.43359807 0.11230408 -0.17009997
0.43203801 0.15206236 -0.21030998
0.40137163 -0.069310188 -0.36461553
0.41430968 -0.1096054 -0.28518695
0.39904022 -0.10932028 -0.36470431
0.42587277 0.11179946 -0.24988127
0.41769958 -0.19029319 -0.12554914
0.34550336 0.013650432 -0.52242082
0.42512763 0.91062057 -0.45478272
0.43359548 0.99089408 -0.41553074
0.37433279 0.42647973 -0.69027996
0.38637277 1.0290328 -0.69431669
0.44963387 0.87190676 -0.2552661
0.45290875 0.99215567 -0.21607751
0.28996834 0.94225812 -1.7711524
0.28071678 1.02198 -1.8113405
0.2855179 1.0620023 -1.811745
0.13218197 1.3396411 -2.0883512
0.24916963 1.0262808 -1.049834
0.3678697 1.1884767 -0.77469271
0.33658388 0.98622346 -1.1326239
0.23871483 0.94608581 -1.0740097
0.23663417 0.86565208 -1.1459981
-0.17420354 -0.53012061 -3.4051697
-0.1315411 0.26673156 -4.198688
-0.13196483 0.26764667 -4.2787209
-0.13016769 0.23816867 -4.2400351
0.21642065 -0.97797894 -2.1021152
0.17933604 -1.0231708 -1.9794401
0.18271717 -0.25249928 -2.9496858
0.18112135 -0.17150423 -3.0539379
0.19257095 -0.13258886 -2.9338932
0.022892237 -0.28168848 -4.1701927
0.069489807 -0.17160359 -3.8905993
0.028309166 -0.20520997 -3.9295073
-0.11436364 0.18142837 -4.1602392
0.089058936 -0.044759721 -3.8100374
-0.030632943 0.12757364 -4.7616315
-0.011829942 -0.078829288 -4.4872875
-0.061331153 0.12948471 -5.0007133
-0.38354853 -1.2024246 -5.0286078
-0.052190214 0.4088355 -4.9186411
-0.02969414 0.52756667 -4.7583194
-0.029538184 0.48756841 -4.7586589
-0.027507573 0.60757363 -4.7577252
-0.026838124 0.39134359 -4.5213571
-0.027380288 0.40587988 -4.5592918
-0.022539228 0.44589907 -4.559123
-0.033688515 0.72958422 -4.9966421
-0.022978455 0.72758937 -4.7568765
-0.031501949 0.80959117 -4.996048
0.049454898 0.42599675 -3.9983757
0.037052423 0.46732026 -4.1225524
0.034201175 0.38683724 -4.0833178
-0.13369718 0.22671323 -4.1990561
-0.11724284 0.17732158 -4.2402382
-0.15658823 -0.52867532 -3.5458605
-0.11665967 -0.48849091 -3.5418699
-0.25836423 -1.2282767 -5.0406432
-0.037149459 -1.1227828 -4.0959487
-0.093438029 -1.1352282 -4.1341319
-0.13882801 -1.1614588 -4.292902
-0.30408838 -1.1983902 -4.4475999
-0.1927512 -0.88937998 -3.4954545
-0.14464906 -0.55186462 -3.2062726
-0.18509093 -0.97132218 -3.2888556
0.059733748 -0.86392748 -3.1362662
-0.087145984 -1.0115153 -3.2125907
0.080759197 -0.85092139 -3.1769021
0.70388693 -1.0476832 1.8141699
0.4510783 -1.1439624 1.4609973
0.66274583 -0.24547118 1.5839767
0.66859376 -0.20585105 1.624239
0.66986758 -0.56494868 1.5402899
0.66986823 -0.44539282 1.5815985
0.6686964 -0.80540538 1.5777631
0.66991985 -0.68539202 1.579015
-0.055901349 0.36916098 -4.9588704
-0.12527755 1.0898706 -5.0705438
-0.22696266 1.3677372 -4.864615
-0.063378841 1.0490687 -4.9479265
-0.063549906 1.0491104 -4.9529238
0.11940327 1.0625305 -3.6385653
0.091498852 1.063199 -3.7175961
0.017652184 1.323192 -3.5518768
-0.028570503 0.35041013 -4.4416924
-0.022144586 0.40522191 -4.4794269
-0.023274511 0.40487722 -4.4393663
0.14259046 -1.1087518 -0.74277097
0.13851163 -1.1082536 -0.86019909
0.14310724 -1.0663373 -0.7225967
0.15363948 -1.1075735 -1.0008074
0.086892277 -0.74593055 -1.4372237
0.09210363 -0.46450302 -1.7564064
0.10587299 -0.50426781 -1.797078
0.074413687 -0.81563342 -1.5171349
0.62788814 0.83017468 0.45028484
0.65886873 0.91046798 0.28904152
0.49968639 0.95565391 0.34288168
0.50565571 1.0359156 0.38221896
0.62791002 0.67016983 0.41030395
0.61081588 0.59000766 0.47098184
0.42884165 0.35166568 -0.27644098
0.49684453 0.515643 0.34562647
0.49953896 0.47565588 0.34577513
0.49329871 0.63468903 0.18493515
0.49349463 0.5946902 0.18516916
0.48274869 0.46940625 0.1462658
0.45739695 0.0091763437 0.034016252
0.27247384 0.90685928 -0.9698627
0.28422391 0.82714915 -0.92975998
0.24166444 0.86653912 -0.99858671
0.37060532 0.90872538 -0.73307866
0.38474032 0.38949716 -0.61036456
0.21248268 0.012231827 -0.89553732
0.21982437 -0.27101579 -0.7193855
0.20784062 0.10680164 -0.92156798
0.21159719 0.037326798 -0.91791385
0.16313371 0.075670645 -1.1562146
0.39531481 0.54978007 -0.57166594
0.4170928 0.51058513 -0.45210129
0.23546594 0.82541263 -1.1857401
0.29988983 0.82605195 -1.1304079
0.16676775 -0.79431403 -1.1600322
0.30199224 -1.0667557 -1.0458118
0.15648369 -0.32580474 -1.3978339
0.10465863 -0.47944871 -1.756906
0.53656775 1.0693371 0.75370169
0.59184998 1.0298468 0.61162996
0.5119006 1.2291191 0.73453188
0.50935054 1.1091009 0.49450254
0.51254094 1.1491334 0.45435023
0.50572097 1.1490762 0.33451819
0.48053354 1.3288518 0.3754003
0.5090068 0.9890945 0.45452344
0.62713504 1.0701761 0.49026906
0.70344806 1.1508363 1.448118
0.62459767 1.1901596 0.4503001
0.62891936 1.190194 0.57022214
0.85094881 0.59211731 2.4836366
0.86881959 0.59227729 2.5630445
0.86701345 0.6322642 2.5230722
0.93902409 0.71293432 2.3203244
0.8748911 0.6323328 2.6028402
0.83294928 0.95322633 2.2840524
0.82435179 1.0319045 2.2042875
0.78107435 0.83651257 1.9257216
0.87477374 0.99235189 2.4826634
0.87872982 1.0323846 2.602587
0.87129599 0.75230503 2.6029353
0.71590191 -1.0066632 1.7341824
0.67459714 -0.76667285 1.6980596
0.73062712 -0.96916592 1.974252
0.74917966 -1.0499059 2.0578396
0.74275482 0.75118411 1.3267384
0.53585845 0.98932898 0.71372426
0.78601307 0.59156781 1.445303
0.78781927 0.55158091 1.4852753
0.66219622 0.47043082 1.4497998
0.78690416 0.67155385 2.0456369
0.78692704 0.66905391 2.0456367
0.68332016 1.3656563 1.5688596
0.68057615 1.350634 1.4889109
0.68197101 1.3556452 1.5288851
0.8919735 1.2725505 1.7815094
0.89089853 1.2325407 1.7415338
0.72620344 1.2310393 1.6486554
-0.11993048 1.2902275 -5.1090765
-0.033310175 1.2858311 -4.5517316
0.21279779 1.3418493 -1.7784281
0.21440548 1.3446349 -1.7309712
0.21030079 1.3464131 -1.8509138
0.41750139 1.3470699 -1.0575086
0.31932575 1.3869449 -0.9968639
-0.029738724 0.76857984 -4.8763771
-0.019973904 0.88793755 -4.7956638
-0.01336959 0.88694537 -4.6758237
-0.016535103 1.2314148 -4.5123525
0.025816053 1.1481211 -4.1945972
0.14734669 0.35142085 -3.5274401
0.17077476 0.4602499 -3.4069936
0.14401841 0.39980868 -3.6068366
0.036710292 0.50731617 -4.1220932
0.069339812 0.46531269 -3.9236088
0.14250255 0.5024935 -3.6231472
0.050667346 0.11846262 -4.1674023
0.091336757 -0.0047475398 -3.809741
-0.049974948 0.65053797 -5.1168199
-0.044739246 0.64988005 -5.0369554
-0.046152413 0.89122736 -5.1949883
-0.064687014 1.2092288 -4.9665551
0.04586187 0.94646823 -4.0374651
0.042929024 0.82690442 -4.0787225
0.17989925 1.1020098 -3.5477681
0.13353658 1.2107075 -2.5966682
0.048794746 1.0660321 -3.996208
0.052411854 1.1056041 -3.955869
0.034169137 1.2668147 -4.0734897
0.055686831 1.185172 -3.915071
0.12819797 1.2506586 -2.5960269
0.31305382 0.88701391 -2.1440072
0.3288213 0.24080555 -2.0484252
0.19814539 0.22053073 -2.2103028
0.175328 0.4869656 -2.2460153
0.27763784 0.86173236 -1.8502951
0.095517516 1.1524084 -2.5559003
0.17685418 1.2092583 -2.4381509
0.91999924 0.43274763 2.3461065
0.90518427 0.47261322 2.3616388
0.84280103 0.43203276 2.564028
0.34458128 1.2043865 -1.4544015
0.35261986 1.1827853 -1.7347138
0.26321983 1.3021303 -1.7724051
0.19158356 0.56728172 -2.2607234
0.23564926 0.62013143 -2.0875523
0.8925547 0.97254586 1.7215354
0.78274447 0.79154801 1.4053373
0.52590513 -0.10806865 -0.52920365
0.50908113 -0.53331733 -0.49039909
0.49802616 0.39017582 -0.58921951
0.5363571 0.43010688 -0.63329327
0.62167615 0.11459274 0.063612103
0.43607208 0.13013774 -0.20487672
0.62584901 0.089730054 0.068531156
0.62845904 0.12939015 0.14865774
0.53276718 0.30937362 -0.7550177
0.50702488 0.50843197 -0.89542109
0.52710366 0.76875901 -0.85764879
0.89548051 0.81006408 1.7615027
0.89881074 1.3126062 1.9813812
0.95407557 0.75307608 2.262233
0.9522475 0.95306766 2.2622416
0.90087819 1.0076132 1.9613812
0.42898294 1.1911054 -0.37655416
0.41606468 1.2305762 -0.45639881
0.44362336 1.0314093 -0.33606878
0.66163045 0.95547819 0.17726058
0.85327548 0.51217163 1.62552
0.78634125 0.59154534 2.0444293
0.79302579 1.3116695 1.2672286
0.79420447 1.251677 1.2847147
0.79339141 1.2716712 1.2672269
0.8064394 1.3117999 1.0841269
-0.13974336 1.2932041 -5.4685969
-0.20654604 1.3539424 -5.5858765
-0.24655154 1.3612746 -5.5844455
-0.28407803 1.3736169 -5.5830574
-0.14388725 1.0138742 -5.5508399
0.062469572 -0.28195563 -1.7946271
0.14529145 0.027876258 -1.6761159
0.17368852 0.62078428 -1.9240952
0.2786513 0.70220631 -1.7693217
0.17269519 0.58350664 -1.8850636
0.38203618 0.74374557 -1.5929917
0.26073128 0.14329609 -1.5652269
0.12602228 0.69441497 -2.929898
0.14583839 0.90038836 -3.4336908
0.52934045 0.46890292 -0.83340722
0.53159529 0.40925044 -0.77559072
0.5310002 0.80947959 -0.73795485
0.32236934 0.54334927 -1.6097617
0.33397198 0.21751024 -1.9820489
0.33611566 0.057332858 -1.940277
0.2410157 0.093760252 -1.2163783
0.24170673 0.073686406 -1.1989768
0.058847576 -1.0760937 -1.9979931
0.081114531 -1.0234973 -1.9985435
-0.014258325 0.38042957 -3.5612383
0.13192844 -1.0609707 -2.0999532
0.2916519 0.019717053 -2.0728509
0.2924757 -0.062329322 -2.0593421
0.32042345 0.36617419 -2.0700345
0.06786412 0.41911006 -2.120641
0.69765043 0.27073643 1.6887348
0.74267668 0.34864452 1.8471935
0.74426901 0.39115852 1.9021597
0.72691572 0.39100561 1.7676976
0.74265385 0.3511444 1.8471937
0.89126414 1.1925423 1.7415318
0.61102414 -0.074715525 0.56688571
0.59337407 -0.11557537 0.62704337
0.59379977 -0.036014825 0.66790843
0.59422415 -0.19556597 0.62615573
0.59294838 -0.19513592 0.58617842
0.63590306 0.008544296 0.34800887
0.41716531 -0.32731023 -0.80652809
0.46217111 -0.34774104 -0.66559088
0.15150377 -1.064806 -1.6334388
0.20144306 0.29760009 -3.1547449
0.2025914 0.26982394 -3.1300788
0.20324619 0.25715783 -3.1152332
0.31246227 -0.1824953 -2.0030112
0.6786437 0.5105778 1.5692732
0.71323204 0.71090066 1.6079953
0.89367437 0.85005093 1.7215304
0.73476607 0.75109398 1.7297871
0.62484819 0.20654622 0.46941364
0.60025901 0.10988519 0.61159074
0.62399751 0.16698097 0.42899239
0.75729513 0.4312782 1.9266949
0.77261126 0.51142329 1.8860941
0.84958225 -0.063140243 1.7800894
0.8510437 -0.12590167 1.8043816
0.78305209 0.075405449 1.6236122
0.81351244 -0.084704071 1.6609404
0.91345954 0.19268811 2.1037538
0.86135793 0.16972537 1.7629158
0.86088765 0.15222108 1.7454267
-0.010214001 0.081175625 -4.4858413
-0.014324695 0.12153395 -4.5253453
-0.11170909 1.2126437 -5.3901806
-0.024299502 1.126893 -4.6734433
-0.012386203 1.0459253 -4.5544538
-0.0089870095 1.1655964 -4.5135446
-0.12256768 1.3108667 -4.1072974
-0.045631498 1.3224757 -4.1900387
-0.016711801 1.2848808 -4.4322333
-0.12600306 -1.2177533 -4.684938
-0.21148148 -1.2219062 -4.8421044
-0.17150787 -1.2193593 -4.843472
-0.22690752 -1.1996719 -4.5303507
-0.20456752 -1.2230824 -4.6422272
0.007335633 -0.079867661 -4.3678865
-0.014481157 0.20076378 -4.4445438
-0.013594955 0.24115132 -4.4842215
-0.021615356 -0.10359713 -4.5218935
-0.020722777 0.43093798 -4.4811091
-0.019802034 0.44523063 -4.4791722
0.02745676 0.54217815 -3.6810443
-0.018028677 0.65084833 -3.59811
0.029270738 0.62219238 -3.6802173
-0.016874015 0.51586211 -3.5996594
-0.014758766 0.6199308 -3.5160143
-0.015256345 0.66745389 -3.5179675
0.03568393 0.62730396 -4.1207156
0.055833101 0.70564491 -3.9604604
-0.13099059 1.0918864 -5.3104806
-0.072165549 0.97315598 -5.4335613
-0.17171183 1.3606813 -4.34512
-0.11566046 0.38626799 -4.1453953
-0.11615977 0.39140695 -4.1578288
0.030639231 0.46220875 -3.6820538
0.076574057 0.54445666 -3.842931
0.0040807724 0.54931968 -4.3205771
0.025609314 0.58813345 -4.2008433
-0.0039102435 0.56495398 -4.4386907
-0.0040857196 0.60995203 -4.4383087
-0.022868037 0.51137614 -4.5201616
-0.37318632 -1.2339494 -4.4791594
-0.36894932 -1.2038138 -4.6288691
0.19420485 -1.0500319 -0.40160507
0.19316669 -1.0299157 -0.42900047
-0.39071664 -1.2204787 -5.2286644
-0.15768966 -1.211712 -4.4436588
-0.17092863 -1.2037547 -4.0720387
0.14341274 -0.51910532 -1.7984449
0.055916071 -0.62347448 -2.0259893
0.11077642 -0.28280017 -1.5561618
-0.47342607 -1.2559234 -5.4736376
0.50516498 0.11591855 0.38777196
0.50066084 0.30898046 0.67516184
0.7574029 0.19665021 1.488157
0.53404713 0.1226629 0.7315563
0.53657043 -0.17458713 0.70826662
0.56026471 0.26952454 0.65301216
0.66136622 0.11540155 1.5078576
0.51076263 0.0057378113 0.43087137
0.46319178 0.10862877 0.69533181
0.49428129 -0.077107459 0.67064214
0.49592915 -0.11664528 0.6301415
0.50214916 -0.11613292 0.58992589
0.5075714 -0.15607336 0.58932316
0.51081491 -0.11470559 0.46959662
0.62937242 0.51017654 0.41029716
0.49409226 0.088127956 0.30824482
0.2958506 0.90369093 -1.5309771
0.45150608 0.3530893 -0.052088022
0.22673072 -0.4292762 -0.5401867
0.46818691 -0.64581871 -0.52948046
0.46759313 -0.62825549 -0.54439443
0.23259962 -0.62988746 -0.396153
0.84348369 0.15561095 1.66382
0.73512459 -0.16842332 1.9201872
0.73036706 -0.12783724 1.8632431
0.58507276 -0.67165244 2.0621428
0.67208922 0.87053967 1.4093025
0.68102461 0.87061965 1.4490063
0.65783077 0.79040599 1.4098394
0.65705121 1.3904154 1.6098251
0.71676618 0.87093973 1.6078219
0.65135455 0.91035521 1.3299866
0.63472724 1.362722 1.330456
0.75417209 1.0313044 1.2286834
0.78057271 0.87153316 1.3653667
0.66144186 0.71524447 0.13868862
0.66261005 0.75548387 0.17843062
0.52692002 0.80625796 -0.85786819
0.74397624 1.191228 0.98634768
0.59041029 1.3648221 1.2119747
0.63188124 1.2701966 1.2280188
0.6409176 1.1902748 1.2502306
0.66475058 0.87596154 0.25768054
0.64319795 0.79031885 0.30965376
0.66792613 0.35052571 0.32890165
0.77478856 1.031492 1.2454517
0.7765947 0.99150527 1.285424
0.8909204 1.0725359 1.7015529
0.89199537 1.1125457 1.7415285
0.84245265 0.9770999 1.4431584
0.48399866 1.2344078 0.14161968
0.50117147 1.1151916 0.26182306
0.50714427 1.1090893 0.29445243
0.50428039 1.1490648 0.29454422
0.26170087 1.3836448 -1.5126879
0.26315027 1.3839004 -1.4702135
0.30585483 1.3845693 -1.3916268
0.22684196 1.3143009 -1.3709972
0.40454438 1.3107557 -0.41646418
0.40683189 1.3085859 -0.78925258
0.39295641 1.3099989 -0.53613615
0.65815187 1.3904566 0.87681055
0.62676483 1.3101777 0.61029136
0.44127607 1.3321748 0.22253722
0.77842587 0.18869358 2.2253189
0.76559943 0.11133737 2.0065393
0.74184996 -0.28415856 1.5410135
0.591672 -0.3142617 0.50489223
0.59865266 -0.31179276 0.38796806
0.74647373 -0.48410764 1.5387149
0.49922618 0.043390796 0.63175797
0.66651958 -0.36542961 1.5825658
0.57487392 -0.076444626 0.68808877
0.74099988 -0.20416793 1.5419011
0.67321879 -0.16668844 1.7045581
0.35157746 -0.51057959 -0.12461126
0.27288097 -0.3498995 -0.35383824
0.63001466 0.089221269 0.18845779
0.63173741 0.0090530813 0.22808224
0.64904767 0.15034562 0.30962646
0.63207155 -0.070945531 0.22773123
0.63379425 -0.15111372 0.26735568
0.68916333 -0.8841815 1.4862115
0.51123309 -0.50859332 -0.42532918
0.79208314 -0.49426439 2.4976947
0.86488992 -0.30741259 2.1771998
0.86542183 -0.2378509 2.2179539
0.78863055 -0.053858578 2.4625199
0.81393552 -0.35147545 1.8181477
0.85553467 -0.26440692 1.8978021
0.88251394 -0.20838702 2.0576348
0.8981185 0.088840038 2.1003571
0.78203589 -0.49348661 2.4179783
0.66040289 -0.45437804 2.3822577
0.79235125 -0.56449199 1.6164315
0.6720463 -0.6462568 1.6594136
0.67704409 -0.52664614 1.7005637
0.39555192 0.27001697 -0.52996659
0.38938665 0.22975408 -0.56953788
0.41884878 0.43082801 -0.4116573
0.38052696 0.22947828 -0.60925788
0.42045003 0.15130544 -0.32998192
0.42796388 0.21045388 -0.28430322
0.44351196 0.20981877 -0.12474805
0.44534081 0.31282642 -0.091659367
0.45482212 0.2335739 0.028565943
0.40636355 0.15053678 -0.44956857
0.40792421 -0.10945743 -0.32498899
0.42968658 0.13028568 -0.24467874
0.43573791 0.21013632 -0.20452565
0.43968457 -0.07019794 -0.12580323
0.43096769 -0.1100601 -0.16569406
0.39898878 -0.23019859 -0.165093
0.36491424 0.30893615 -0.68925124
0.39678523 1.2697829 -0.57604879
0.45349655 0.87215912 -0.21537542
0.45657551 1.0324068 -0.17642081
0.28314289 0.34269777 -1.6872636
0.22410142 1.3163197 -1.4509637
0.37095597 1.0684919 -0.77407604
0.41906878 1.0270791 -1.0556365
0.3764272 0.5089891 -0.69084793
0.41470787 0.95010316 -0.53471273
0.21519901 -0.98298585 -2.1021197
0.18052365 -0.012279227 -2.9723699
0.19073807 -0.052218378 -2.9731007
0.20495801 0.21674347 -3.0782197
-0.096661478 -0.41400871 -2.9539845
0.14184722 0.15170842 -3.40977
0.19963995 0.33804235 -3.1942565
0.13817412 -0.088306248 -3.4118958
0.15667409 -0.16972974 -3.2532003
0.17900792 0.010594755 -3.0121284
0.15879546 -0.050487727 -3.1721025
-0.10474193 0.15831962 -4.2416697
0.040730327 -0.24311924 -4.0103478
0.081175447 -0.52670968 -3.6141584
0.064127564 -0.60680711 -3.6143169
-0.015499383 -0.11846614 -4.5275578
-0.027340889 0.097340256 -4.6806111
-0.0088946223 -0.064056635 -4.4420514
-0.11915466 0.18787849 -4.2900872
-0.42352083 -1.2027197 -5.0271487
0.022915214 0.1485799 -4.2456822
0.028096706 0.46769938 -4.1622496
-0.02582702 0.5272429 -4.7184296
-0.003754288 0.52495575 -4.4390306
-0.026406348 0.44622281 -4.5990124
-0.039035618 0.52922726 -4.9581094
-0.04235214 0.44887561 -4.918643
0.029910684 0.54771364 -4.1614227
-0.037445426 -0.52776289 -3.5725143
-0.38638422 -1.2141459 -5.1086755
-0.033298105 -0.062900901 -4.6413236
-0.0067639351 -1.0941399 -3.9366333
0.043198675 -1.0466774 -3.6427352
-0.1869323 -1.1994381 -4.5317402
-0.14557931 -1.1970798 -4.4931316
-0.1469709 -1.1967045 -4.5331059
-0.23358342 -1.0491349 -3.5455656
-0.13910797 -1.052585 -3.1311154
-0.18182608 -1.0121409 -3.2017956
0.70271724 -1.0531402 1.854171
0.66827136 -0.76541007 1.5782068
-0.10096994 -1.1262239 -3.773551
-0.28911415 -1.1262972 -4.0046563
-0.29057208 -1.1296482 -4.0471644
-0.035518587 0.32856756 -4.879858
-0.049067825 0.24885292 -4.9200854
0.076085657 1.0639796 -3.7970824
0.11906114 1.1025264 -3.6381061
0.090119481 1.1027262 -3.6770751
0.50895047 1.0691024 0.33442473
0.50545979 1.0759144 0.38198495
0.50971615 1.0691026 0.49450088
0.57264966 0.54965538 0.51239479
0.6275444 0.71016818 0.41030562
0.49138796 0.51468074 0.18572253
0.47651777 0.67390746 0.065199852
0.46141309 0.23430733 0.14840859
0.46235153 0.27407736 0.10811329
0.36639199 0.74870646 -0.73197198
0.36869457 0.78871703 -0.73229134
0.37078407 0.59349376 -0.77121186
0.20063932 0.45332184 -1.0847541
0.19952008 0.40308273 -1.1244376
0.25704485 -0.068113089 -0.77485114
0.23969093 0.22694328 -0.92462856
0.28618535 0.013341144 -1.0782028
0.30091795 0.10606087 -1.1261104
0.20351867 0.26617306 -1.0261917
0.20288512 0.27356759 -1.0437251
0.25346529 0.70677108 -0.96801001
0.33567211 0.7041133 -1.491111
0.16436811 -0.78684092 -1.1561649
0.17020273 -0.95215046 -1.0807722
0.30936167 -1.0289407 -0.54059827
0.33024472 -1.0264357 -1.0916497
0.23692085 -0.90773964 -0.88277888
0.42786494 -0.70841658 -0.54585612
0.46510699 -0.57298088 -0.60911334
0.49625167 0.94896519 0.71516311
0.49100775 1.1089284 0.61023819
0.49441841 1.1949252 0.22154969
0.48782831 1.3089211 0.29509127
0.62640381 1.1501727 0.4902724
0.71883786 1.190972 1.6076555
0.6217165 1.1901367 0.37035215
0.25348443 -1.0846412 -1.0041783
0.83844614 0.67201144 2.3652372
0.84914267 0.63210416 2.4436643
0.75034338 1.4012382 2.3269267
0.82987213 1.151958 2.2490835
0.82923096 1.2319554 2.2515852
0.80284679 1.2717229 2.0849161
0.82239377 1.1918997 2.0517135
0.80254221 1.0317101 2.084996
0.81714433 1.2318503 2.1244383
0.85083145 0.9521364 2.3634598
0.87050843 0.91230953 2.4828401
0.84587407 0.83208442 2.4036989
0.82575327 1.1519222 2.2042027
0.94998574 1.0330521 2.2197726
0.87519574 0.87234569 2.6027603
0.86628222 0.71226084 2.5230756
0.75971723 0.80884159 1.3261104
0.59518421 0.3498522 0.53165293
0.78475523 0.74903917 2.005666
0.77929199 1.0315044 1.92573
0.76245707 1.1913606 1.8462391
0.89253283 1.1325506 1.7615163
-0.041127115 1.2471592 -4.7118864
-0.044911504 1.2868023 -4.6714005
0.18926042 1.2860366 -2.1475356
0.14855981 1.3282852 -2.1555831
0.19160333 1.3102529 -2.0772996
0.25023383 1.2606646 -2.0118566
0.16139682 1.3396467 -2.1118617
0.21306582 1.3393945 -1.7709179
0.21167718 1.3441538 -1.8109232
-0.051636636 0.96814275 -4.8339338
-0.024025679 0.76656401 -4.6364408
-0.04140389 0.96750569 -4.75424
-0.03771162 0.76990628 -5.0361924
-0.046887696 0.85020554 -5.0752316
-0.034818441 0.72923958 -4.9565816
-0.033293873 0.68890703 -4.9169464
-0.1048215 0.96995962 -5.072247
-0.031171143 0.96686864 -4.6745458
-0.02464956 0.92655706 -4.6350813
-0.027663529 0.64757192 -4.7573853
-0.02625683 0.92757022 -4.7550926
-0.039226741 0.92887568 -4.9147367
-0.026578188 0.88892972 -4.915504
0.035445154 0.94729376 -4.1171336
0.043089688 0.94652951 -4.0448685
-0.015390784 0.88557708 -4.5156665
-0.0003169775 0.9249593 -4.4358039
-0.00016099215 0.88496101 -4.4361434
0.0074699819 1.029338 -4.3153405
-0.0029467344 1.0301634 -4.395009
0.15024731 0.35302788 -3.4474699
-0.018407285 0.37855452 -3.4009907
-0.0041226447 0.37733305 -3.2839408
0.14601746 0.42163688 -3.546622
0.14221528 0.44025093 -3.6463482
0.036368161 0.54731208 -4.121634
0.031870931 0.14820078 -4.2059846
0.04162392 0.19802397 -4.1263142
0.060504675 0.1977509 -4.0869484
-0.048918307 0.73020029 -5.0761652
-0.067417026 1.0494342 -4.9928131
-0.06992498 0.93078673 -5.1538186
-0.05349201 0.85119772 -5.1950717
0.033538669 0.70774209 -4.1597681
0.060922086 0.8652271 -3.9188352
0.067379564 0.86482561 -3.8790467
0.14009839 0.68772566 -3.6435072
0.083819151 0.74405718 -3.8009377
0.079849035 0.62402457 -3.8021331
0.046980739 0.98601782 -3.997035
0.038720131 1.0268617 -4.0763354
0.037693769 1.1468494 -4.0749578
0.1427241 0.94044554 -3.440635
0.19180301 0.8999238 -2.0877397
0.18565223 0.32660282 -2.2081542
0.18051636 1.1690338 -2.4162176
0.80842644 0.47173375 2.245048
0.27073005 0.74170053 -1.849337
0.25299597 1.301614 -1.8521012
0.23035686 0.94198835 -2.2029161
0.15755251 1.1290872 -2.4383407
0.14784832 1.0068781 -2.2542157
0.22218437 0.53983444 -2.1266336
0.51701701 0.092595413 -0.68814147
0.44542053 0.7118879 -0.25415939
0.42056361 0.59083515 -0.41267866
0.38856179 0.62951374 -0.61193931
0.39992002 0.62980127 -0.57230467
0.54470384 0.052078679 -0.54418635
0.63090199 0.20904957 0.22895986
0.62673634 0.20955835 0.10903329
0.62225658 0.2748287 0.10265207
0.39551073 0.50978124 -0.57143193
0.92383885 1.312829 2.1205699
0.95370996 0.79307437 2.2622349
0.91634321 0.83273101 2.3461235
0.90225935 0.79259992 2.3616524
0.45946586 0.95242083 -0.17603815
0.85374576 0.5296759 1.6430092
0.79414701 1.351662 1.7249732
0.8082456 1.271813 1.1240993
-0.32387415 1.3877699 -5.5015268
-0.27981159 1.3919346 -5.382926
-0.12284246 1.0936202 -5.510869
-0.1285015 0.97325993 -5.4716568
0.27521434 0.6624245 -1.7289411
0.25659323 0.61460316 -1.7680418
0.13164869 0.52307993 -1.9233234
0.16735859 0.56720299 -2.9253242
0.17446265 0.41844618 -3.2474785
0.10889629 1.1704874 -2.5962167
0.33267024 0.21766923 -2.019526
0.34597075 0.12592793 -1.6053391
0.38341132 0.32363734 -1.6105225
0.1995713 0.13374549 -1.252292
0.060704499 0.18478285 -3.8863966
0.068975955 0.26439556 -3.8457808
0.063544869 0.14480934 -3.8869469
0.057087392 0.14521086 -3.9267356
0.048131675 0.14558995 -3.9664333
0.17666779 0.13617578 -3.0505652
0.096143603 -1.0657566 -2.0392692
0.32144982 0.24618645 -2.0714121
0.22679563 0.059935838 -2.1327562
0.3118071 0.099664882 -2.0552907
0.052278787 -0.10247383 -2.0684214
0.079162836 -0.10130647 -2.0891047
0.22745752 -0.060056895 -2.1339059
0.74352312 0.41365325 1.8871703
0.91444445 0.23269719 2.1412311
0.49899238 0.35588816 0.38653851
0.47236407 0.50873774 0.49600768
0.50369316 0.20477192 0.51328349
0.50776649 0.18904804 0.49482358
