ply
format ascii 1.0
comment PCL generated
element vertex 853
property float x
property float y
property float z
element camera 1
property float view_px
property float view_py
property float view_pz
property float x_axisx
property float x_axisy
property float x_axisz
property float y_axisx
property float y_axisy
property float y_axisz
property float z_axisx
property float z_axisy
property float z_axisz
property float focal
property float scalex
property float scaley
property float centerx
property float centery
property int viewportx
property int viewporty
property float k1
property float k2
end_header
0.26148129 -1.0731517 0.37952858
0.30122042 -0.94281536 0.38124281
0.31461859 -0.83527887 0.38299042
0.30016613 -0.75311536 0.38475001
0.30025673 -0.69788301 0.3857643
0.27797461 -0.47415668 0.39026216
0.30323505 -0.39636043 0.3912589
0.3270936 -0.31626594 0.392322
0.33718538 -0.27270439 0.39294976
0.67048931 0.10858718 0.39423445
0.21493483 -0.19379525 0.39650214
-0.17737103 0.0050207078 0.40690109
-0.18502903 0.14549577 0.40961641
-0.2266469 0.33007365 0.41372651
-0.22728634 0.40254593 0.41507044
-0.25393486 0.50404048 0.41739517
-0.23095512 0.64595908 0.41961047
0.33045244 0.62978798 0.4096646
0.37064981 0.59001476 0.40824223
0.40372658 0.55054897 0.40694788
0.42801142 0.63073808 0.40800542
0.43334341 0.78999603 0.41084293
0.44666624 1.3414551 0.4207567
0.45490074 1.3514953 0.42079982
0.39953423 1.3583244 0.42187697
0.35952663 1.3604721 0.42260405
0.31954145 1.3601207 0.42328477
0.27957726 1.3572701 0.4239192
0.23959208 1.3569186 0.42459992
0.16263533 1.3592024 0.4259645
0.12598419 1.3615663 0.42663789
0.079672813 1.3530138 0.42727649
0.0062346458 1.351289 0.42850691
-0.073933601 1.3556921 0.42996567
-0.15389776 1.3528427 0.43128753
-0.1938858 1.3526673 0.43197155
-0.34150934 1.3895031 0.43518615
-0.3537097 1.3898752 0.43540266
-0.52744102 1.3182781 0.43707159
-0.56917238 1.3142039 0.43771386
-0.60704565 1.3132416 0.43834704
-0.68910599 1.3062257 0.4396283
-0.72769022 1.307197 0.44030929
-0.76669359 1.3028159 0.44089904
-0.80905867 1.303246 0.44163504
-0.84526587 1.3036271 0.44226432
-0.86552334 1.303335 0.4426071
-0.88833284 1.3034914 0.44300199
-0.92621565 1.3050283 0.4436813
-0.96901941 1.3051049 0.44441834
-0.92832041 1.3033313 0.44368628
-0.88727045 1.3018413 0.44295338
-0.84901714 1.2955879 0.44218093
-0.80728531 1.2996621 0.44153866
-0.76624584 1.3006703 0.44085187
-0.72943401 1.303284 0.44026729
-0.68733215 1.3026417 0.43953192
-0.40348768 0.93084562 0.42781544
-0.42642641 0.86520779 0.42700243
-0.44274759 0.74573666 0.42508554
-0.44258976 0.70574772 0.42434734
-0.44227505 0.62576973 0.42287093
-0.42266798 0.54530627 0.42105404
-0.44382954 0.38582611 0.41848448
-0.44130421 0.34574109 0.41770381
-0.44090176 0.26583391 0.41622719
-0.4230423 0.20513213 0.4148038
-0.41523933 0.1251829 0.41319922
-0.41523647 0.10601354 0.4128466
-0.36102867 -0.075751618 0.40857187
-0.36084986 -0.088145182 0.40834084
-0.26155806 -0.19526429 0.40466419
-0.24201727 -0.61507833 0.39660692
-0.26263237 -0.63740551 0.39655057
-0.48090601 -1.0590057 0.39254755
-0.51804876 -1.0667639 0.39304322
-0.5580163 -1.0719217 0.39363521
-0.60081005 -1.0744793 0.39432365
-0.61119175 -1.0752296 0.39448828
-0.68095112 -1.0774471 0.39564639
-0.69327164 -1.077347 0.39585996
-0.72006178 -1.0768569 0.3963294
-0.73005867 -1.0768967 0.39650047
-0.79624987 -1.0765377 0.39764464
-0.82792377 -1.0754962 0.39820817
-0.83792019 -1.075536 0.39837924
-0.91790581 -1.0733553 0.39979398
-0.99788046 -1.0736738 0.40116259
-1.037868 -1.0738332 0.40184689
-1.0778661 -1.0714931 0.40257734
-1.1175923 -1.0688827 0.40330809
-1.1585622 -1.0674126 0.40403926
-1.2375653 -1.0668495 0.40540737
-1.2778533 -1.0597932 0.40622956
-1.3578577 -1.052614 0.40773657
-1.3978553 -1.050274 0.40846702
-1.4782691 -1.0483367 0.40988463
-1.558537 -1.0440129 0.41134366
-1.5981057 -1.0387988 0.41211963
-1.6378303 -1.0387332 0.41280353
-1.6778181 -1.0388925 0.41348785
-1.7578032 -1.0367119 0.41490257
-1.7984922 -1.0374706 0.4155879
-1.8398728 -1.0413284 0.41622815
-1.8777463 -1.0421883 0.41686323
-1.9177341 -1.0423474 0.41754752
-1.9584329 -1.0406072 0.41827899
-1.9995499 -1.0414587 0.41896999
-2.041224 -1.0408247 0.41969785
-2.0791168 -1.0366859 0.42042521
-2.2006497 -0.99587524 0.4232645
-2.402488 -0.69235933 0.43231577
-2.4027629 -0.6223796 0.43360761
-2.3602402 -0.37179396 0.43748569
-2.3604109 -0.36190927 0.43767044
-2.3582704 -0.32444227 0.43832278
-2.3586748 -0.3203038 0.43840584
-2.4404316 -0.31712842 0.43986934
-2.5203874 -0.32244551 0.44114566
-2.5621207 -0.32382876 0.44183746
-2.6003628 -0.3227641 0.44251427
-2.6633348 -0.31399733 0.44375777
-2.7060316 -0.31807548 0.44441655
-2.7439766 -0.31782246 0.44507334
-2.7832873 -0.31702209 0.44576365
-3.1060219 -0.00058892369 0.45713025
-3.1066902 0.005992502 0.45726278
-3.188097 0.096636176 0.46032903
-3.228219 0.126445 0.46156684
-3.2681515 0.11377722 0.46202013
-3.351903 0.093972564 0.46309522
-3.6844506 -0.0011186898 0.46706149
-3.7041483 -0.00077947974 0.46740624
-3.7453256 -0.030331865 0.46757039
-3.7577658 -0.042880699 0.46755338
-3.9873624 -0.32112661 0.46638164
-4.1473141 -0.32182783 0.4691177
-4.227324 -0.31468201 0.47062418
-4.3070211 -0.32972056 0.47171727
-4.3465433 -0.32922512 0.47240561
-4.3871975 -0.33287492 0.47303718
-4.346745 -0.36975491 0.47166365
-4.2613416 -0.65834892 0.46488792
-4.2695642 -0.72481418 0.46380675
-4.5407863 -1.0688336 0.46214065
-4.5838327 -1.0709004 0.46284243
-4.6221056 -1.0736344 0.4634499
-4.6637974 -1.0737498 0.46416432
-4.704452 -1.0773997 0.46479589
-4.7413697 -1.0781822 0.46541595
-4.8220563 -1.0720119 0.46691614
-4.8637261 -1.0771253 0.46753824
-5.0626535 -1.1519904 0.46958008
-5.0933924 -1.1546564 0.47005934
-5.1000128 -1.1551477 0.47016409
-5.1333847 -1.1549492 0.47074127
-5.173377 -1.1552421 0.47142318
-5.1798153 -1.1552359 0.47153395
-5.2199893 -1.1561593 0.47220743
-5.2533617 -1.1558278 0.47278705
-5.293354 -1.1561205 0.47346899
-5.3394198 -1.1554122 0.47427371
-5.3728881 -1.1556026 0.47484541
-5.4195867 -1.156673 0.47562829
-5.459579 -1.15701 0.47630939
-5.4995713 -1.1573472 0.47699052
-5.5397458 -1.1582705 0.47766396
-5.5799203 -1.159194 0.47833744
-5.6521583 -1.155997 0.47963774
-5.6998973 -1.1602056 0.48038077
-5.7332706 -1.1593416 0.48097023
-5.7796998 -1.1602937 0.48175067
-5.8132558 -1.1599274 0.48233408
-5.899859 -1.1618915 0.48378634
-5.9398513 -1.1622286 0.48446745
-5.9791145 -1.1602211 0.48517916
-6.0198565 -1.160404 0.48587599
-6.1792579 -1.1624932 0.48857707
-6.2192507 -1.1628305 0.4892582
-6.2596078 -1.16434 0.48992401
-6.2931643 -1.1634412 0.49051726
-6.3597517 -1.1451893 0.49199733
-6.4923182 -1.1171596 0.49479118
-6.6537161 -1.0786023 0.49827418
-6.7402315 -1.0809137 0.49971852
-6.7727203 -1.0872707 0.50015998
-6.8536429 -1.0850649 0.50159127
-6.8927155 -1.08565 0.50225204
-6.9401727 -1.0850989 0.50307781
-6.9799824 -1.0848498 0.50376654
-7.0136123 -1.0862362 0.50431901
-7.053587 -1.0890284 0.5049547
-7.0997772 -1.0852752 0.50581753
-7.1395869 -1.0850261 0.50650626
-7.3841877 -1.1886743 0.50880367
-7.4114523 -1.2213662 0.50867099
-7.5380306 -1.2734503 0.50988841
-7.641202 -1.2386882 0.51230091
-7.8712606 -1.2909657 0.51529324
-7.9112892 -1.286265 0.51606762
-7.9559655 -1.2814448 0.51692408
-7.9783411 -1.2812562 0.51731211
-7.9955306 -1.2804682 0.51762199
-8.0355101 -1.2807339 0.51830423
-8.0553989 -1.2805665 0.5186491
-8.1349564 -1.2798958 0.52002877
-8.2356806 -1.2982205 0.52142274
-8.2754221 -1.3028835 0.52201998
-8.3779678 -1.3243021 0.52338845
-8.475316 -1.3246471 0.52505517
-8.6741772 -1.4046273 0.52700174
-8.7540417 -1.4048785 0.52836972
-8.914032 -1.3690313 0.53177863
-8.9177818 -1.36906 0.53184259
-9.1963596 -1.1012049 0.54155678
-9.2761126 -1.1036747 0.54288203
-9.3569517 -1.1068513 0.54421288
-9.4120522 -1.0922768 0.54542792
-9.5922222 -1.0932643 0.5485062
-9.7123337 -1.1072218 0.55031377
-9.832222 -1.1206114 0.5521279
-9.875906 -1.120759 0.55287594
-9.9163065 -1.1248465 0.55349511
-9.9328556 -1.1280622 0.55372036
-9.9602108 -1.1267946 0.55421382
-9.9962921 -1.1254585 0.55485851
-10.032635 -1.1232357 0.55552399
-10.080223 -1.1226671 0.55635226
-10.132907 -1.1170549 0.55736095
-10.159549 -1.1165947 0.55782729
-10.172449 -1.1162169 0.55805594
-10.212196 -1.1184461 0.55869806
-10.292616 -1.1226766 0.56000233
-10.332589 -1.1254736 0.56063789
-10.372788 -1.1288384 0.56126684
-10.412592 -1.12357 0.56204784
-10.439959 -1.1197298 0.56258881
-10.823618 -0.98059863 0.5717414
-10.841201 -0.98093247 0.57203746
-10.856112 -0.98083454 0.57229549
-10.881065 -0.91993046 0.57384455
-10.881313 -0.9179827 0.57388467
-10.894335 -0.85693961 0.57523113
-10.900057 -0.74066132 0.57746816
-10.895502 -0.6970228 0.57819247
-10.883224 -0.66079879 0.57864773
-10.897294 -0.39872426 0.58370978
-10.898294 -0.3376269 0.58485067
-11.079792 -0.017110378 0.59386504
-11.020281 0.017758042 0.59348363
-10.870081 0.27977568 0.59572142
-11.061837 0.59937513 0.60489523
-11.110926 0.63622892 0.6064167
-11.143545 0.67632204 0.60771471
-11.161785 0.75582027 0.60949039
-11.173692 0.81643546 0.61080986
-11.1796 0.83622217 0.61127532
-11.185022 0.85812235 0.61177135
-11.185439 0.91560519 0.61283571
-11.180731 0.9556309 0.613491
-11.17326 0.99623096 0.61410928
-11.164392 1.1157144 0.61615455
-11.132189 1.1559453 0.61634099
-11.037235 1.1971987 0.61546791
-10.986794 1.2086809 0.6148122
-10.935587 1.2152683 0.61405325
-10.866552 1.23541 0.61323726
-10.827936 1.2531941 0.61290073
-10.787178 1.2576599 0.6122824
-10.747221 1.262957 0.61169314
-10.667698 1.2904902 0.61083281
-10.627182 1.2919008 0.61016244
-10.344862 1.3223321 0.60587019
-10.337151 1.3254373 0.60579473
-10.268291 1.3279097 0.60465682
-10.251021 1.3224858 0.60426021
-10.096737 1.29524 0.60110754
-10.050313 1.2997613 0.60039282
-9.93048 1.3206471 0.59871751
-9.8501434 1.3043489 0.59703708
-9.757309 1.3016055 0.59539115
-9.7303734 1.3021401 0.59493804
-9.6890106 1.3035482 0.59425306
-9.6370831 1.3005283 0.59330511
-9.5703869 1.3008301 0.5921644
-9.4890127 1.3000363 0.59075129
-9.4503736 1.2967235 0.59002632
-9.4090519 1.2980191 0.58933997
-9.3692436 1.2978275 0.58865231
-9.3303604 1.292617 0.58788818
-9.2491941 1.2887225 0.58642161
-9.2091827 1.2865206 0.58569348
-9.1297216 1.2959087 0.58450055
-9.0947466 1.298668 0.58395022
-9.0872478 1.2987238 0.58382237
-9.0764427 1.2987492 0.58363712
-9.0094833 1.2924041 0.58236963
-8.9302998 1.2985033 0.58112097
-8.9177303 1.2987841 0.58091009
-8.809782 1.2982873 0.57904577
-8.7697897 1.2985846 0.5783639
-8.7464705 1.2961457 0.57791829
-8.6502094 1.2907755 0.57616514
-8.5703964 1.2832708 0.57465541
-8.5304222 1.2860675 0.57401985
-8.4763994 1.2806103 0.57299101
-8.5163918 1.2803199 0.57367301
-8.5972843 1.2750343 0.57496601
-8.6903019 1.2723819 0.57651585
-8.7167635 1.2702678 0.57693177
-8.7569876 1.269426 0.57760757
-8.8102608 1.2689908 0.57851511
-8.8502712 1.2711927 0.57924324
-8.8902817 1.2733945 0.57997137
-8.9169922 1.2732633 0.580428
-8.9691391 1.2758085 0.58137101
-8.996994 1.2751821 0.58183825
-9.0772448 1.2790486 0.58328855
-9.1165257 1.2779133 0.58394277
-9.1962795 1.2778842 0.5853129
-9.2367516 1.2789903 0.58602881
-9.3171644 1.2723081 0.5872879
-9.3567295 1.2781192 0.58807474
-9.4488945 1.2828392 0.58974552
-9.51618 1.2913221 0.5910579
-9.5328302 1.2923615 0.59136319
-9.5701065 1.293934 0.59203279
-9.6091614 1.2910451 0.59265083
-9.6767902 1.2932918 0.59385443
-9.7163391 1.2966036 0.59459502
-9.769392 1.2942525 0.59546357
-9.8769779 1.2862211 0.59716487
-9.937088 1.2753042 0.59799713
-9.9768677 1.2780646 0.59873152
-10.036882 1.2801304 0.59980094
-10.327057 1.1219661 0.60187894
-10.330729 1.1230325 0.60196161
-10.688441 1.1604261 0.60879713
-10.732283 0.60719067 0.59937519
-10.722233 0.59976542 0.5990659
-10.732161 0.58969575 0.5990513
-10.837281 0.32009697 0.59589934
-10.83667 0.1995804 0.59367222
-10.407494 -0.098063916 0.58082187
-9.8450623 -0.25389719 0.56828964
-9.8375626 -0.25383985 0.56816185
-9.4148083 -0.044699416 0.56474292
-9.4006767 0.097677588 0.5671187
-9.3830948 0.098033309 0.56682312
-9.3248882 -0.0034735501 0.56395578
-9.1640377 -0.15563247 0.55839276
-9.036561 -0.2828393 0.55386227
-9.0330601 -0.28959411 0.55367786
-9.0312643 -0.32403982 0.55301344
-9.0386906 -0.33409265 0.55295622
-9.1173124 -0.48393369 0.55155146
-9.1187782 -0.60349071 0.54937768
-9.1174459 -0.64886308 0.54852027
-9.116128 -0.76754141 0.54631484
-9.1096115 -0.80280751 0.54555422
-8.8361406 -1.1078072 0.53524458
-8.752409 -1.1150709 0.53367192
-8.7124166 -1.1147732 0.5329901
-8.5517426 -1.1576105 0.52944082
-8.4719849 -1.1474082 0.52825773
-8.4321985 -1.1501777 0.52752304
-8.3120508 -1.1412188 0.52562296
-8.1960211 -1.135402 0.52373582
-8.152379 -1.1305984 0.52307415
-8.0760994 -1.1269867 0.52182961
-8.0326443 -1.1277738 0.52106833
-7.9926705 -1.1249766 0.52043277
-7.9529581 -1.117749 0.51988316
-7.8728557 -1.1015902 0.51880372
-7.8331065 -1.0993609 0.51816159
-7.7933402 -1.099631 0.51747316
-7.7533655 -1.0968339 0.5168376
-7.7133913 -1.0940368 0.51620209
-7.6334243 -1.0909421 0.51488465
-7.612596 -1.0884216 0.51457304
-7.5726032 -1.0881288 0.5138911
-7.5123196 -1.0872099 0.51287198
-7.4923935 -1.0869913 0.51253355
-7.4535465 -1.0869582 0.51186651
-7.4135537 -1.0866652 0.51118457
-7.3795409 -1.0870494 0.51059294
-7.292675 -1.0835795 0.50916386
-7.2535844 -1.085494 0.50845689
-7.2195716 -1.0857005 0.50786853
-7.173635 -1.0799098 0.50718558
-7.0996151 -1.0821898 0.50587147
-7.0196304 -1.0815153 0.50450927
-6.9732046 -1.0798413 0.50374216
-6.9396458 -1.0808409 0.50314707
-6.8532624 -1.0739644 0.50178891
-6.7767057 -0.50459588 0.51094532
-6.8698378 -0.46618134 0.51325244
-6.9379182 -0.44778487 0.51476085
-7.2250719 -0.43648964 0.51990366
-7.2969475 -0.44821322 0.52092332
-7.3423643 -0.38856018 0.52280104
-7.2978592 -0.38433573 0.52211386
-7.2653322 -0.38125777 0.52161145
-7.0536656 -0.35123444 0.5185259
-7.0256848 -0.34174636 0.51821953
-7.0188899 -0.34145367 0.51810813
-6.9858751 -0.34199536 0.5175308
-6.9384546 -0.33976448 0.51675683
-6.9057288 -0.33823556 0.51622254
-6.8589377 -0.3377831 0.5154267
-6.5883212 -0.10769816 0.51500767
-6.5534091 -0.065610781 0.51518178
-6.501204 0.015439928 0.51577526
-6.3408561 0.078812122 0.51418507
-6.2700596 0.1127612 0.51359278
-6.1707044 0.059913248 0.51091325
-5.8610597 0.071627945 0.5058071
-5.4200044 -0.11814649 0.49473658
-5.3800125 -0.11785369 0.49405468
-5.222476 -0.093655467 0.49179229
-5.1864171 -0.07656455 0.49148691
-5.1464181 -0.078888044 0.49075675
-5.0681467 -0.078477636 0.4894191
-5.0283027 -0.093600109 0.48845622
-5.0273695 -0.10231473 0.48827988
-5.0279346 -0.12827852 0.48781207
-5.027997 -0.13339812 0.48771897
-5.0477271 -0.17334476 0.48732334
-5.0674572 -0.21329142 0.48692769
-5.1063552 -0.35731041 0.48494732
-5.1061897 -0.37473166 0.48462406
-5.1059418 -0.41497564 0.48387963
-5.0969558 -0.49438733 0.48226458
-5.0689263 -0.61420977 0.47957903
-5.0562506 -0.65413588 0.47862685
-4.7403989 -1.0667232 0.46561003
-4.7000718 -1.0660602 0.46492916
-10.802014 -0.81993043 0.5743252
-10.77511 -0.67218125 0.57658029
-10.76306 -0.62080663 0.57731813
-10.764048 -0.59830773 0.57774889
-10.797324 -0.41999233 0.58160049
-1.3558586 -1.1361976 0.40616488
-1.3958459 -1.1363529 0.40684927
-1.6396322 -1.0475583 0.41267219
-1.7213032 -1.044549 0.41413113
-1.7596145 -1.0430257 0.41481757
-1.7974877 -1.0440316 0.41544998
-2.0152061 -1.1226017 0.41774663
-2.0397601 -1.1223265 0.41817367
-2.0633929 -1.1233904 0.41856027
-2.1204805 -1.1232822 0.41954339
-2.1597226 -1.1228044 0.42022657
-2.1826544 -1.1232687 0.42061216
-2.2004118 -1.1235633 0.42091191
-2.2208443 -1.1240177 0.42125472
-2.2541568 -1.1249269 0.42181051
-2.2787111 -1.1246805 0.42223704
-2.2991433 -1.1251018 0.42258045
-2.4793735 -1.0508213 0.42704412
-2.5193613 -1.0509766 0.4277285
-2.5579264 -1.0550314 0.42831671
-2.5993366 -1.0512874 0.42909724
-2.7560408 -1.0844605 0.43118027
-2.8795445 -1.1204834 0.43264025
-2.9020374 -1.1205823 0.433025
-2.9409676 -1.1192327 0.43371889
-3.0608838 -1.1398104 0.43540132
-3.102226 -1.1419371 0.43607271
-3.1411986 -1.1406486 0.43676621
-3.2218516 -1.1419749 0.43812793
-3.2621784 -1.1426383 0.4388088
-3.3038597 -1.1452527 0.43947706
-3.3625765 -1.1235738 0.44088489
-3.4233365 -1.1023231 0.44231999
-3.5044067 -1.0866456 0.44400162
-3.7004089 -1.1296332 0.44657952
-3.7813447 -1.1439415 0.44770733
-3.9846797 -1.0717454 0.45252973
-4.0240126 -1.0659475 0.45331237
-4.0619693 -1.0631955 0.45401531
-4.1022954 -1.063859 0.45469615
-4.142272 -1.0665331 0.45533401
-4.2246075 -1.0727973 0.45663384
-4.3421898 -1.0724072 0.45866179
-4.3838596 -1.0775204 0.45928389
-4.4638352 -1.0778711 0.46065193
-4.5017915 -1.0751191 0.46135488
-4.5414519 -1.0723081 0.46208817
-4.5804243 -1.0710196 0.46278167
-4.6204014 -1.0736936 0.46341953
-1.3158708 -1.1360421 0.4054805
-1.119678 -1.0755301 0.40322167
-1.0396838 -1.0802181 0.40176067
-0.99969625 -1.0800626 0.40107629
-0.96067953 -1.0809114 0.40039012
-0.91689539 -1.0825521 0.39960748
-0.83973598 -1.0819404 0.39829266
-0.79833555 -1.0831852 0.39755824
-0.75976038 -1.0816298 0.3969239
-0.67977571 -1.0838182 0.395509
-0.67695999 -1.0841192 0.39545506
-0.64077806 -1.0796372 0.3949157
-0.5948205 -1.0784895 0.39414695
-0.55632401 -1.0756054 0.39353839
-0.51874018 -1.0698628 0.3929981
-0.47919321 -1.0674958 0.39236197
-0.29863167 -1.1139736 0.38840395
-0.28402138 -1.1225443 0.38799524
-0.2643218 -1.1224829 0.38765779
-0.24153471 -1.1220894 0.3872734
-0.22374582 -1.1217495 0.38697395
-0.20095873 -1.121356 0.38658956
-0.18258142 -1.1207108 0.38628557
-0.12008524 -1.1161467 0.38529545
-0.10044193 -1.1163495 0.38495412
-0.077598095 -1.1159766 0.38456839
0.17675018 -1.0920174 0.38063779
0.25728226 -1.1160023 0.37881261
-4.7110524 1.3073235 0.50877041
-4.75104 1.3071482 0.50945443
-4.8309937 1.3018 0.51073015
-4.8716812 1.3056467 0.51150018
-4.9109697 1.3014494 0.51209819
-4.952312 1.2993227 0.51276958
-4.9909453 1.3010987 0.51346624
-5.0309339 1.3009235 0.51415026
-5.1108985 1.298074 0.51547211
-5.1508751 1.2953999 0.51611
-5.1922288 1.2957721 0.51682752
-5.2400689 1.2860205 0.51747036
-5.2650437 1.2833081 0.51784968
-5.3205876 1.283625 0.51881015
-5.3999972 1.2796575 0.5201019
-5.4799614 1.276476 0.52141768
-5.5098667 1.276571 0.52193338
-5.5599661 1.278293 0.52282608
-5.5905275 1.2742721 0.52327734
-5.6298256 1.2731783 0.52393264
-5.6801004 1.2741992 0.52481544
-5.709621 1.2781492 0.52539539
-5.749424 1.2834177 0.52617639
-5.7999411 1.2787455 0.52695864
-5.8399334 1.2784044 0.52763969
-5.9198766 1.2727236 0.52890909
-5.9598694 1.2723824 0.52959013
-5.9998612 1.2720412 0.53027117
-6.029767 1.2727001 0.5307973
-6.1100674 1.2840331 0.53238577
-6.1199622 1.2860132 0.53259224
-6.1503577 1.2931645 0.53324616
-6.2401257 1.307483 0.5350523
-6.4304309 1.3085749 0.53834301
-6.5500202 1.2857561 0.53997856
-6.639884 1.2840778 0.5414921
-6.6704841 1.2887257 0.54210353
-6.710269 1.291495 0.54283822
-6.759923 1.2905521 0.54367423
-6.7900467 1.2939665 0.54425472
-6.9096899 1.2786455 0.54602915
-6.959959 1.2757791 0.54684037
-6.9896388 1.2730515 0.54730028
-7.0802712 1.2711142 0.54882228
-7.1496081 1.2718604 0.55002761
-7.1900234 1.270498 0.55069715
-7.2293496 1.2693335 0.55135161
-7.2396855 1.2689638 0.55152243
-7.2802324 1.2694086 0.5522275
-7.319869 1.2702097 0.55292338
-7.3493443 1.2709395 0.55344337
-7.3996763 1.2700984 0.55429292
-7.4304562 1.2675048 0.55477422
-7.3904467 1.2653034 0.55404615
-7.3504543 1.265601 0.55336428
-7.3196497 1.2657822 0.55283821
-7.2798562 1.2680516 0.55219603
-7.2697926 1.2679001 0.55202031
-7.2001858 1.2625932 0.55072641
-7.119647 1.2624894 0.54934037
-7.0796752 1.2653298 0.54870564
-7.0272059 1.2682768 0.54785812
-6.999711 1.2685113 0.54738986
-6.9505486 1.271078 0.54659218
-6.9201031 1.2705506 0.54605925
-6.9105558 1.2713759 0.5459103
-6.8801317 1.273391 0.54542452
-6.834311 1.2706938 0.54458743
-6.8001051 1.2690749 0.54396975
-6.7905607 1.2697699 0.54381853
-6.7105761 1.2703654 0.54245484
-6.6803269 1.2720263 0.54196554
-6.6296711 1.2707329 0.54107118
-6.6024652 1.2713302 0.5406146
-6.5905991 1.2712587 0.54040933
-6.5603294 1.2705506 0.5398761
-6.5118818 1.2743442 0.53911322
-6.4706578 1.2771505 0.53845638
-6.4306474 1.274949 0.53772825
-6.4181499 1.2750419 0.53751516
-6.3926945 1.2751142 0.53707904
-6.3499498 1.2722493 0.53629172
-6.310616 1.2683445 0.53554392
-6.2706237 1.2686422 0.53486204
-6.200336 1.2661231 0.53360772
-6.1106544 1.2698332 0.53213471
-6.0704184 1.2681997 0.53141314
-6.030426 1.2684973 0.53073132
-6.0003953 1.2703279 0.53024888
-5.9906769 1.2707266 0.53008914
-5.9497647 1.2707964 0.52938735
-5.9102235 1.2699585 0.52869236
-5.8798637 1.2705655 0.52818173
-5.8306894 1.2694184 0.52731556
-5.7907152 1.2722155 0.52667999
-5.7507048 1.270014 0.52595186
-5.7102613 1.2714473 0.52528316
-5.6707201 1.2706095 0.52458817
-5.5907173 1.2687057 0.52317822
-5.5504994 1.2695713 0.52250296
-5.470758 1.2720983 0.52117896
-5.4307656 1.2723961 0.52049714
-5.3907914 1.2751931 0.51986158
-5.3105807 1.2763563 0.51850444
-5.2701192 1.2752905 0.51778948
-5.1906042 1.2772497 0.51645893
-5.1508369 1.2769797 0.51577055
-5.1097169 1.2801166 0.51512152
-5.0277863 1.2938514 0.51396608
-4.9877992 1.2940115 0.51328182
-4.9078236 1.2943318 0.51191324
-4.827858 1.2971513 0.51059079
-4.7909946 1.2994765 0.50999999
-4.7878804 1.2998108 0.5099526
-4.7072039 1.3006967 0.50858241
-4.6679273 1.3027905 0.5079459
-4.625114 1.3002148 0.50716269
-4.5872407 1.301177 0.50652951
-4.5479541 1.3007715 0.50584686
-4.5079765 1.3034309 0.50520873
-4.4251556 1.2960167 0.503649
-4.3872824 1.2969791 0.50301582
-4.3080187 1.2992328 0.50169498
-4.2680206 1.2968938 0.50096458
-4.2252274 1.2993165 0.5002737
-4.188046 1.297214 0.499596
-4.1080704 1.2975342 0.49822742
-4.0680728 1.2951951 0.49749699
-3.9880977 1.2955152 0.49612841
-3.9481001 1.2931762 0.49539798
-3.9081125 1.2933363 0.49471369
-3.8281469 1.2961558 0.49339125
-3.7881494 1.2938166 0.49266082
-3.7074728 1.2947025 0.4912906
-3.6681962 1.2967962 0.49065408
-3.6274972 1.2950227 0.48992199
-3.5882113 1.2946173 0.48923936
-3.5454178 1.2970401 0.48854846
-3.5061314 1.2966346 0.48786584
-3.4682484 1.2950976 0.48718649
-3.3882828 1.2979171 0.48586404
-3.3482952 1.2980772 0.48517975
-3.307606 1.298803 0.48449382
-3.2741492 1.2997364 0.48393598
-3.2283318 1.2985576 0.48312688
-3.1855383 1.3009806 0.482436
-3.1476552 1.2994435 0.48175666
-3.1083691 1.2990381 0.48107401
-3.0284038 1.3018576 0.47975159
-2.988426 1.3045169 0.47911343
-2.9484379 1.3046771 0.47842914
-2.8684628 1.3049973 0.47706056
-2.828485 1.3076568 0.4764224
-2.7684836 1.3028979 0.47530368
-2.7484901 1.3029784 0.47496155
-2.688508 1.3032181 0.4739351
-2.6656988 1.3030621 0.47354022
-2.6467566 1.3022938 0.47320056
-2.6064284 1.3052355 0.47256157
-2.5685649 1.3086971 0.47197449
-2.5268135 1.3077728 0.47123995
-2.4885895 1.3090174 0.47060591
-2.4489524 1.3088952 0.46992245
-2.4086142 1.3093377 0.46923733
-2.3668728 1.3109124 0.46854892
-2.3286486 1.3121572 0.46791491
-2.2868977 1.3112328 0.46718034
-2.2469196 1.3138922 0.46654218
-2.2086957 1.3151369 0.46590817
-2.1687078 1.315297 0.46522388
-2.1276581 1.313807 0.46449098
-2.0869691 1.3145328 0.46380505
-2.0487351 1.3132781 0.46312487
-2.0091081 1.3156552 0.46248755
-1.967006 1.3150131 0.46175218
-1.925976 1.3185204 0.46111152
-1.8884437 1.3167013 0.46043304
-1.8053215 1.3220658 0.45910314
-1.7660353 1.3216604 0.45842052
-1.7270901 1.3184731 0.45769256
-1.6871021 1.3186332 0.45700827
-1.6460624 1.3196414 0.45632151
-1.6092215 1.3147571 0.4555985
-1.5289054 1.3178591 0.45427525
-1.4885769 1.3208017 0.45363626
-1.4089622 1.3233379 0.45231465
-1.3685942 1.3162835 0.45149112
-1.2868357 1.3105196 0.44997999
-1.2054672 1.3144704 0.44865423
-1.0872283 1.3060392 0.4464671
-1.0472503 1.3086987 0.44582894
-1.0090165 1.3074441 0.44514877
-10.399272 -1.1177852 0.56192529
-10.319269 -1.1197038 0.56051511
-10.240067 -1.1082811 0.55936396
-10.119591 -1.1113058 0.55723786
-9.8060207 -0.68972033 0.5596028
-9.8080378 -0.61543548 0.56100374
-9.8821945 -0.39106351 0.56640494
-9.8597622 -0.29399884 0.56780469
-1.724566 1.3029573 0.45736381
-1.6488292 1.3073813 0.45614356
-1.529197 1.3025808 0.45399925
-1.4874263 1.2966566 0.45317239
-1.4481938 1.298715 0.45253599
-1.4371006 1.2996396 0.45236236
-1.3285277 1.2964492 0.45043772
-1.2485623 1.2992687 0.44911528
-1.2085743 1.2994289 0.44843099
-1.1685772 1.2970897 0.44770056
-1.1289501 1.2994658 0.44706324
-1.0889626 1.2996259 0.44637895
-1.0468798 1.3039824 0.44573581
-1.0093579 1.3046625 0.44510347
-2.2458773 1.3172394 0.46658584
-2.288671 1.3148166 0.46727675
-2.3279474 1.3127229 0.46791324
-2.3658304 1.3142599 0.46859258
-2.4051065 1.3121661 0.46922907
-2.4479103 1.3122424 0.46996611
-2.4878979 1.3120824 0.4706504
-2.5650475 1.3090262 0.4719201
-2.6085525 1.308537 0.47265878
-2.6736746 1.3083392 0.47377434
-2.7116199 1.3085923 0.47443113
-2.7649958 1.3107249 0.47538769
-2.7923064 1.3147625 0.47593132
-2.8316059 1.313064 0.47657549
-2.9115932 1.3152121 0.47798967
-2.9529355 1.3130854 0.47866109
-2.9915469 1.309864 0.47926542
-3.0715227 1.3095134 0.48063344
-3.1114995 1.3068393 0.4812713
-3.1528418 1.3047125 0.48194271
-3.1914752 1.3064888 0.48263934
-3.2314632 1.3063134 0.48332337
-3.2721286 1.3051623 0.48400107
-3.3114393 1.3059628 0.48469138
-3.3514161 1.3032887 0.48532924
-3.3854766 1.30018 0.48585746
-3.4320693 1.3019624 0.48669097
-3.47138 1.3027627 0.48738131
-3.5113683 1.3025874 0.4880653
-3.5920324 1.3037599 0.48947319
-3.6726856 1.3024335 0.49083492
-3.7113192 1.3042098 0.49153155
-3.751307 1.3040344 0.49221557
-3.7940154 1.3024549 0.49292052
-3.8312831 1.3036839 0.49358359
-3.8712711 1.3035084 0.49426761
-3.9119363 1.3023574 0.49494532
-3.991235 1.3029826 0.49631965
-4.0712113 1.3026321 0.4976877
-4.1111989 1.3024566 0.49837172
-4.1911974 1.3071036 0.49983206
-4.231174 1.3044295 0.50046992
-4.271162 1.3042542 0.50115395
-4.311161 1.3065777 0.5018841
-4.3511491 1.3064024 0.50256813
-4.4311252 1.3060519 0.50393617
-4.4711132 1.3058765 0.50462019
-4.5111122 1.3082 0.50535035
-4.5511003 1.3080248 0.50603437
-4.592454 1.3083968 0.50675189
-4.6310763 1.3076742 0.50740236
-4.6710529 1.3049999 0.50804025
-7.7695031 1.2716303 0.56067705
-7.7164211 1.2686312 0.55970961
-7.677372 1.269215 0.55904925
-7.6398077 1.2674805 0.55837172
-7.5964265 1.2670028 0.55761737
-7.5504522 1.2691109 0.55686605
-7.5173845 1.267877 0.55627507
-7.4703646 1.2674199 0.55545855
-7.4504528 1.267356 0.55511516
-7.4795456 1.2694038 0.5556528
-7.47966 1.2694161 0.555655
-7.5291157 1.2771168 0.55664659
-7.5900116 1.2724479 0.55760729
-7.6104536 1.2729119 0.55796713
-7.6502199 1.2732164 0.55865616
-7.6895361 1.2747241 0.55935961
-7.7702332 1.2773228 0.56079429
-7.7969217 1.2744454 0.56120002
-7.8771381 1.2733134 0.56255782
-7.8904181 1.27333 0.56278634
-7.9295082 1.2754395 0.56349695
-7.9304285 1.2755319 0.56351447
-7.9564457 1.2768865 0.56398654
-8.009079 1.2810466 0.56496763
-8.1290379 1.2776554 0.56696689
-8.1694984 1.278654 0.5676806
-8.2504025 1.2781518 0.56906182
-8.2897186 1.2796595 0.56976521
-8.3164301 1.2817715 0.57026315
-8.3701906 1.2828599 0.57120711
-8.3964138 1.281191 0.57162708
-8.4366379 1.2803493 0.57230288
-1.7691526 1.309118 0.4582434
-1.8887944 1.3164178 0.46043384
-1.9287822 1.3162577 0.46111813
-2.2065911 1.316834 0.46590322
-2.166954 1.3167118 0.46521977
-2.1252127 1.3182856 0.46453133
-2.0852251 1.3184457 0.46384704
-2.0480435 1.3163431 0.46316937
-2.0084066 1.3162209 0.46248591
0.33010578 0.6798622 0.41059154
-0.21432114 0.74357551 0.42112002
-0.21207952 0.94501436 0.42478645
-0.15301895 1.0656359 0.42598999
0.16210222 1.3334652 0.4255003
0.20208836 1.3338166 0.42481956
0.40915346 0.79056978 0.41126922
0.3695178 0.74518883 0.41111574
-7.7971354 1.2713948 0.56114757
-7.8099642 1.2726288 0.56139076
-7.8764257 1.2724686 0.56253004
-7.9301667 1.2711351 0.56342912
-7.9571047 1.2702335 0.5638755
-8.0103779 1.2699389 0.5647856
-8.076602 1.2679663 0.56588751
-8.1173058 1.268521 0.56659722
-8.1298857 1.267751 0.56679928
-8.1701031 1.266852 0.56747395
-8.1963825 1.2726454 0.56803215
-8.2764025 1.2770633 0.56948864
-8.2899265 1.2765586 0.5697118
-8.3173199 1.2745671 0.57014591
-8.3703632 1.2747605 0.57106107
-8.3973227 1.2764858 0.57155615
-8.4103727 1.2769624 0.57178921
-8.436389 1.2784014 0.57226276
-8.4501581 1.2797661 0.57252455
0 0 0 1 0 0 0 1 0 0 0 1 0 0 0 0 0 853 1 0 0
