ply
format ascii 1.0
comment PCL generated
element vertex 1408
property float x
property float y
property float z
element camera 0
property float view_px
property float view_py
property float view_pz
property float x_axisx
property float x_axisy
property float x_axisz
property float y_axisx
property float y_axisy
property float y_axisz
property float z_axisx
property float z_axisy
property float z_axisz
property float focal
property float scalex
property float scaley
property float centerx
property float centery
property int viewportx
property int viewporty
property float k1
property float k2
end_header
-0.455562 1.3817158 -4.8399868
-0.47264194 1.3832604 -4.7592893
-0.46909317 0.9606266 -2.1696346
-0.49227503 0.96142364 -2.2563422
-0.4682343 1.3393325 -2.0528548
-0.4718776 1.04126 -2.2261744
-0.48574492 1.3421888 -2.5325332
-0.4726173 1.3406715 -2.1727672
-0.4755393 1.3415642 -2.2527087
-0.41411784 1.3416551 -2.2149251
-0.25605839 1.3355634 0.1845001
-0.20118269 1.3511876 0.16429842
-0.26027626 1.3485719 0.064628363
-0.2609601 1.3461568 0.044629693
-0.16265629 1.3686343 0.12285483
-0.16904853 1.0628905 0.67906773
-0.14459808 1.3605739 1.918905
-0.19705567 1.330855 1.8834717
-0.14750206 1.3630509 1.8389571
-0.14313467 1.3580855 1.958879
-0.37770259 1.3127071 1.2893023
-0.39574328 1.3124118 0.76960945
-0.18330063 1.1027577 0.77963471
-0.17754832 1.3403109 0.99950194
-0.20362425 1.1025693 0.84040618
-0.16946799 1.3428754 1.2243559
-0.18238388 0.98276126 0.77463293
-0.24564046 1.3381807 -4.1825523
-0.32717347 1.3529083 -4.2194366
-0.29171291 1.3696043 -4.3406343
-0.2819894 1.3515702 -2.9801986
-0.32045749 1.3457658 -2.938828
-0.30610192 1.388425 -4.9818072
-0.21800977 1.3446987 -3.422935
-0.22337504 0.24293491 -2.1941376
-0.2432234 0.32249635 -2.1700072
-0.41557884 1.3421015 -2.2548959
-0.21758287 0.96549571 -2.4064407
-0.32859164 0.88427263 -2.3832743
-0.24232355 -0.41052234 -3.4016752
-0.43968523 1.3866959 -4.4150915
-0.39624205 1.3950449 -4.4566154
-0.41415226 1.386752 -4.4010148
-0.4931187 1.3782566 -4.3732047
-0.49500912 1.3863137 -4.4230824
-0.45318961 1.3836147 -4.3746047
-0.39161226 1.3861508 -4.3317928
-0.39197752 1.3862624 -4.3417854
-0.32619619 1.3451301 -4.194541
-0.39782596 1.3856924 -4.2965465
-0.48951629 0.88236934 -2.3373842
-0.50397772 -0.43700829 -3.1926615
-0.44037306 1.3446898 -2.9344568
-0.27910602 -0.53418547 -3.0413218
-0.26479524 -0.51256835 -3.201721
-0.29793534 -0.74428964 -3.042639
-0.26882157 -1.0107082 -3.4013853
-0.26608816 -1.0339106 -3.3266494
-0.27208 -1.0497675 -3.5017037
-0.47764674 1.394774 -4.4936724
-0.48958939 1.3910766 -4.4952049
-0.48814282 1.3707433 -4.4554
-0.49161494 1.3728107 -4.3332915
-0.508596 1.3617404 -4.2527347
-0.44679794 1.3705765 -4.4167919
-0.50541741 1.3308507 -4.1731372
-0.38989437 1.4005296 -4.6820827
-0.38841546 1.3976249 -4.6421371
-0.30201563 1.3924221 -4.8618393
-0.41601485 1.3828341 -4.9214792
-0.38195843 1.3895872 -4.8591261
-0.43275568 1.3960497 -4.7606182
-0.49768397 1.3630832 -4.735311
-0.41768628 1.3953112 -4.4958591
-0.38399589 1.3914102 -4.5222754
-0.33513919 1.3880836 -4.6606174
-0.45639759 1.3779159 -4.6965756
-0.45369941 1.387247 -4.6165404
-0.19135924 1.3376553 2.0484035
-0.21734884 1.3370379 2.1643741
-0.22777666 1.3370476 2.1522286
-0.22024399 1.3623774 2.0417085
-0.25870726 1.3545238 2.0831227
-0.26163408 1.3595006 2.003175
-0.43140709 1.341638 2.0517557
-0.4341633 1.3369772 1.9717827
-0.35424349 1.3448232 1.9690399
-0.45862281 -1.0677748 2.122293
-0.42739412 1.3361505 2.1666634
-0.38444701 1.3309633 2.2502015
-0.34725899 1.3339754 2.1688735
-0.38143045 1.3355922 2.3376701
-0.34306201 1.3259668 2.2887673
-0.26757866 1.3368534 2.1586134
-0.33283129 1.3356599 2.3685021
-0.47888577 -1.0371751 -2.9340692
-0.47959042 -1.0396527 -2.9540594
-0.39830625 -0.71654546 -2.8365827
-0.31654826 -1.1486346 -3.6461782
-0.47895664 -1.1071497 -2.9541574
-0.48480508 -1.1044725 -3.1140475
-0.47596303 -1.1179351 -2.3939071
-0.31360373 -1.1205065 -2.40521
-0.49877575 -1.083149 -2.3930373
-0.31596276 -1.1288234 -3.6259997
-0.33095443 -1.0802864 -3.2797318
-0.20341873 -1.0875571 2.5536065
-0.17464811 -1.0621537 2.2325284
-0.17603672 -1.0619681 2.192553
-0.18574689 -1.0631683 1.9127128
-0.17667931 -1.0727956 1.8820226
-0.26798126 -1.114217 0.11198151
-0.28968644 -1.1144098 0.13524842
-0.28618899 -1.0886179 0.94981694
-0.27124989 -1.0468442 0.80470729
-0.24884672 -1.0525439 0.094611645
-0.24744773 -1.0551796 0.13457847
-0.19178052 -0.69363445 0.05358398
-0.24473347 -1.0404512 0.21458292
-0.31212169 -1.116446 -2.3598478
-0.37780386 -1.1170372 -2.3774688
-0.3007133 -1.0652429 -0.82474744
-0.32626006 -1.0615519 -0.98338729
-0.39590713 -1.0712234 -1.2617356
-0.24072236 -1.0520288 -3.2476506
-0.24616051 -0.97206289 -3.2467105
-0.24164402 -1.0637821 2.359462
-0.20495398 -1.0511221 2.5138044
-0.41170418 -1.068535 2.3207824
-0.35673791 -1.067356 1.5984364
-0.44083467 -1.0721354 1.4812617
-0.33403242 -0.91496235 1.1180606
-0.45339286 -1.0554646 1.1215541
-0.47166216 -0.99977553 0.96234918
-0.39533499 -1.06521 1.6398115
-0.21290916 -1.0670255 2.003309
-0.31396487 -1.0725589 1.6769755
-0.25915903 -1.0753131 1.8045824
-0.49987102 -1.0374918 -0.21681285
-0.4886896 -1.0560772 0.10293043
-0.45486626 0.20144191 0.72719824
-0.49857664 -1.0151279 -0.17675745
-0.49715674 -1.0227635 -0.1368084
-0.49577868 -1.0203992 -0.096823931
-0.492897 -1.0456703 -0.016961098
-0.41708007 -1.0524186 -0.13969052
-0.44714141 -0.19833323 0.68504822
-0.43350884 -0.20558429 0.64451647
-0.43212023 -0.20576997 0.68449187
-0.27170396 -1.0910101 1.404587
-0.50165778 -0.99828863 -2.3127851
-0.50273848 -1.0382425 -2.3528166
-0.47667477 -1.065361 1.6026118
-0.20900224 -1.0758148 2.1231577
-0.20009895 -1.1435758 2.3797908
-0.17742534 -1.0617824 2.1525774
-0.26511738 -1.1145668 0.19443107
-0.34464574 -1.0499989 0.21747971
-0.25126848 -0.67297804 0.21605742
-0.32646888 -1.1135091 -3.9256854
-0.4846926 -1.2003493 -4.234901
-0.23784201 -1.1164131 -2.5278871
-0.2287026 -1.0607787 -2.3275528
-0.22949228 -1.1186652 -2.2880428
-0.48854101 -1.2302055 -4.7525201
-0.45028767 -1.2272933 -4.3962903
-0.44450882 -1.2055705 -4.5060372
-0.50137502 -1.2022911 -4.6240115
-0.46126103 -1.1900767 -4.3619981
-0.44162053 -1.2013487 -4.4260445
-0.35839871 1.3428321 1.8491023
-0.23839889 1.3258516 1.844862
-0.20673373 1.3220423 1.6035991
-0.19614071 1.3651165 1.6005538
-0.23467252 1.3647625 1.6419685
-0.19328241 1.3676393 1.6805019
-0.20134662 1.3613633 1.7636766
-0.43080574 0.30217168 0.78655314
-0.46430266 0.20063606 0.88762069
-0.31439352 -0.19747502 0.61790264
-0.2758227 0.042746753 0.60517097
-0.30973056 0.15473071 0.63875949
-0.39976281 1.3428286 1.8105147
-0.27700606 1.3440338 0.28700089
-0.25471163 1.3453937 0.22451961
-0.31695783 1.3388462 0.2883954
-0.31834647 1.3436054 0.2483902
-0.3569096 1.3336585 0.28978992
-0.31971061 1.3433648 0.2084142
-0.18607748 1.3277426 0.75965738
-0.27034393 1.3269773 0.64261663
-0.38154685 -0.38801268 -1.3393993
-0.46400473 0.21035901 -0.97428465
-0.39700159 0.7035684 -0.97080886
-0.3714937 0.86979926 -0.89287663
-0.23913142 0.73648804 -1.0314271
-0.35622174 0.71390635 -0.94724762
-0.29431519 0.6306107 -1.0053889
-0.24308465 0.56180233 -2.107296
-0.20691721 0.74367106 -1.1126176
-0.29567575 1.3313774 -1.4333173
-0.25706363 1.3313246 -1.4746586
-0.33964649 1.3104684 -1.5517629
-0.50119317 0.20149937 -2.1263483
-0.50479138 0.25836965 -2.2237065
-0.50080609 0.12151406 -2.1364577
-0.17008436 0.90287441 0.67915094
-0.26688763 0.74198663 0.5901258
-0.16370435 1.3909683 0.095239639
-0.20265704 1.3734463 0.12419081
-0.19514696 -0.55171728 -0.3859663
-0.19070525 -0.61880535 0.093888521
-0.19565861 0.21141985 -1.0981481
-0.23659711 0.18543556 0.59946823
-0.49087059 -0.46749216 -1.6160423
-0.47122377 -0.42738965 -1.6215916
-0.42503926 -0.54277551 -1.4584872
-0.43395287 -0.66838109 -1.2985066
-0.44686681 -0.899571 -0.97864819
-0.49018097 -1.0308915 -0.65739477
-0.43372142 -1.0557901 -0.61941606
-0.48091778 -1.0302672 -0.82281482
-0.29840156 -0.42204678 -0.10164821
-0.27065852 -0.35121858 -0.30249316
-0.23983708 -0.42046434 -0.14371014
-0.43016747 1.3440652 -2.6546326
-0.4330467 1.3399584 -2.7346315
-0.40726221 1.3433524 -2.575418
-0.42868507 1.3411191 -2.6146903
-0.42286247 1.3418335 -2.4547784
-0.38289061 1.3421921 -2.4562356
-0.39997858 1.3436205 -2.3755352
-0.31169149 1.3430877 -2.6990032
-0.33314109 1.3433554 -2.7382441
-0.4145458 1.3430845 -2.7753007
-0.31313112 1.3410343 -2.7390027
-0.22500885 -0.18382603 -2.00174
-0.22626503 -0.14465193 -2.0241621
-0.45002535 -0.59720284 -2.7144864
-0.43831247 -0.59696156 -2.8049726
-0.50215304 -0.25831917 -2.2719195
-0.50363803 -0.15830706 -2.2867644
-0.45612425 0.11042576 -1.1195474
-0.45464242 0.15022367 -1.0719008
-0.50392258 -0.11831163 -2.2842081
-0.50405341 0.099120356 -2.2314272
-0.35730019 -0.078906916 -1.1788173
-0.45022467 0.56696373 -0.89267743
-0.42510459 1.3191302 -1.7089947
-0.42783287 1.3186491 -1.7889467
-0.47696277 1.3198338 -1.5689706
-0.38240004 1.3197992 -1.6304082
-0.34980869 -1.1170924 -2.1583428
-0.45449597 -1.1569556 -4.1617923
-0.4077976 -1.1011291 -3.1969023
-0.52207553 -1.0824395 -3.0326123
-0.44194436 -1.1016839 -3.0355527
-0.40562695 -1.0700362 -1.5415642
-0.44860694 0.9414804 0.92996979
-0.45998159 0.34160635 0.88779521
-0.45432043 0.38215771 0.76769722
-0.45304754 0.54286575 0.60823691
-0.46115163 0.42265499 0.64803278
-0.38920799 0.048980467 -0.49713844
-0.2328867 0.34519044 -0.8291657
-0.23027799 0.3227028 -0.82911932
-0.22750746 0.10550978 -0.77787697
-0.30564758 -0.34886932 -0.30126983
-0.26592442 1.3717499 -0.095175028
-0.20679846 1.3827244 0.0042043924
-0.31173402 1.3241005 0.60408318
-0.20942879 1.3622439 -0.075630665
-0.17616303 1.3387295 -0.27674425
-0.16817409 1.3801718 -0.03712225
-0.25235331 1.3890591 -0.15687668
-0.29756618 1.3604248 -0.31275594
-0.3072781 1.3692465 -0.13377368
-0.20979325 1.3892736 -0.15582883
-0.43810856 0.9893409 -0.85128176
-0.18264113 1.3457376 -1.6373808
-0.23917793 1.3397695 -1.7554877
-0.26388434 1.3301218 -1.6745385
-0.26797679 1.3294001 -1.7944665
-0.18677031 1.3525157 -1.7573527
-0.40330276 1.3279791 -1.0694083
-0.30209616 0.14164057 0.57155383
-0.42405346 0.20214623 0.60605741
-0.41656518 0.18302348 0.60544288
-0.45021242 0.70938706 -0.87456286
-0.37863797 1.3098099 -0.3497088
-0.18024322 1.3355079 -0.39665759
-0.40509239 1.326106 -0.6508773
-0.39236513 1.3249038 -0.74957108
-0.38549542 1.3161069 -0.54963267
-0.32969841 1.4223146 -1.2450911
-0.20617421 1.333437 -1.156216
-0.20484455 1.346253 -0.6760506
-0.33744448 1.3402375 -0.31127363
-0.37734729 1.3250501 -0.30982059
-0.43390736 1.3120763 -0.32974005
-0.40270871 1.4127578 -5.5361423
-0.40510467 1.3847836 -5.1019878
-0.42595273 1.3679234 -4.9778752
-0.40401703 1.3360275 -1.771558
-0.3282524 1.3418823 -1.8942384
-0.42534044 1.3387984 -1.9743702
-0.47727472 1.0820147 -2.295573
-0.47498223 1.0422086 -2.3111122
-0.47111353 1.3352257 -2.1328537
-0.34789258 1.3215246 -1.791692
-0.42922151 1.3234084 -1.828952
-0.2921502 1.3374729 -0.85487461
-0.28798455 1.3369641 -0.73494804
-0.35102472 1.3253322 -0.71096039
-0.48136193 1.3408499 -2.4126208
-0.42430207 1.3397801 -2.4947779
-0.34414771 1.3912405 -1.1930484
-0.29608619 1.3478901 0.18594289
-0.28252387 1.3555713 0.12702382
-0.18302506 1.0627587 0.77713466
-0.32122111 1.3483443 1.7677853
-0.23570535 1.345512 1.9249008
-0.18605673 1.3651968 1.8803718
-0.38882142 1.3165637 0.96950912
-0.17903459 1.3452992 0.95952821
-0.25312567 1.3346146 1.1223052
-0.16611518 1.3504022 1.3192945
-0.23019081 0.13068244 -2.1029062
-0.49298933 -0.22636697 -1.9353448
-0.25760642 1.3742481 -4.501946
-0.28683436 1.3562471 -4.4223886
-0.32743862 1.3637255 -4.4384465
-0.25178382 1.3749624 -4.3420339
-0.40227261 1.3839989 -5.0245438
-0.2508263 1.3596065 -3.2214229
-0.26382563 1.3461254 -3.5813611
-0.37235287 1.3279095 -3.8177714
-0.30944902 1.3250544 -3.7400455
-0.2381644 1.315951 -3.982928
-0.35232151 1.3230886 -3.8185587
-0.37089187 1.3274632 -3.7778006
-0.24692215 0.24384356 -2.2908378
-0.22682986 1.3393738 -1.8334532
-0.28646913 0.77939576 -2.1458113
-0.24794498 0.84252697 -2.1715329
-0.30790779 0.52285928 -2.2479641
-0.32534924 0.60247099 -2.226423
-0.2175135 1.0851487 -2.3750854
-0.20685941 0.96536219 -2.3868196
-0.26272541 1.1437348 -2.5028734
-0.44867367 1.3409405 -2.6139605
-0.2166813 0.94527459 -2.3866851
-0.46466497 1.386471 -4.4141822
-0.32682037 1.3585795 -4.421
-0.49523321 1.3327258 -3.8932843
-0.48075849 0.01503364 -2.7126875
-0.44048163 -0.017087452 -2.7141905
-0.33435273 0.1711303 -2.9914668
-0.44183406 1.3451362 -2.9744277
-0.44619569 1.3439755 -3.0943687
-0.4083119 1.2477368 -3.1768866
-0.47196412 1.338083 -3.253608
-0.42932907 -0.4922848 -3.3258872
-0.2689839 -0.50894248 -3.3216193
-0.53914231 -1.0769217 -3.4997945
-0.53703701 -1.0394982 -3.4322848
-0.53241009 -1.06713 -3.3124044
-0.4996497 -0.67666203 -3.4107294
-0.36625937 1.3447993 -4.1955824
-0.38327828 1.377422 -4.8992071
-0.42053685 1.3815858 -4.8178473
-0.38545761 1.3918153 -4.5622468
-0.33101389 1.3820812 -4.5407343
-0.1787625 1.3552547 2.0802414
-0.25722098 1.3495355 2.1230965
-0.24511066 1.3372689 2.0852904
-0.38866487 1.3439718 2.1303298
-0.4572241 -1.0704604 2.1622565
-0.42479062 1.3358325 2.2416174
-0.46141016 -1.0649035 2.0423539
-0.46278864 -1.0672178 2.0023665
-0.42002574 -1.0699208 2.0809176
-0.24727412 1.3646151 2.4029152
-0.22036867 1.3286468 2.3645658
-0.52940369 -1.0772182 -3.2324722
-0.49828449 -0.67670357 -3.3732543
-0.52961719 -1.0775106 -3.0323319
-0.46873856 -0.95501125 -2.6341486
-0.48978162 -0.99765372 -2.673456
-0.42897719 -0.77718616 -2.5953734
-0.42636651 -0.67729872 -2.497793
-0.45885289 -0.67740583 -2.6342008
-0.48708457 -0.59766895 -2.6330838
-0.5146066 -1.1026604 -2.8327742
-0.35288325 -1.146413 -1.7607238
-0.3335098 -1.1461923 -1.7795362
-0.43510857 -1.1215458 -1.8203213
-0.32790112 -1.0953743 -3.1998065
-0.25457907 -1.0674902 2.2352803
-0.21185659 -1.0601934 2.3138793
-0.33454034 -1.0653269 2.2380679
-0.24007635 -1.1440147 2.3810618
-0.2166567 -1.0732346 1.8832936
-0.25538492 -1.0716038 1.9245698
-0.36267596 -1.052794 -0.3022241
-0.32130143 -1.0552906 -0.26364738
-0.359878 -1.0581331 -0.22229493
-0.41338959 -0.2379995 0.64366698
-0.25021431 -1.0574081 0.054618359
-0.23723686 -1.0429534 -0.1464417
-0.28905109 -1.0636083 -1.0647354
-0.22797285 -0.94116139 -2.2864289
-0.22614475 -0.96980035 -2.1666834
-0.2142899 -0.35350505 -1.7052683
-0.20849554 -0.41168243 -1.5456184
-0.21731685 -0.42654502 -1.5853995
-0.21980232 -0.3628265 -1.8652142
-0.2168477 -0.40566495 -1.7854496
-0.27544343 -1.101279 -3.6071386
-0.29644024 -1.0807613 1.3161075
-0.21110672 -1.1197436 1.1753776
-0.2867935 -1.0806729 1.3057666
-0.20296521 -1.1112587 1.0419714
-0.19109322 -1.0462552 2.5533702
-0.24100615 -1.0639971 2.3794508
-0.37171847 -1.0708666 2.3193827
-0.33211464 -0.96019357 1.1678145
-0.18157095 -1.0662252 2.0326271
-0.27677661 -1.0695193 1.5956488
-0.21918163 -1.0748742 1.8033113
-0.22043081 -1.0769438 1.7633061
-0.48840746 0.13747025 -0.89363587
-0.48989016 0.16010562 -0.93353176
-0.48277682 0.11862018 -0.73335111
-0.39095834 -1.0583892 -0.54086155
-0.42403314 -1.0492401 -0.33955991
-0.37233314 -1.0666066 -0.58211863
-0.29794666 -1.0630821 -0.74478543
-0.35296658 -1.0514812 -0.022384405
-0.45875335 0.20161709 0.6873095
-0.49580392 -0.35063004 -0.73493862
-0.48403022 -0.39023411 -0.83304131
-0.26165739 -1.0794524 1.7245722
-0.19260904 -1.0822394 1.7127397
-0.22290261 -1.0835828 1.6832683
-0.2318756 -1.1197233 1.1535854
-0.27323979 -1.1197059 1.1149979
-0.25247091 -1.1197262 1.13679
-0.45960945 -0.79794097 -2.2740681
-0.46556589 -1.0668464 1.9224155
-0.4669646 -1.0641608 1.882452
-0.46835321 -1.0639751 1.8424766
-0.35808605 -1.0771701 1.558413
-0.19712207 -1.1171809 2.4825377
-0.37517488 -1.1198598 1.0610027
-0.41599226 -1.104924 1.0399761
-0.4560993 -1.072593 1.0415194
-0.28441089 -1.1147381 0.21511269
-0.40982935 -1.1255375 -4.0229611
-0.41047001 -1.1353492 -4.0430441
-0.4749684 -1.1506618 -3.9550142
-0.32605204 -1.1261021 -3.9158115
-0.27502015 -1.1198975 -2.4465735
-0.24063905 -1.1131626 -2.6078112
-0.3476263 -1.0813732 -2.638701
-0.38700786 -1.0767702 -2.6197495
-0.39513966 -1.0768216 -2.636965
-0.48716065 -1.2279408 -4.7125301
-0.48992622 -1.2274703 -4.7924809
-0.46674481 -1.2035743 -4.522038
-0.46406233 -1.2018018 -4.4445639
-0.42469597 -1.2014037 -4.4634423
-0.28168777 1.3468405 1.4435384
-0.28315118 1.3493289 1.4035645
-0.27741176 1.3518747 1.5634606
-0.24025197 1.3447175 1.4820716
-0.29450876 0.6217159 0.90385818
-0.1573132 1.3429722 1.5616367
-0.20507115 1.3393301 1.6536453
-0.18988238 -1.070111 1.7927504
-0.43221381 -0.11830644 0.69240606
-0.40661156 1.321177 1.6105382
-0.3775343 1.338276 1.7296743
-0.23843068 1.351481 0.24561572
-0.35967463 1.3406771 0.20979416
-0.18074936 1.3752865 0.91955543
-0.30885288 1.3241234 0.68403113
-0.33738765 1.3328869 0.1472894
-0.45429558 0.17070177 -1.0598083
-0.49090201 0.070242621 -0.97382605
-0.27987203 0.62232041 -1.0681231
-0.41274709 0.74984562 -0.94323397
-0.49247631 0.71454912 -2.0913181
-0.49130675 0.43455404 -2.0925467
-0.45147881 0.5946607 -2.0782416
-0.46658504 0.56094635 -2.1992078
-0.24984683 1.3408902 -1.5550103
-0.41277829 1.3112956 -1.3491524
-0.30730933 1.3118389 -1.2947261
-0.33287475 1.321671 -1.3519415
-0.41966024 1.3225924 -1.5491055
-0.33426338 1.3264302 -1.3919468
-0.19124657 1.3409314 -1.5970343
-0.50412852 0.18087757 -2.2245963
-0.42103663 1.3248518 -1.5890961
-0.4342832 1.3371673 -1.4903305
-0.15990351 1.3641156 0.20283604
-0.16575056 1.3906075 0.035275698
-0.19210045 0.21098527 -0.99571085
-0.19881958 -0.2701526 -0.74486434
-0.19387972 0.076273836 -1.0637619
-0.19770005 -0.068183042 -1.1918203
-0.19774143 0.21167424 -1.1581115
-0.20827664 1.3417879 -1.4363624
-0.2172343 1.3615116 -1.4761994
-0.23721217 0.12305281 0.57418442
-0.3058947 -0.65779012 -2.6813154
-0.32357424 -0.69846761 -2.621043
-0.23925069 -0.35720989 -2.4406569
-0.23777634 -0.37258431 -2.4008267
-0.24061157 -0.29943186 -2.4700866
-0.4529981 -0.62832135 -1.3377334
-0.46667311 -0.95169324 -0.40278721
-0.35655737 -0.14987732 0.56205297
-0.30876949 1.342195 -2.6190617
-0.40434021 1.3424598 -2.4954765
-0.42036843 1.3423702 -2.9352126
-0.40037984 1.3425487 -2.9359426
-0.38343892 -0.068728141 -1.1381279
-0.39497435 -0.069366343 -1.1099268
-0.2273194 -0.22448093 -2.0644884
-0.46767309 -0.95744324 -2.6742167
-0.43619612 -0.67699951 -2.7676136
-0.43555328 -0.69701242 -2.755151
-0.47116226 -0.73226649 -1.6576501
-0.46171728 -0.26991618 -0.89594591
-0.43200153 -0.86950684 -0.97906244
-0.39671406 -0.62885833 -1.2298123
-0.35467836 -0.10846268 -1.1792861
-0.39773524 0.030918092 -1.1769468
-0.20698597 -0.06704887 -1.4591565
-0.19876559 -0.083044976 -1.2243662
-0.4823637 0.92243254 -2.3371983
-0.47437719 0.86500561 -2.3381314
-0.20703398 -0.36444426 -0.34473431
-0.20846429 -0.35427484 -0.38466597
-0.37136039 -0.57127243 -3.3986924
-0.27137575 -0.61063868 -3.4075463
-0.23436838 -0.54470503 -3.4832642
-0.32900369 -1.1169286 -2.1365857
-0.36350411 -1.0958848 -3.0784304
-0.32360283 -1.0880077 -3.0798755
-0.48776451 -1.0993841 -3.1939871
-0.41085091 -1.0860411 -3.2768273
-0.31918713 -1.0931405 -2.9599624
-0.38422364 -1.0749599 -1.5017359
-0.42284206 -1.0677679 -1.4603457
-0.44949421 0.821652 0.88946772
-0.40520212 1.3160075 1.650492
-0.44183582 0.98221207 0.76980948
-0.45299566 0.86269051 0.6496166
-0.31857041 0.50352472 0.58588815
-0.46689647 -0.35942239 -0.33572912
-0.39670339 0.048948176 -0.49687821
-0.37565133 -0.63256627 -0.047147751
-0.36842242 -0.67249101 -0.060042024
-0.21638614 -0.92490971 0.68420017
-0.22882767 -0.8775084 0.69432211
-0.22614901 -0.91784418 0.76658618
-0.26164392 1.3437417 0.024630904
-0.34435126 1.3387347 -0.052566409
-0.30850798 0.94161439 0.59657168
-0.24053098 1.0238299 0.59288955
-0.30883199 1.0066137 0.60406959
-0.29397947 1.0217502 0.60352993
-0.18399599 1.3873899 -0.49940318
-0.205026 1.3888278 -0.23603678
-0.17299758 1.3893294 -0.17709672
-0.25476366 1.3410944 -0.23405224
-0.44223863 1.3130939 -0.56959325
-0.43805212 1.3075851 -0.44968855
-0.38136625 1.3093288 -0.4296608
-0.2379901 1.3396925 -0.91502392
-0.18545514 1.362756 -1.7174352
-0.2199626 1.3610305 -1.5561514
-0.32268777 1.338704 -1.7343472
-0.32407632 1.3388736 -1.7743227
-0.31851169 1.3356953 -1.6144316
-0.2623134 1.3404071 -1.6271255
-0.43767852 0.14293754 0.6047554
-0.41033012 0.66959262 -0.88362169
-0.41075754 0.70962369 -0.8909415
-0.29879564 1.332685 -0.35257107
-0.3140642 1.3325951 -0.33381581
-0.39226201 1.3070481 -0.28367889
-0.41224584 0.62984771 -0.94376051
-0.27343887 1.3461649 -0.63368535
-0.33140361 1.4220139 -1.295061
-0.18848932 1.3465641 -0.63658661
-0.18867075 1.3891387 -0.19657278
-0.32793221 1.3494213 -0.031485558
-0.42954275 1.3823203 -4.8809609
-0.43701851 1.3275067 -1.5703255
-0.39708474 1.3376795 -1.5716695
-0.37100509 1.3420485 -1.9728016
-0.40679148 1.3369237 -2.0150998
-0.38650471 1.3215774 -1.7503507
-0.42375267 1.3218707 -1.6690334
-0.40123993 1.3356884 -1.691607
-0.28874269 0.87483239 -2.1846917
-0.18966714 1.3390656 -1.9172689
-0.31338513 1.3232502 -1.9529759
-0.23145986 1.3389863 -1.8958303
-0.29230759 1.3382938 1.8067629
-0.2702775 1.3594317 1.7633309
-0.22456568 1.362343 1.9217865
-0.26305181 1.3569893 1.9632008
-0.17550035 1.3428273 1.0569646
-0.26991239 1.0623418 0.90426326
-0.38743287 1.3163941 1.0094845
-0.42859969 1.0615011 0.94479322
-0.22159402 0.21807608 -2.1957135
-0.25272197 -0.17979369 -2.4385219
-0.24065824 -0.25948119 -2.4647064
-0.26620817 0.05506549 -1.9969118
-0.24625248 1.3458474 -4.1974554
-0.42893136 1.3835715 -5.0010571
-0.48223388 1.3462069 -3.5333464
-0.50152081 1.3374125 -3.652827
-0.45055729 1.3428148 -3.2143099
-0.35196871 0.18597186 -2.9906571
-0.35503471 1.3475509 -3.3378348
-0.35217685 1.3541573 -3.257807
-0.51548755 0.1225589 -2.9514623
-0.25074503 0.93563128 -2.2254307
-0.23009571 1.3392268 -1.8558543
-0.1881467 1.3547751 -1.7973434
-0.25053614 1.3394819 -1.7951223
-0.30683282 0.80177063 -2.1498194
-0.32583475 0.76139945 -2.1320643
-0.34668618 0.80885541 -2.14328
-0.30772281 0.84193391 -2.1643493
-0.47686455 0.98543978 -2.3767247
-0.31026289 1.2080178 -2.6930583
-0.28714365 0.4430182 -2.2471142
-0.40681192 1.3682442 -4.4181805
-0.40821952 1.3785779 -4.4580708
-0.49635437 1.3727485 -4.695251
-0.45094272 1.3815787 -4.5366325
-0.33325267 1.3821908 -4.3790045
-0.370217 1.3709404 -4.2977204
-0.47378361 1.3324581 -3.8540435
-0.36742035 -0.058608994 -2.9170308
-0.36789316 -0.076088808 -2.9345446
-0.4088718 -0.056442209 -2.9555449
-0.3468129 -0.39016801 -3.2377424
-0.29282975 -0.41273516 -3.1998076
-0.33799434 -0.47741497 -2.9987125
-0.34487185 1.3519256 -3.0579531
-0.43390149 1.215611 -3.3376763
-0.44327369 1.3430828 -3.0144272
-0.44763529 1.341922 -3.1343682
-0.24637917 1.3507682 -3.1015966
-0.32570153 -0.51563334 -2.9891043
-0.26665571 -0.42719817 -3.2408805
-0.30749643 -0.41222173 -3.2618327
-0.26213074 -0.9326368 -3.1957517
-0.25856578 -0.88617188 -3.0853679
-0.49562305 -0.43686405 -3.2379956
-0.48860741 1.361919 -4.2534647
-0.41113895 1.3858314 -4.3185749
-0.46694934 1.3366551 -4.2145081
-0.38868046 1.3628162 -4.2571058
-0.40711719 1.352191 -4.2165227
-0.43820664 1.3671921 -4.8974123
-0.42544711 1.3940247 -4.5607619
-0.28758469 1.337085 2.0867651
-0.41694513 -1.1452907 2.1605096
-0.42111096 -1.1447337 2.0405831
-0.38424632 -1.0616956 1.9596393
-0.20584105 1.3824928 2.4464462
-0.18025087 1.3362985 2.3682077
-0.20732459 1.3674804 2.4014747
-0.24982899 1.3368973 2.1655018
-0.30503747 1.3363729 2.2324569
-0.29702136 1.3363417 2.2471876
-0.30399606 1.3362457 2.2624385
-0.28813738 1.3362046 2.2869029
-0.32172745 1.3358836 2.3280928
-0.52972955 -0.57737374 -3.1118262
-0.41381326 -1.1299709 -3.5625648
-0.47082096 -0.59756619 -2.5986531
-0.47244877 -0.31760928 -2.5707648
-0.45449477 -0.71802348 -2.1816046
-0.49395388 -0.91835034 -2.2179141
-0.51315033 -1.1027046 -2.7928007
-0.45155701 -1.0772963 -2.6749368
-0.51756603 -1.097572 -2.9127138
-0.44417122 -1.0907145 -1.9947697
-0.40419951 -1.090337 -1.9962255
-0.2624186 -1.059809 -2.0267892
-0.23346995 -0.94556159 -1.8271875
-0.26678598 -0.9446522 -2.0661733
-0.2083279 -1.0514234 -0.46767759
-0.24553682 -1.0494357 -0.38632774
-0.26690796 -1.0482798 -0.42506295
-0.33515558 -1.0610944 -0.66343564
-0.27517632 -1.0624653 -0.66496998
-0.21805817 -1.0477363 -0.74749529
-0.35995093 -1.0761989 -2.8383789
-0.36932907 -1.0957075 -3.2383242
-0.20769992 -1.0787446 2.1631074
-0.25033507 -1.0683247 2.0845346
-0.24773046 -1.0741842 2.164434
-0.26429933 -1.0661905 1.955452
-0.42262369 -1.0543758 -0.29960197
-0.41984665 -1.0546471 -0.21965063
-0.26413092 -1.0485512 -0.34511167
-0.25856638 -1.051594 -0.18521786
-0.19299588 -1.005541 0.76263165
-0.21497792 -1.0050884 0.70080256
-0.23036888 -1.0077276 0.92389154
-0.3803544 -1.0616994 0.9188652
-0.35165963 -1.0175465 0.59787691
-0.19455762 -0.69329524 -0.026367068
-0.37729147 -1.0731384 -1.3018488
-0.23189142 -1.0585401 -1.1473055
-0.22638945 -1.0467187 -0.98734856
-0.45037323 -1.0566616 -1.0991327
-0.39456034 -1.0613931 -1.2217162
-0.23251843 -0.90068579 -2.3384247
-0.2333235 -0.92792606 -2.3661704
-0.23756997 -0.89807522 -2.4833188
-0.33485988 -0.7564708 -2.4786994
-0.2154696 -0.40333459 -1.7454631
-0.26472142 -0.94458836 -2.0787523
-0.21103878 -0.66686916 -1.5065883
-0.22769679 -0.6664145 -1.6260812
-0.23685117 -1.0669811 -1.5073894
-0.19794038 -0.54795861 -0.1056819
-0.19315772 -1.0772036 1.3622062
-0.19810131 -1.0904816 1.2021303
-0.32368514 -1.0712591 1.3971472
-0.27061418 -1.0739422 1.4447584
-0.22990882 -0.71745342 0.68259549
-0.28204212 -0.95551527 1.1262157
-0.23020963 -0.7074188 0.67514789
-0.39333099 -0.25541502 0.64288926
-0.24654356 -0.60795748 0.21611404
-0.2354023 -1.0720366 1.6342244
-0.19399767 -1.0820538 1.6727641
-0.23955803 -1.0739795 1.514286
-0.19894458 -1.0813923 1.5303514
-0.20093061 -1.0836253 1.4728749
-0.48178041 0.10850375 -0.70591182
-0.35513791 -1.0603099 -0.66218525
-0.45282081 0.22269094 0.64689505
-0.49364027 -0.27062047 -0.73474216
-0.48475632 -0.27072388 -0.69502676
-0.4775092 -0.31090531 -0.63537836
-0.3954376 -0.077732712 0.60376334
-0.28363878 -1.0885905 1.3956757
-0.27533743 -1.0822047 1.6355643
-0.31460398 -1.1196886 1.0764101
-0.46730933 -1.046108 0.72183526
-0.45857406 -1.0397803 0.97421622
-0.46305686 -0.99954784 0.92202663
-0.42548266 -0.83880335 0.79889297
-0.44607505 -1.0800507 1.0411365
-0.26834384 -0.67440492 0.15638626
-0.35246059 -0.67424226 0.039235353
-0.49894401 -0.99407846 -3.4736488
-0.45045897 -1.1330831 -4.0416307
-0.44503039 -1.109586 -3.881495
-0.24219614 -1.0827891 -2.6474979
-0.28957072 -1.001151 -2.8452122
-0.34617007 -1.0814176 -2.5987277
-0.49269181 -1.2269999 -4.8724318
-0.27599406 1.3543861 1.6034346
-0.21226704 1.3177208 1.443675
-0.31496572 -0.077465706 0.61597848
-0.22206843 -0.043640547 0.57379401
-0.28388801 1.3553307 0.087047815
-0.29885283 1.3457294 0.10598075
-0.32109925 1.3481241 0.16840899
-0.45219949 0.22988307 -0.99159878
-0.35729918 0.46350759 -1.0132446
-0.34003994 0.42351574 -1.0261004
-0.45133412 0.74950296 -0.90187049
-0.48806617 0.76146644 -2.258729
-0.47972393 0.75970352 -2.0989368
-0.4100745 1.3167765 -1.2692297
-0.42725691 1.3163197 -1.2905406
-0.21433458 1.3269937 -1.3960426
-0.25018167 1.3200278 -1.2747055
-0.21864742 1.3712708 -1.5162339
-0.29448226 0.67061001 -1.0052134
-0.46862105 1.3163161 -1.3291283
-0.41419142 1.3210547 -1.3891869
-0.35290176 1.3273439 -1.4531746
-0.30247197 1.3251747 -1.633168
-0.22127776 1.3507901 -1.5960689
-0.37953356 0.12617442 -1.2171991
-0.37999162 0.11123828 -1.2322557
-0.35959724 0.13875887 -1.2178384
-0.50087476 0.279612 -2.1110303
-0.32617429 0.054547496 -1.9952189
-0.3570224 0.054642595 -2.0189681
-0.32729629 0.094640203 -2.0225604
-0.43807942 -0.2666176 -1.799805
-0.49978021 0.11971203 -2.1203616
-0.2652342 0.5019924 0.57512534
-0.36919916 1.3339933 -0.070008516
-0.36783502 1.3342339 -0.030032516
-0.16771151 1.3902617 -0.022189856
-0.19402592 0.11127322 -1.0636084
-0.19427654 0.17127216 -1.0633451
-0.19499449 0.10466737 -0.94908333
-0.19990383 0.18945023 -1.2231704
-0.24032702 0.17184108 -1.2368501
-0.23986895 0.18677723 -1.2217935
-0.44790167 0.50921035 -0.83296645
-0.34995055 0.30466989 -0.81992412
-0.44774106 0.42923301 -0.83831441
-0.26866266 0.082800768 0.60010529
-0.23155655 0.14375514 0.57611275
-0.26203373 0.14200673 0.57261157
-0.47683284 -0.99068338 -0.70024776
-0.44687554 -1.0302799 -0.77896988
-0.28884441 -0.63289183 0.14745605
-0.27069816 -0.60915166 0.096708179
-0.26926783 -0.61932111 0.13663983
-0.33021909 1.3424627 -2.6583025
-0.32147449 1.3422844 -2.4184489
-0.22734341 1.3399662 -2.5820336
-0.26295364 1.3407683 -2.4606354
-0.26124302 1.1407887 -2.4629312
-0.37266362 1.3390677 -2.17644
-0.39265221 1.338889 -2.17571
-0.213175 1.046425 -2.2655962
-0.37311295 1.3429967 -2.7367871
-0.39309621 1.3428168 -2.7360599
-0.41308481 1.3426381 -2.7353299
-0.34190708 1.3460335 -2.9780688
-0.37327564 -0.1091517 -1.1383662
-0.50069678 -0.25836352 -2.2319462
-0.4998039 -0.19841056 -2.1918857
-0.50019097 -0.11842524 -2.1817763
-0.49572149 -0.94328827 -2.2729139
-0.49974862 -0.95855927 -2.1126781
-0.49769375 -1.0258232 -2.0979929
-0.48283848 -0.26382336 -1.9358245
-0.42297587 -0.30578226 -2.018095
-0.47529948 -0.4069998 -1.7364508
-0.45395064 -0.46676636 -1.7774196
-0.44772148 -0.30986488 -0.89406621
-0.39842626 0.050991945 -1.1943483
-0.44866976 0.58926195 -0.84510779
-0.45216009 0.67470169 -2.0878844
-0.42442051 0.72020072 -2.1013994
-0.30320463 0.60120517 -2.0996535
-0.28387484 0.64646292 -2.1073616
-0.28524682 0.72167844 -2.1264861
-0.28586733 -0.4319928 -0.10211742
-0.22933404 -0.6091482 0.13529587
-0.20171186 0.090010695 -0.78326023
-0.20009658 -0.23033369 -0.70462662
-0.21378875 -0.4085955 -0.5448094
-0.23235734 -0.4054642 -3.4019747
-0.28426087 -1.0917046 -2.0005965
-0.3848446 -0.38769037 -1.4343415
-0.40199611 -1.0988065 -3.0370049
-0.42836851 0.8815679 0.92901254
-0.43274269 0.59975123 0.7678709
-0.45054862 0.74182302 0.84914112
-0.31147 0.74347878 0.60417032
-0.27993798 0.78371406 0.58073199
-0.27942377 0.74367237 0.5905503
-0.3036404 0.66351259 0.60355902
-0.27533373 0.6219039 0.60297275
-0.27835396 0.38373169 0.57647824
-0.37476996 -0.61515981 -0.019602537
-0.46598557 -0.4319807 -0.31849647
-0.35603172 -0.75376385 -0.073546886
-0.35553515 -0.76881659 -0.061120391
-0.35307133 -0.69415712 0.019159794
-0.48280501 -0.47184962 -0.37558258
-0.47003362 -0.93637115 -0.49767625
-0.46720427 -0.9491424 -0.41776925
-0.45143482 -0.47185615 -0.33664793
-0.320041 1.0009418 0.60556042
-0.17757615 1.3484887 -0.31677872
-0.34717867 1.4315896 -1.2753224
-0.43947199 1.3152547 -0.48963118
-0.40826273 1.1091079 -0.76925981
-0.31957662 1.3232737 -0.49376184
-0.34416726 1.3190353 -0.51103657
-0.27685529 1.3306074 -0.41516572
-0.31821939 1.330604 -0.45375341
-0.2433977 1.3287305 -1.0748694
-0.40056223 1.3259603 -0.98944163
-0.17171869 1.389555 -0.13961923
-0.47525901 -0.35110828 -0.57555652
-0.49141473 -0.47075325 -0.69547457
-0.21285968 -0.29876703 -0.5043512
-0.27410951 1.3377681 -0.33518177
-0.39636302 0.50351405 -0.97963279
-0.35754591 0.58356422 -1.0039526
-0.3716628 0.62994659 -0.92765903
-0.28103137 1.3336161 -0.53508133
-0.17826547 1.3470805 -0.55689067
-0.26430044 1.3369104 -0.51386958
-0.33341327 1.3534589 -0.19141877
-0.37192744 1.3335122 -0.14996052
-0.40535185 1.3389771 -1.9751002
-0.33241805 1.3423911 -2.0141649
-0.43840706 1.3276762 -1.610301
-0.43328944 1.3176868 -1.9488508
-0.24981786 1.3460418 -0.67451465
-0.36649492 1.3239486 -0.69225162
-0.23032796 1.3622971 1.7618904
-0.26945829 1.119756 0.92450333
-0.30736473 1.1018394 0.98327923
-0.43051937 1.0642343 0.88983798
-0.30306777 1.3216695 0.84392715
-0.26599938 1.3245118 0.76253855
-0.29447007 1.326738 1.0837715
-0.25598395 1.3320918 1.042357
-0.29305235 1.3292494 1.1237454
-0.22197643 1.316408 1.1638353
-0.23232234 0.15013176 -2.155952
-0.30567455 0.10355177 -2.2786758
-0.28257802 0.44162333 -2.1222055
-0.30721864 0.094997726 -2.0203331
-0.30618986 0.055280425 -1.9948435
-0.48124012 1.3606923 -4.9993758
-0.4265472 -0.036608238 -2.954879
-0.33264425 1.2372943 -3.2998567
-0.28723612 0.28348082 -2.2889216
-0.40512663 1.3378179 -3.6163168
-0.42223066 1.3417447 -3.5355906
-0.46222392 1.3438858 -3.5341051
-0.30231509 1.3428206 -3.5399618
-0.35937494 1.3438904 -3.4578047
-0.29791072 1.3389819 -3.4200783
-0.1916541 1.339144 -1.9021926
-0.1894986 1.3520346 -1.8373047
-0.32546487 1.3390433 -1.8142983
-0.46722186 0.88027209 -2.1380765
-0.40825248 1.33737 -2.0550704
-0.41117448 1.3382627 -2.1350121
-0.3127085 1.3396063 -2.1786242
-0.29128027 1.3418384 -2.1393547
-0.39559558 1.3422815 -2.2556229
-0.21527693 1.0046825 -2.3335347
-0.49500528 1.3774141 -4.6552334
-0.46832564 1.3920447 -4.6392717
-0.43165985 1.3733493 -4.3354754
-0.43232936 1.3298707 -3.8155584
-0.44941735 1.3312991 -3.7348583
-0.46942198 1.3336188 -3.7341025
-0.37673587 1.3292485 -3.9376838
-0.37527487 1.3288022 -3.8977129
-0.43673375 1.3337095 -3.9354422
-0.3796151 1.3251418 -4.017683
-0.3577497 -0.015810564 -2.9136381
-0.26443037 -0.45275968 -3.181159
-0.41372824 1.1995273 -3.3373437
-0.48363075 1.339154 -3.5734031
-0.46398601 1.3369445 -3.5841546
-0.32778388 1.3504972 -3.1386533
-0.34629008 1.3473725 -3.0979812
-0.34308353 -0.41226205 -3.2781057
-0.43023914 -0.53197742 -3.3587494
-0.35241488 -0.57844794 -2.6389248
-0.38321459 -0.37940067 -2.5559316
-0.257521 -0.93388009 -3.0633378
-0.2999236 -0.8900786 -3.484225
-0.48635754 1.3437792 -4.1962075
-0.48394644 1.3280833 -4.1339254
-0.50240988 1.319959 -4.0933104
-0.43694621 1.3822405 -4.8781891
-0.42984948 1.3977395 -4.6806498
-0.46691555 1.399139 -4.5992227
-0.19170637 1.3376976 2.0384097
-0.25149617 1.3374169 2.0454884
-0.37589443 -1.0678096 2.1994681
-0.22517313 1.3367296 2.2271829
-0.22956258 1.3366338 2.2448456
-0.32089615 1.336414 2.2079928
-0.37169692 1.3356673 2.3298275
-0.38259998 -1.1552836 -3.6181588
-0.47108352 -0.31765085 -2.5332897
-0.37740633 -0.075923815 -2.9135182
-0.41925359 -0.49250624 -3.0360513
-0.40381104 -0.37935334 -2.5727255
-0.43774524 -0.49155495 -1.818091
-0.46756494 -1.0800056 -2.63433
-0.42320102 -1.0822611 -2.5158691
-0.25380543 -1.0634179 -0.62624675
-0.48891068 -1.0484608 -2.1131725
-0.25436166 -0.74595922 -1.7555721
-0.24640158 -1.0796137 2.2043557
-0.25161082 -1.0678946 2.0445573
-0.25413576 -1.0695342 1.9645748
-0.31991288 -1.0554601 -0.22367191
-0.3254984 -1.0472819 -0.38354105
-0.3454915 -1.0437601 -0.38229376
-0.45864907 -0.99979258 0.9769063
-0.33453292 -0.91989261 1.1030459
-0.34869555 -0.67813319 0.72442734
-0.19633254 -0.6006273 -0.065936804
-0.40006232 -1.0732145 -1.3816731
-0.20858309 -0.98984402 -0.82762778
-0.2663337 -1.0543916 -0.98599362
-0.47341183 -0.54712498 -1.6994693
-0.24064118 -1.0183091 -2.5919106
-0.23203051 -1.0206316 -2.3445714
-0.22438408 -0.28134358 -2.0001757
-0.22722249 -0.27059349 -2.0800281
-0.23043101 -0.90124881 -2.2784636
-0.22901073 -0.9540506 -2.2464876
-0.24405932 -0.34050548 -2.3602805
-0.25402465 -1.0758263 -1.7870017
-0.25119534 -1.0886652 -1.7071055
-0.23310857 -1.0801423 1.3634496
-0.2023091 -1.0859395 1.4328873
-0.2292282 -1.0864319 1.4833262
-0.1893827 -1.0899419 1.1618352
-0.26439261 -0.97032148 1.125493
-0.20875166 -1.0800809 1.2480247
-0.23870847 -0.1238232 0.57346237
-0.26877525 0.58245623 0.87717223
-0.18789536 -1.0939221 1.5219493
-0.20258969 -1.0809048 1.4254158
-0.27805284 -0.95915198 0.99583697
-0.18428065 -1.0752146 1.6421032
-0.39512393 -1.0579821 -0.66078848
-0.45803565 -0.95075279 -0.65823925
-0.47138029 -0.9462353 -0.53768736
-0.29853147 -1.0542661 -0.18383884
-0.31437957 -1.0511386 -0.063747764
-0.25720924 -1.0442297 -0.14521575
-0.33296341 -1.0524812 -0.022539377
-0.35157803 -1.0516509 0.017591119
-0.39426136 -0.025419392 0.64399004
-0.36644807 -1.0685562 1.3185959
-0.26290658 -1.081522 1.684567
-0.19538628 -1.0818681 1.6327887
-0.22760089 -0.69181633 0.17490935
-0.24624014 -0.6804564 0.21585739
-0.36779431 -1.120867 -3.9643419
-0.44660339 -1.1271942 -4.0016837
-0.27642557 -1.1170223 -2.4865236
-0.20811184 1.3197119 1.5636125
-0.31849113 0.42345595 -1.0543519
-0.42089012 0.38976628 -0.93447268
-0.3930788 -0.08708863 -1.0575358
-0.37732908 0.66357327 -0.98624849
-0.47121766 0.76181865 -2.2768536
-0.32761711 0.52259558 -2.2397425
-0.46692717 0.60094225 -2.1987486
-0.46590078 0.48095453 -2.2001259
-0.42972219 0.70972818 -0.9328084
-0.37831983 1.3230208 -1.5104948
-0.31988981 1.333365 -1.6544181
-0.28435683 0.68151516 -2.1119561
-0.41813102 0.12833172 -1.1758248
-0.50113541 0.34202194 -2.1028185
-0.19718939 0.2041108 -1.1431535
-0.19457713 0.18641958 -1.0226787
-0.20596449 -0.39206037 -0.31737179
-0.24146169 0.13200077 -1.2745028
-0.20106517 0.052164651 -1.2737432
-0.40746814 0.26679748 -0.81538725
-0.230308 0.026268929 0.57480907
-0.23698713 0.0030899122 0.56611478
-0.23799188 -0.94785309 -1.3092234
-0.23622447 -0.68570745 -1.2256221
-0.22524565 -0.98780888 -1.3073342
-0.42839316 -0.33911476 -0.37702191
-0.48101845 -1.0312772 -0.53764129
-0.24792162 -0.61032176 0.17612958
-0.35564512 1.3451399 -2.2570512
-0.25279081 1.3451431 -2.1807537
-0.21576233 1.3488941 -2.2621238
-0.32291409 1.3402309 -2.4584484
-0.40476283 1.3438878 -3.055855
-0.4218508 1.3453162 -2.9751549
-0.34126115 -0.71589059 -2.9187131
-0.31364155 -0.67594755 -2.6995292
-0.44889864 -0.71719742 -2.7146606
-0.46413288 -0.95735168 -2.7143722
-0.49285597 -0.93837714 -2.1929598
-0.27540001 0.098316096 -2.2525022
-0.38682237 -0.38775203 -1.419264
-0.31477696 -0.35639858 -1.1414473
-0.22930796 -0.546597 -1.5854924
-0.27217233 -0.12470999 -2.1971714
-0.42311761 -0.86961025 -0.93934703
-0.49635541 -0.55049145 -0.77562237
-0.4787131 -0.52069867 -0.69608533
-0.19821501 0.050552629 -0.90362251
-0.20887312 0.0099796429 -0.78335106
-0.19630177 -0.0083854869 -1.144086
-0.21226345 -0.10827903 -1.1839799
-0.23699756 -0.16838615 -1.1833757
-0.42371312 0.68009323 -2.0918658
-0.34493336 0.72105747 -2.1168044
-0.30434543 0.68133652 -2.1112261
-0.46826217 0.66118723 -2.2205434
-0.40541321 0.76057059 -2.1191576
-0.45181945 0.63468117 -2.0830631
-0.3236213 0.64104903 -2.1009655
-0.3628858 0.6005829 -2.0899749
-0.37217727 0.63631439 -2.0945778
-0.34299386 0.60079074 -2.0932002
-0.30277118 0.56118137 -2.0976145
-0.25823206 -1.0653176 -1.9068844
-0.32214656 -1.088052 -3.039902
-0.3896144 0.84191126 0.88747382
-0.45343313 0.50198603 0.80819917
-0.44899297 0.70165414 0.88894105
-0.45088276 0.82182163 0.84949207
-0.26602682 0.70199227 0.60386515
-0.22356755 0.62237501 0.65113938
-0.26404732 0.38199812 0.57761848
-0.27594918 0.20267409 0.62092757
-0.31721428 0.30346462 0.60000134
-0.29168999 -0.63286871 0.13754892
-0.35507712 -0.7538805 -0.046063662
-0.48315114 0.0090006515 -0.61408418
-0.47798064 0.0090052113 -0.60926074
-0.35994381 1.3155936 0.64830601
-0.35942277 0.98320544 0.62186229
-0.39372927 1.3246633 -0.78954709
-0.27823338 1.3282771 -0.45515221
-0.24207029 1.3364708 -1.0349374
-0.29769394 1.3356513 -1.0147877
-0.29631582 1.3379817 -0.97480118
-0.47290355 -0.27137238 -0.49782044
-0.21859606 -0.15064423 -0.65111375
-0.22199504 -0.10525283 -0.74335968
-0.47602281 -0.16861095 -0.5749104
-0.47093168 -0.19108908 -0.57516354
-0.306647 0.15543067 0.57863462
-0.37341794 0.51022428 -0.99314582
-0.39433178 0.611462 -0.9053067
-0.39607278 0.58363199 -0.96011281
-0.18814828 1.3466243 -0.62659264
-0.30990899 1.3345863 -0.21387827
-0.36540139 1.3418355 -1.9765285
-0.44953632 1.3340329 -1.9300833
-0.43193755 1.3204273 -1.9088894
-0.32850474 0.88188934 -2.1756539
-0.36829397 0.88147491 -2.1692007
-0.36896437 0.9066118 -2.1814046
-0.38720995 0.84107715 -2.1489444
-0.25754318 1.3455372 -0.75429595
-0.28033593 1.3384116 1.7913384
-0.30455405 1.3266578 0.80395317
-0.29735121 1.3267151 1.0038233
-0.41884789 1.061258 1.0094934
-0.34048325 1.3082193 1.2079415
-0.22058788 1.3162384 1.2038109
-0.21783167 1.3208991 1.2837839
-0.26626113 0.015974998 -2.0034308
-0.37115511 1.2364894 -3.2584288
-0.28689399 0.24348491 -2.2893808
-0.36705384 0.34256217 -2.2678316
-0.45199692 1.3407614 -3.2543094
-0.45489752 1.3391544 -3.3342795
-0.36225417 1.3397835 -3.5378036
-0.27575108 1.3388952 -1.8743063
-0.30397037 0.65878302 -2.106488
-0.4079006 0.88100469 -2.1577508
-0.39119121 1.3384427 -2.1357393
-0.40971348 1.3378164 -2.0950413
-0.37514985 1.3375573 -2.0927501
-0.21066624 0.92349124 -2.2270315
-0.47086161 1.3315654 -3.774102
-0.41378573 1.3279972 -3.8562851
-0.47524461 1.3329045 -3.8940144
-0.47814521 1.3312974 -3.9739847
-0.38615665 1.3445927 -4.1923542
-0.3547914 1.2552277 -3.3538857
-0.30800942 1.3271078 -3.7000461
-0.42796776 1.3310313 -3.6956174
-0.42515555 1.3376518 -3.6168389
-0.46503899 1.3322798 -3.6141901
-0.4062452 1.3468338 -3.0957971
-0.28250363 1.3044605 -4.1040249
-0.4462944 1.3441099 -4.1951661
-0.27290383 1.3449998 2.0062397
-0.27096325 1.3372668 2.0611732
-0.33593905 -1.0626414 2.1981044
-0.19930229 1.3364136 2.3238425
-0.22248282 1.3364011 2.3046355
-0.26358658 1.3363658 2.2735431
-0.26653725 1.3367262 2.1885951
-0.44745517 -0.7179389 -2.1943691
-0.33884141 -0.57584196 -1.8619831
-0.42566475 -0.66482425 -2.4752898
-0.4872444 -0.53458685 -3.0332732
-0.43760923 -0.52405447 -1.8182061
-0.19793896 -0.67289281 -0.12122118
-0.23767245 -0.6727795 -0.18488038
-0.2627424 -1.0486869 -0.30513602
-0.47215331 -0.47136098 -0.50102699
-0.43591863 -0.53079772 -0.61755735
-0.23332894 -1.0258816 -1.1846399
-0.21602707 -0.86899817 -1.026979
-0.21819958 -0.54795372 -1.2656882
-0.23542973 -0.66831374 -1.2005606
-0.22490758 -0.40473878 -0.86460268
-0.28011328 -0.54576331 -1.823871
-0.21540752 -1.0711648 1.9232988
-0.36408541 -1.0476245 -0.34217769
-0.42540598 -0.83631498 0.80140328
-0.30812421 -0.71802217 0.73534048
-0.23275444 -0.71741748 0.67268825
-0.34884891 -0.68310988 0.71940649
-0.31177506 -0.99487859 0.59659672
-0.19966167 -0.59272462 -0.16084576
-0.19777331 -0.58795792 -0.10585749
-0.26496604 -1.0495614 -0.94599617
-0.47415641 -0.54756212 -1.5768703
-0.47372264 -0.45213485 -1.6966344
-0.25411513 -0.9372949 -2.965925
-0.24024661 -1.0583535 -2.5872972
-0.23402566 -1.0525432 -2.4073422
-0.22730523 -0.2555944 -2.0798843
-0.26186976 -1.0635372 -2.0587499
-0.26286787 -1.0557797 -2.0861602
-0.24981724 -1.0863348 -1.667119
-0.30426204 -1.0771153 -1.5045207
-0.25256333 -0.76117098 -1.7056684
-0.22768168 -1.0218046 -2.2196524
-0.20375839 -1.0707542 1.3929837
-0.205147 -1.0705686 1.3530083
-0.29533684 -0.11731115 0.60010231
-0.3149775 -0.11744173 0.61079001
-0.27744472 0.10376842 0.56775427
-0.28995532 -0.0043859482 0.57638264
-0.23705037 0.083053567 0.57399297
-0.26175818 0.10200766 0.57011151
-0.22665015 -1.0897918 1.5632529
-0.29811144 -0.94173646 0.99661469
-0.28865066 -1.0862828 2.4765239
-0.28132457 -0.97070169 1.1435394
-0.41739097 -1.1022384 1.0000124
-0.21752906 -0.93697816 0.6440841
-0.23337431 -0.95435703 0.55403697
-0.23680103 -1.069351 1.5942609
-0.37514156 -1.0587676 -0.66203678
-0.37656146 -1.0510981 -0.7019794
-0.3571218 -1.0534724 -0.14232194
-0.48531651 0.062199928 -0.81395006
-0.48017791 -0.1707038 -0.69484621
-0.47738734 -0.50583464 -0.65605658
-0.48200282 -0.39792907 -0.77560294
-0.42497876 -0.11824007 0.68465042
-0.23691212 -0.036897719 0.56342483
-0.30948356 -0.045442916 0.57739806
-0.35665351 0.0025501326 0.57777369
-0.39212632 -0.78224719 -2.3187475
-0.44639441 -1.1142104 -3.9215169
-0.24638057 -0.97819996 -2.606344
-0.21365558 1.3178904 1.4036994
-0.20948994 1.3173816 1.5236261
-0.30008164 1.3386114 1.7269852
-0.23824172 -0.3481392 -1.2416304
-0.38134649 0.46355557 -0.98490781
-0.38846961 0.67008239 -0.97443402
-0.32872289 0.66356748 -1.0279311
-0.4223215 0.55999386 -2.0832505
-0.40208209 0.52020448 -2.0869379
-0.43151048 0.47481292 -2.0944529
-0.38660783 0.46192491 -2.2257533
-0.41695645 1.3280734 -1.4691827
-0.40210521 0.48032016 -2.0973897
-0.36222467 0.48070669 -2.1013451
-0.28430516 0.14238888 -1.2639531
-0.19986317 -0.027939945 -1.2491095
-0.40873486 1.322017 -1.229283
-0.36604252 1.3251859 -1.1507109
-0.40738294 1.3247575 -1.1893216
-0.40465465 1.3252386 -1.1093696
-0.22160572 0.10237453 0.57366765
-0.49706197 -0.23848078 -2.126987
-0.47468892 -0.38706794 -1.7163922
-0.23681828 -0.66814417 -1.2405361
-0.22202741 -1.026917 -1.5077343
-0.23590833 -1.0268015 -1.5472761
-0.39729568 -1.0710537 -1.3017111
-0.47991285 -1.0298555 -0.93791831
-0.37706798 1.3429065 -2.2963238
-0.31857386 1.3438914 -2.3384786
-0.31419086 1.3425524 -2.2185662
-0.34289736 1.3400511 -2.4577212
-0.21173887 0.96371031 -2.2465577
-0.36828062 1.3377286 -2.0565276
-0.2385031 1.3386019 -1.9556235
-0.44236124 -0.83725709 -2.634979
-0.44724715 -0.26980072 -0.9114573
-0.41817817 -0.26642671 -1.8028808
-0.48271614 -0.31039643 -0.78528702
-0.20537625 -0.029478416 -0.90371335
-0.19958335 0.091962554 -1.2260967
-0.32119375 -0.34875074 -1.1812164
-0.21170621 -0.10897905 -1.0239043
-0.20032378 -0.10910538 -0.9842757
-0.40426084 0.7003814 -2.1023588
-0.4672693 0.64093822 -2.1982894
-0.36642268 0.8011204 -2.1376426
-0.40329108 0.64024806 -2.0905569
-0.30245218 0.48130113 -2.1085255
-0.4023329 0.5601725 -2.0839806
-0.26908991 -1.0590523 -1.0659666
-0.4588151 -1.0296229 -0.97867465
-0.25165483 -0.31157765 -0.47053808
-0.20623133 -0.43200669 -0.33003968
-0.2599605 -1.0790291 -2.0064278
-0.24506634 -1.0278947 -1.3068157
-0.29879168 -1.0576584 -1.3445473
-0.29743454 -1.0502943 -1.304545
-0.33734733 -1.0654663 -1.3032103
-0.37592387 -1.0682741 -1.2618555
-0.24228926 -1.0282339 -1.2268647
-0.30566105 -1.0744797 -1.5444875
-0.32425594 -1.0773596 -1.5043974
-0.24894615 -1.0664518 -1.6395481
-0.45071569 0.78182232 0.8493166
-0.39592049 1.0225865 0.72836137
-0.42834508 0.9427973 0.64910018
-0.47564441 -0.39181849 -0.37555963
-0.38279161 1.3215879 -0.46970993
-0.39947554 1.3104278 -0.491041
-0.27963239 1.3309467 -0.49511677
-0.30322725 1.3313298 -1.1747117
-0.47266784 -0.43132764 -0.51087934
-0.21636443 -0.19057971 -0.66386837
-0.34073824 0.0096142069 -0.61902869
-0.4362188 0.10293836 0.60578573
-0.37365884 0.63019037 -0.98512387
-0.40585104 1.1091293 -0.77184498
-0.18644309 1.3469249 -0.57662266
-0.27133241 1.3374289 -0.25523067
-0.39197353 1.323115 -1.9102693
-0.41373685 1.3372147 -2.0513868
-0.30738947 1.321635 0.7240051
-0.20149158 1.1425905 0.84031773
-0.30020949 1.3241923 0.92387509
-0.42631197 1.0537257 1.0097206
-0.39242297 1.2155092 -3.2979136
-0.29075539 1.3542483 -3.2200234
-0.30688262 0.24330628 -2.2886508
-0.46565115 0.28142127 -2.2423925
-0.45784092 1.3425468 -3.4141924
-0.43376899 1.3278172 -3.8555579
-0.47962761 1.3342435 -4.013927
-0.39813736 1.3245155 -3.976985
-0.2578961 1.334341 -3.4215927
-0.36424166 1.3378975 -3.5927923
-0.36796987 1.3265705 -3.697859
-0.39212734 1.351299 -3.2563787
-0.40914583 1.3452269 -3.1757674
-0.42053545 -0.41271502 -3.2754135
-0.32238418 1.304074 -4.1000695
-0.38550186 1.3319266 -4.1775088
-0.44708151 -0.35757115 -2.4341421
-0.20113701 -0.59254444 -0.20331979
-0.20658495 -0.47194237 -0.34520602
-0.27848178 -0.67082834 -0.42337954
-0.25994444 -1.0539582 -0.22520244
-0.23747118 -0.94791669 -1.2942326
-0.48559895 -0.93077081 -2.0980904
-0.28758124 -1.0760869 2.4365096
-0.32410985 -1.0474515 -0.34356552
-0.23388493 -0.95678735 0.53903425
-0.3489176 -0.67685425 0.71818721
-0.23263404 -1.0529184 -2.367368
-0.22741267 -0.26444843 -2.0721595
-0.19680522 -1.0741825 1.592849
-0.33249211 -0.95264733 1.1578567
-0.22420491 -1.080653 1.6433187
-0.26792985 -1.0873009 1.5245745
-0.20655584 -1.065383 1.3130567
-0.3579568 -1.0500386 -0.74210119
-0.33712897 -1.0520741 -0.14246631
-0.35574368 -1.0511421 -0.10233545
-0.48699465 0.13162875 -0.85322285
-0.48674691 0.072335489 -0.8538903
-0.48300788 0.049479596 -0.74903381
-0.2530123 -1.0521368 -0.025315285
-0.25446358 -1.0370013 -0.06523788
-0.28878582 -0.89153296 -2.804184
-0.21642223 1.3157296 1.3237374
-0.27455348 1.3543975 1.6434088
-0.27167234 1.3544205 1.7233567
-0.41425779 0.19782171 -1.055591
-0.42204875 0.40034494 -2.1150653
-0.38235083 0.40078729 -2.1240168
-0.19794779 0.2114504 -1.0696971
-0.30252036 0.52121335 -2.1005719
-0.49901411 -0.23852098 -2.1119058
-0.21059218 -0.30932555 -0.94474399
-0.2125334 -0.31003636 -0.78458166
