ply
format ascii 1.0
comment PCL generated
element vertex 597
property float x
property float y
property float z
element camera 1
property float view_px
property float view_py
property float view_pz
property float x_axisx
property float x_axisy
property float x_axisz
property float y_axisx
property float y_axisy
property float y_axisz
property float z_axisx
property float z_axisy
property float z_axisz
property float focal
property float scalex
property float scaley
property float centerx
property float centery
property int viewportx
property int viewporty
property float k1
property float k2
end_header
-6.3903875 1.3524094 2.6003623
-6.3399429 1.3515047 2.599807
-6.2244701 1.3461158 2.59863
-6.1452317 1.3293597 2.5981915
-6.0242872 1.3202145 2.5970576
-5.9847069 1.3168317 2.5966976
-5.9451661 1.3184439 2.5961967
-5.9051533 1.3162608 2.5957978
-5.7825942 1.3269007 2.5940857
-5.7434859 1.3273132 2.5936236
-5.7026463 1.3325248 2.5930061
-5.6631641 1.34163 2.592294
-5.5030332 1.3229072 2.5909798
-5.382226 1.3312454 2.5893531
-5.3423104 1.3415502 2.5886021
-5.3027301 1.3381673 2.5882418
-5.2227631 1.3412941 2.5872328
-5.1827888 1.3441061 2.586693
-5.1139135 1.3520782 2.5856745
-4.9970312 1.3569804 2.5841899
-4.9143524 1.3709636 2.5828426
-4.8734379 1.3698632 2.5824025
-4.7157273 1.3969997 2.5798192
-4.6464052 1.3973858 2.57901
-4.6064191 1.3975848 2.5785439
-4.5620766 1.3951973 2.5781009
-4.5546956 1.3953971 2.5780103
-4.4205542 1.3972063 2.5764146
-4.3158889 1.4378539 2.5740597
-4.2992077 1.4390781 2.5738332
-4.2298737 1.436815 2.5730989
-4.193923 1.4344002 2.5727532
-4.0797944 1.4046909 2.5722795
-4.0396919 1.4047276 2.5718167
-3.8391752 1.3403782 2.5713282
-3.7991889 1.3405772 2.5708621
-3.7591686 1.3332834 2.5706077
-3.6773276 1.3285849 2.5697982
-3.6392102 1.3338809 2.5692096
-3.5592489 1.3367769 2.568207
-3.5137255 1.3366714 2.5676858
-3.4737282 1.3343728 2.5672903
-3.3992815 1.3325781 2.566484
-3.2747483 1.3416635 2.5647931
-3.1548126 1.3472561 2.5632539
-3.1147697 1.334967 2.5631404
-3.0747492 1.3276732 2.562886
-3.0338228 1.3240751 2.5625167
-2.9949863 1.3234011 2.5620885
-2.9547794 1.3257729 2.5615585
-2.9184732 1.3236775 2.5611997
-2.8385007 1.3240757 2.5602677
-2.7584944 1.3169812 2.5595472
-2.6985261 1.3197771 2.5587776
-2.6575999 1.3161789 2.558408
-2.5985382 1.31528 2.5577536
-2.5966923 1.3151785 2.5577352
-2.5766878 1.3127799 2.5575726
-2.4123425 1.3223081 2.5554109
-2.3506186 1.3236753 2.5546615
-2.3335888 1.3244121 2.5544446
-2.2541149 1.3329531 2.553288
-2.1741426 1.3333515 2.552356
-2.0587699 1.3279586 2.5511801
-1.9787977 1.3283567 2.5502481
-1.9323456 1.3269519 2.549753
-1.8819959 1.3312259 2.5490522
-1.8570163 1.3338481 2.5486906
-1.8179586 1.3353467 2.5481985
-1.7389035 1.3345469 2.5473108
-1.6579909 1.331148 2.5464754
-1.6142905 1.3261487 2.5461135
-1.6124449 1.3260473 2.5460951
-1.5524654 1.3263459 2.5453961
-1.4934375 1.3329395 2.5445299
-1.2936082 1.3688211 2.5412142
-1.2536802 1.3691015 2.5407467
-1.2402554 1.3678641 2.540627
-1.1356945 1.3724605 2.5392931
-0.97264338 1.3242381 2.5387797
-0.89723444 1.3136508 2.5382109
-0.93352842 1.3132486 2.5386403
-0.97720623 1.3132524 2.5391431
-1.0144067 1.3091546 2.5396874
-1.092545 1.3111525 2.5405304
-1.1380911 1.3162533 2.5409105
-1.2125258 1.3155504 2.5417874
-1.2924757 1.3101568 2.5428605
-1.5372336 1.055156 2.5528915
-1.5765276 1.004354 2.554781
-1.6383233 0.85418373 2.5597401
-1.6804445 0.77404737 2.5624919
-1.7222013 0.61398607 2.5675001
-1.7537796 0.41401219 2.5735202
-1.7957187 0.29391333 2.5774
-1.8118041 0.21243934 2.5798898
-1.8122611 0.1919582 2.5804744
-1.8013773 0.092764318 2.5831549
-1.8877473 -0.053053573 2.5882738
-1.3685501 -0.35244015 2.5907643
-1.2842803 -0.29360938 2.58813
-1.2732973 -0.29495865 2.5880415
-1.2431965 -0.31978905 2.5883973
-1.3509898 -0.3673408 2.5909836
-1.4271579 -0.80994195 2.6043799
-1.3926346 -0.8523773 2.6051826
-1.0425453 -1.1066153 2.6083431
-0.96347904 -1.1099062 2.6075258
-0.84169579 -1.1044614 2.6059694
-0.761724 -1.1040726 2.6050377
-0.72174835 -1.1013806 2.6045012
-0.64177608 -1.1009917 2.6035695
-0.60274076 -1.0944865 2.602936
-0.53186893 -1.0879692 2.6019356
-0.52280188 -1.086605 2.6017928
-0.48188686 -1.0877262 2.6013534
-0.16409826 -1.028592 2.5960217
0.07955265 -0.698668 2.5838842
-0.004884243 -0.38784057 2.5760643
-0.041436672 -0.34614861 2.5753059
-0.091557503 -0.30735952 2.5747859
-0.073639393 -0.26405808 2.5733547
0.14034128 0.10252464 2.5605221
0.11310577 0.17437702 2.5588033
0.085368156 0.2629934 2.5566161
0.13058376 0.30270261 2.5549722
0.33060932 0.33172426 2.5518482
0.48953915 0.33691216 2.5498717
0.56833601 0.3587997 2.5483453
0.68924379 0.36135748 2.5468807
0.67218828 0.14312933 2.5532498
0.63400936 -0.056306884 2.5593307
0.63318062 -0.21594445 2.5638556
0.63806057 -0.25957122 2.5650334
0.63979769 -0.38020396 2.5684257
0.59818602 -0.61218172 2.5754664
0.55878019 -0.69196016 2.5781767
0.5656395 -1.0179045 2.5873172
0.57500792 -1.0556928 2.5882783
0.56667089 -1.0614249 2.5885365
0.5261178 -1.0827988 2.589608
0.48683691 -1.0748324 2.5898349
0.40762377 -1.0723214 2.5906758
0.3268342 -1.0716846 2.591588
0.24596262 -1.0635569 2.5922894
0.20679188 -1.0655782 2.5927975
-0.010220051 -1.1055416 2.5964265
-0.034150124 -1.12016 2.5971155
-0.071796894 -1.147091 2.5983107
-0.16451788 -1.1421669 2.5992391
-0.48379612 -1.164443 2.6035454
-0.56141663 -1.1880198 2.6051059
-0.59954548 -1.1908454 2.6056249
-0.72397041 -1.2248122 2.6080182
-0.76302814 -1.2263223 2.6085107
-0.84300041 -1.226711 2.6094425
-0.87928295 -1.2296704 2.6099439
-0.95926666 -1.2275617 2.6108053
-1.0029564 -1.2249911 2.6112356
-1.0792141 -1.2306426 2.6122735
-1.1367717 -1.2134386 2.6124494
-1.5054274 -1.1339852 2.6144469
-1.5624952 -1.1710074 2.6161511
-1.6801016 -1.1947784 2.6181774
-1.7993088 -1.1567154 2.6184735
-1.841152 -1.1542784 2.6188862
-1.8802097 -1.1557887 2.6193788
-2.0394249 -1.1129246 2.6199994
-2.079422 -1.1106215 2.6203947
-2.0849607 -1.1102203 2.6204472
-2.1606688 -1.0967953 2.6209393
-2.1813002 -1.095988 2.6211538
-2.2250011 -1.0909199 2.6215138
-2.3204341 -1.0730079 2.6221058
-2.3604643 -1.0632118 2.6222897
-2.520365 -1.0739799 2.6244354
-2.5594223 -1.07549 2.6249278
-2.6402683 -1.0870512 2.6261857
-2.6793036 -1.0935565 2.6268191
-2.8259785 -1.0537268 2.6273813
-2.8668818 -1.050552 2.6277623
-2.9468551 -1.0509785 2.6286952
-2.9859376 -1.0520816 2.6291766
-3.0649681 -1.0608928 2.6303356
-3.145884 -1.0529345 2.6310422
-3.2258961 -1.0458661 2.6317635
-3.2659342 -1.036086 2.631948
-3.3899879 -1.0277251 2.6331398
-3.5098915 -1.0284206 2.6345401
-3.6302695 -1.0460482 2.6364245
-3.709542 -1.0297648 2.6368768
-3.7895718 -1.0301359 2.6378088
-3.8701763 -1.049826 2.6392937
-4.1677523 -1.153139 2.6456423
-4.3890986 -1.0534883 2.6453722
-4.4282064 -1.0495946 2.6457124
-4.4646029 -1.0483702 2.6460967
-4.5063977 -1.046804 2.6465337
-4.6298575 -1.0663698 2.6485085
-4.6680622 -1.0633659 2.6488636
-4.7880087 -1.0665041 2.6503334
-4.8697643 -1.0701478 2.6513777
-5.0450068 -1.1071988 2.6544435
-5.124599 -1.1016389 2.6552026
-5.244204 -1.0938911 2.6563606
-5.2850642 -1.0965682 2.6569066
-5.3220048 -1.0910891 2.657177
-5.3228912 -1.090959 2.6571836
-5.2820311 -1.088282 2.6566374
-5.1044793 -1.034294 2.6530659
-5.0644922 -1.0340806 2.6525996
-4.7901645 -0.92018896 2.6462195
-4.7453856 -0.87997544 2.6445665
-4.6354775 -0.55869746 2.6342134
-4.6284118 -0.51846153 2.6329939
-4.5884571 -0.46850374 2.6311209
-4.5484571 -0.47078878 2.6307249
-4.0873108 -0.23597668 2.6187735
-4.0879297 -0.11605603 2.6153886
-4.0989571 0.083758436 2.6098638
-4.0816698 0.12382529 2.6085312
-4.0318022 0.14657699 2.6073136
-3.9118166 0.14222008 2.6060553
-3.6532788 0.55658078 2.5913579
-3.6684556 0.59646851 2.5904045
-3.95046 0.85363221 2.5863774
-4.030489 0.86572218 2.586957
-4.0605245 0.87556344 2.5870245
-4.0705547 0.88300663 2.5869293
-4.1231847 0.91521466 2.5866244
-4.3580894 1.341485 2.5772717
-4.4389906 1.3423864 2.5781777
-4.556777 1.3586024 2.5790751
-4.5721779 1.3590964 2.5792384
-4.7142963 1.344485 2.5812881
-4.7530513 1.3524895 2.5815079
-4.7896028 1.3580135 2.5817726
-4.8380146 1.3590766 2.5822997
-4.9129958 1.3516929 2.5833719
-4.9932938 1.3467867 2.5844352
-5.0635962 1.3326594 2.5856442
-5.1159134 1.322614 2.5865309
-5.2039089 1.3178709 2.5876782
-5.3448105 1.3218635 2.5891876
-5.422574 1.3197407 2.590143
-5.4638667 1.3158268 2.5907292
-5.5043125 1.3168101 2.591167
-5.5432029 1.3133322 2.5917132
-5.6233492 1.3082758 2.5927789
-5.6646414 1.3043619 2.5933652
-5.7036905 1.2964567 2.5940382
-5.784111 1.2946278 2.595016
-5.8650618 1.3040874 2.5956805
-5.9492407 1.3133115 2.5963888
-5.9820309 1.3140401 2.5967457
-6.0237951 1.3139216 2.59723
-6.0624514 1.3122113 2.5977235
-6.1042156 1.3120928 2.5982077
-6.1838088 1.3176589 2.5989666
-6.2633629 1.3182297 2.5998664
-6.3029041 1.3166175 2.6003673
-6.3843269 1.3298723 2.60093
-6.4221163 1.3305615 2.6013455
-6.5366459 1.3086925 2.6032827
-6.5440969 1.3060547 2.6034431
-6.5845623 1.3095356 2.6038105
-6.66503 1.3102856 2.6047158
-6.7046556 1.3089167 2.605211
-6.8240404 1.2989392 2.6068678
-6.8644667 1.2974249 2.6073761
-7.0218606 1.2985328 2.6091568
-7.064867 1.2946526 2.6097617
-7.1420803 1.278744 2.6111009
-7.2647171 1.2977618 2.611975
-7.342185 1.2946548 2.6129549
-7.3825526 1.2856477 2.6136744
-7.4625597 1.2875165 2.6145427
-7.5430775 1.2981757 2.6151683
-7.5828733 1.2972934 2.6156514
-7.7243328 1.294207 2.6173675
-7.7625947 1.2988279 2.6176772
-7.8029842 1.2996197 2.61812
-7.8234901 1.3008846 2.6183202
-7.884799 1.29921 2.6190734
-7.9633303 1.2823018 2.620456
-8.08461 1.2776583 2.6219838
-8.1642227 1.2857569 2.6226714
-8.2446232 1.2813975 2.6237204
-8.3241777 1.2820032 2.6246192
-8.5639458 1.1989596 2.6297288
-8.5990963 1.2186662 2.629576
-8.764185 1.2885393 2.6295004
-8.8031902 1.2927953 2.6298292
-8.8483238 1.292837 2.6303477
-8.8828659 1.2912983 2.630789
-8.9641523 1.2869689 2.6318474
-9.0445089 1.2947028 2.6325538
-9.2444811 1.2760438 2.6353841
-9.2849264 1.2769936 2.6358228
-9.3640289 1.2763354 2.6367521
-9.4045324 1.2847782 2.6369798
-9.484993 1.2879118 2.6378176
-9.5640354 1.2797605 2.6389582
-9.6049328 1.2819743 2.6393664
-9.6835241 1.2725589 2.6405377
-9.7240295 1.2810018 2.6407652
-9.8311176 1.2863868 2.6418459
-9.8436155 1.2862889 2.6419926
-9.9393644 1.30035 2.6426973
-9.9645996 1.3003629 2.6429875
-10.25968 1.2841381 2.6468439
-10.278564 1.277938 2.6472368
-10.292095 1.2738903 2.647507
-10.494769 1.1163691 2.6542962
-10.632425 0.86761463 2.6629174
-10.634123 0.82632387 2.6641049
-10.631168 0.70776951 2.6674242
-10.451448 0.46842641 2.6721249
-10.451756 0.46191585 2.6723125
-10.332955 0.13504551 2.6801906
-9.9534187 0.098922268 2.6768425
-9.9147339 0.12032259 2.6757915
-9.9124603 0.12097421 2.6757469
-9.6755476 0.10115078 2.6735799
-9.6730194 0.10108931 2.6735525
-9.8315716 -0.028763201 2.6790512
-9.885788 -0.29754117 2.6872778
-9.8249969 -0.45561835 2.6910493
-9.7895927 -0.50779289 2.6921175
-9.5079718 -0.66174084 2.6932294
-9.4684305 -0.66012853 2.6927285
-9.4280148 -0.65370011 2.6920815
-9.1903543 -0.44989586 2.6835802
-9.1101675 -0.48890412 2.6837604
-9.0296135 -0.52896678 2.6839662
-8.6704979 -0.40657583 2.6763692
-8.5901556 -0.39475667 2.6751099
-8.5097351 -0.39292789 2.6741323
-8.3906994 -0.3843936 2.6725204
-8.2707376 -0.38095251 2.6710417
-8.1884289 -0.39430541 2.6704717
-8.0702982 -0.38317549 2.6687968
-8.0298719 -0.38166121 2.6682885
-7.9903307 -0.38004893 2.6677876
-7.9107766 -0.38061976 2.6668878
-7.8307309 -0.3874836 2.6661603
-7.7504091 -0.3731668 2.6648304
-7.7099237 -0.37914535 2.6645334
-7.5708089 -0.37861198 2.6629167
-7.5308151 -0.37830243 2.6624475
-7.4708481 -0.3771604 2.6617246
-7.4094772 -0.38131523 2.6611354
-7.3308668 -0.37425709 2.6600308
-7.2499552 -0.37876323 2.6592267
-7.1308417 -0.38020205 2.6578958
-7.120275 -0.39642394 2.6582332
-6.7698884 -0.51220298 2.6574736
-6.7299242 -0.50448281 2.656795
-6.6494842 -0.50517756 2.6558886
-6.4355297 -0.42977026 2.6512923
-6.380847 -0.38938347 2.6495202
-6.2494092 -0.54887909 2.6525183
-6.2684193 -0.59096575 2.6539276
-6.288363 -0.63034266 2.6552711
-6.0426598 -1.1115164 2.6660523
-5.9648585 -1.1143185 2.665236
-5.8840051 -1.1113318 2.6642206
-5.7240496 -1.107596 2.6622732
-5.7222776 -1.1078562 2.6622601
-5.6840558 -1.1072863 2.6618037
-5.644063 -1.106977 2.6613345
-5.6045218 -1.1053536 2.6608334
-5.6418767 -1.1035557 2.6612127
-6.4655738 1.3523875 2.6012285
-6.5153675 1.3514266 2.6018291
-6.663435 1.3325679 2.6040673
-6.7033892 1.3272583 2.6046774
-6.7424974 1.3268458 2.6051395
-6.7824326 1.3190384 2.6058202
-6.9424648 1.3252734 2.6074862
-6.9824781 1.3274565 2.6078854
-7.0624499 1.3389912 2.6084797
-7.1432791 1.3188038 2.6099815
-7.2246046 1.3195707 2.6108961
-7.263299 1.3228555 2.6112487
-7.3046303 1.3239369 2.6116941
-7.3850307 1.3196104 2.6127422
-7.4641714 1.3238786 2.6135328
-7.4837017 1.3235353 2.6137671
-7.5850964 1.3305261 2.614737
-7.6046066 1.3276188 2.6150439
-7.6841221 1.3232292 2.6160836
-7.7623572 1.3250383 2.6169331
-7.8823185 1.3215984 2.6184118
-8.0027514 1.3219203 2.6197891
-8.1236172 1.3210083 2.6212068
-8.297369 1.3333262 2.6228588
-8.3203173 1.3344134 2.6230922
-8.5221367 1.3065829 2.6262033
-8.683054 1.3128499 2.6278787
-8.7621174 1.3071963 2.6289489
-8.8025637 1.3081461 2.6293879
-8.8820982 1.306254 2.630357
-8.9238434 1.3035028 2.6309154
-9.0020781 1.3053118 2.6317651
-9.002964 1.3053421 2.6317744
-9.0425444 1.3087595 2.6321335
-9.0834236 1.3084756 2.6326122
-9.122098 1.309365 2.6330323
-9.2034225 1.3100311 2.63395
-9.2043095 1.3100612 2.6339593
-9.282505 1.3068751 2.6349497
-9.3220844 1.3102925 2.6353087
-9.4025841 1.3184214 2.6360056
-9.4421635 1.3218386 2.6363647
-9.4821768 1.3240223 2.6367638
-9.5625572 1.3171651 2.6378832
-9.6430378 1.3252413 2.6385813
-9.802351 1.3221418 2.6405034
-9.8221216 1.3213528 2.6407533
-9.9100609 1.3219297 2.6417494
-9.9226437 1.3220686 2.6418905
-9.9454594 1.317915 2.6422706
-10.260151 1.3440801 2.6451538
-10.275227 1.3539516 2.6450481
-10.306688 1.3576425 2.6453061
-10.420944 1.3254507 2.6475322
-10.463857 1.317682 2.648246
-10.538065 1.307061 2.6494009
-10.645687 1.2350643 2.6526766
-10.699562 1.2145262 2.6538777
-10.738459 1.1966045 2.6548326
-10.746877 1.1916715 2.6550689
-10.777258 1.1661948 2.6561394
-10.815466 0.99972802 2.661288
-10.972686 0.58766907 2.6747534
-11.05265 0.52340758 2.6774919
-11.053589 0.52103156 2.6775699
-10.983677 0.4704468 2.6781957
-10.821505 0.19198588 2.6842051
-10.810701 0.089664362 2.6869748
-10.807226 0.024116868 2.6887889
-10.850035 -0.32641214 2.6991968
-10.850096 -0.37506643 2.7005737
-10.849643 -0.37636423 2.7006052
-10.726749 -0.80371106 2.711278
-10.726904 -0.82279962 2.7118196
-10.645893 -0.94229907 2.714267
-10.525513 -1.02063 2.7150967
-10.472256 -1.0614768 2.7156389
-10.413999 -1.1022843 2.7161224
-10.404847 -1.1071028 2.7161534
-10.363831 -1.1243696 2.7161694
-10.322372 -1.1062812 2.7151804
-10.044256 -1.1305463 2.7126646
-9.9848051 -1.1162834 2.7115767
-9.8240833 -1.0976402 2.7091987
-9.781826 -1.1038147 2.7088869
-9.6616497 -1.1278473 2.7081831
-9.6216373 -1.1300305 2.7077839
-9.582037 -1.135911 2.7074945
-9.5025406 -1.128989 2.7063832
-9.4621344 -1.1249772 2.7058046
-9.4217081 -1.1234628 2.7052963
-9.3016691 -1.1300123 2.7040994
-9.2624931 -1.1383413 2.7038839
-9.1626587 -1.1749701 2.7037706
-9.1428871 -1.1741639 2.7035201
-8.902895 -1.1479498 2.7000153
-8.8623915 -1.1564261 2.6997888
-8.6855488 -1.1312543 2.6970406
-8.6626186 -1.1298777 2.6967378
-8.6230774 -1.1282654 2.6962368
-8.542244 -1.1227392 2.6951499
-8.5018177 -1.1212248 2.6946416
-8.4223032 -1.1168004 2.6936009
-8.3831749 -1.1188855 2.6932092
-8.3432016 -1.1160735 2.6926694
-8.2250118 -1.1124364 2.6912057
-8.1846046 -1.1084244 2.6906271
-8.102375 -1.111787 2.6897755
-8.0623999 -1.1089749 2.6892357
-8.0232925 -1.1085624 2.6887736
-7.9841652 -1.1106474 2.6883821
-7.8619804 -1.1087002 2.6869202
-7.7823677 -1.1167639 2.6862316
-7.741941 -1.1152496 2.6857233
-7.6637836 -1.1069317 2.6845882
-7.5832853 -1.1150934 2.6838923
-7.5629249 -1.1144727 2.6836402
-7.523365 -1.115347 2.6832094
-7.4796019 -1.1178672 2.6827769
-7.4644623 -1.1181549 2.6826108
-7.444593 -1.1185254 2.6823924
-7.4371791 -1.1182209 2.6822984
-7.4020262 -1.1183598 2.6818976
-7.3225117 -1.1139292 2.6808567
-7.2833843 -1.1159872 2.6804645
-7.2425241 -1.1133101 2.6799183
-7.2034359 -1.1103729 2.6793852
-7.1634421 -1.1100634 2.678916
-7.1238823 -1.1109376 2.6784852
-7.0434809 -1.1066372 2.6774378
-7.0034485 -1.1113228 2.6771092
-6.9230285 -1.1095198 2.6761324
-6.8834677 -1.1103941 2.6757016
-6.8034616 -1.1122726 2.6748335
-6.7643542 -1.111833 2.6743708
-6.6425052 -1.1236523 2.6733022
-6.602078 -1.122159 2.6727946
-6.523468 -1.1151009 2.6716897
-6.4438758 -1.1206608 2.6709306
-6.40343 -1.1216649 2.6704934
-6.3271418 -1.1175333 2.6694982
-6.2826018 -1.1158712 2.6689382
-6.1635261 -1.1123149 2.6674666
-6.1230798 -1.1133193 2.6670294
-6.0836806 -1.1112852 2.6665182
-2.7507501 -0.30790314 2.6054189
-2.4817507 -0.7640807 2.6152251
-2.3378398 -0.73708421 2.6128044
-2.3053508 -0.7369262 2.6124258
-1.9629366 -0.53427017 2.602751
-1.8863308 -0.37274882 2.5973003
-1.9726567 -0.093264118 2.5903888
-2.0057862 -0.0095391003 2.588402
-2.0115368 0.092043735 2.5855949
-2.0291636 0.19016109 2.5830226
-2.0471067 0.40084264 2.57727
-2.0473869 0.44342452 2.5760686
-2.02792 0.64981848 2.5700066
-2.0205004 0.72586936 2.56777
-2.0122607 0.80779338 2.5653579
-2.0142422 0.85027373 2.5641789
-2.0130892 0.88836807 2.5630882
-2.0131233 0.89586097 2.5628767
-2.3339756 1.2490484 2.5565808
-2.452951 1.243565 2.5581057
-2.4711416 1.2444526 2.55829
-2.5922065 1.2418938 2.5597565
-2.8593681 0.88284957 2.5729883
-2.870446 0.77408874 2.5761921
-2.8903821 0.7615009 2.5767779
-3.07301 0.54101461 2.5851171
-3.1127377 0.4461484 2.588258
-3.1509042 0.28705397 2.5931976
-3.1512411 0.28504366 2.5932581
-3.2281055 0.1214655 2.5987701
-3.2405934 0.081684515 2.6000392
-2.9089143 -0.30553898 2.6071732
-2.8307619 -0.3008346 2.6061404
-2.7907624 -0.30311972 2.6057444
-0.12234974 1.4073546 2.5266385
-0.47552013 1.3716726 2.5317142
-0.53384876 1.3552024 2.5328517
-0.65375042 1.3421166 2.5346024
-0.77732086 1.3242388 2.5365307
-0.81266451 1.3175417 2.5371273
-0.77546406 1.3216395 2.5365829
-0.69368029 1.3294294 2.5354209
-0.57737875 1.3227369 2.5342712
-0.49834633 1.3269323 2.5332425
-0.45568943 1.3358023 2.5325005
-0.12005711 1.3857806 2.5272224
-0.046883583 1.3712691 2.5267904
0.074933529 1.3802021 2.525135
0.15282154 1.3957144 2.5237994
0.23269367 1.4064918 2.5225751
0.27559566 1.4060266 2.5220942
0.31457472 1.4100358 2.5215321
0.37176609 1.4249415 2.520452
0.47237015 1.4325788 2.5190775
0.55435753 1.4248825 2.5183513
0.59816837 1.4307923 2.5176797
0.67426109 1.4310569 2.5167961
0.75733566 1.4110013 2.5164068
0.70814657 1.4293748 2.5164535
0.67811203 1.434076 2.5166664
0.63712406 1.4372997 2.5170472
0.52034569 1.4674999 2.5175374
0.4974122 1.4706593 2.5177121
0.47602415 1.4691797 2.5180001
0.43640852 1.4683676 2.5184793
0.31876755 1.4793798 2.5195224
0.27785063 1.4751098 2.5201142
0.23728752 1.4654944 2.5208533
0.11724377 1.4421844 2.5228949
0.040036201 1.4295802 2.5241401
-0.026012897 1.4244182 2.5250468
-0.04387331 1.4246658 2.5252454
-0.080618382 1.4279912 2.5255744
-5.8837414 -1.1096554 2.66417
-5.9249039 -1.1090138 2.6646259
-5.9627109 -1.1059021 2.664973
-5.5219154 -1.1001295 2.6597345
-5.484127 -1.1007435 2.6593168
-5.4832411 -1.1008737 2.6593103
0 0 0 1 0 0 0 1 0 0 0 1 0 0 0 0 0 597 1 0 0
