ply
format ascii 1.0
comment PCL generated
element vertex 386
property float x
property float y
property float z
element camera 1
property float view_px
property float view_py
property float view_pz
property float x_axisx
property float x_axisy
property float x_axisz
property float y_axisx
property float y_axisy
property float y_axisz
property float z_axisx
property float z_axisy
property float z_axisz
property float focal
property float scalex
property float scaley
property float centerx
property float centery
property int viewportx
property int viewporty
property float k1
property float k2
end_header
-10.840174 0.63271105 3.7131078
-10.867897 0.57809633 3.7010164
-10.849546 0.56920987 3.6979959
-10.434569 0.29132915 3.6108625
-10.247641 0.41587222 3.6327374
-10.160057 0.49412119 3.6478567
-9.9194202 0.7113077 3.6899347
-9.9040833 0.78702897 3.707763
-9.9014072 0.82483274 3.7168932
-9.903368 0.93813044 3.7447162
-9.9131765 0.97579223 3.7543867
-9.9229317 1.012886 3.7639158
-9.9008503 1.1361213 3.7930639
-9.8880091 1.211814 3.8110001
-9.8555183 1.2680213 3.8232617
-9.8444986 1.2968384 3.829808
-9.7977667 1.3442513 3.8392611
-9.7757835 1.3496219 3.8395629
-9.6551743 1.3825682 3.842072
-9.6369343 1.374831 3.8393378
-9.4557343 1.3388319 3.8221798
-9.4147644 1.3385338 3.8202195
-9.295083 1.3269122 3.811862
-9.2578754 1.3239214 3.8094163
-9.1770535 1.3275892 3.806591
-9.0553913 1.3273714 3.8009338
-9.0347519 1.3245417 3.7992904
-8.9773436 1.3204951 3.7956555
-9.0167294 1.3190737 3.7971218
-9.2982721 1.0198078 3.7368369
-9.2983999 0.97674114 3.7263012
-9.298214 0.94028211 3.7173681
-9.3780556 0.82033724 3.6916862
-9.4177876 0.81759775 3.6928458
-9.7540398 0.58159792 3.6505668
-9.7571831 0.43046021 3.6137166
-9.7744408 0.34902692 3.5945785
-9.7756348 0.32202959 3.5880253
-9.7756348 0.28255045 3.5783615
-9.6840258 -0.025944315 3.4986296
-9.4951687 -0.13242139 3.4638672
-9.336791 -0.14515726 3.4534545
-9.0178738 0.10888278 3.5009477
-8.657999 0.069049366 3.4746208
-8.6577072 0.050862398 3.4701557
-8.6580257 -0.012296744 3.4547105
-8.440094 -0.33152866 3.3665314
-8.4077911 -0.36890817 3.3558939
-8.2569714 -0.50667351 3.3152249
-8.1763487 -0.55025339 3.300844
-8.1343002 -0.56360912 3.2956378
-7.7673502 -0.66340011 3.2543089
-7.6965675 -0.67169356 3.2490184
-7.5647612 -0.65629101 3.2467172
-7.4457455 -0.6406886 3.2450542
-7.2459984 -0.51179421 3.2674038
-6.9324999 -0.16624802 3.3375452
-6.9241276 -0.13623405 3.3445063
-6.9229584 -0.11693995 3.3491752
-6.923193 -0.10690098 3.3516433
-6.9828501 -0.11056212 3.3534951
-7.0047026 -0.12470001 3.3510411
-7.0097198 -0.12946545 3.3501058
0.77090883 -0.5148592 2.8973777
0.7459178 -0.47972828 2.9071281
0.39280653 -0.2348782 2.9833269
0.3879981 -0.19713841 2.9927862
0.38664436 -0.055093616 3.0276177
0.46066332 0.15961173 3.0767632
0.62166214 0.31107301 3.1064215
0.70184469 0.34696198 3.1115129
0.70935488 0.34936768 3.1117558
0.50222158 0.54545659 3.1692948
0.34287119 0.66692102 3.2063665
0.26458073 0.93993449 3.2768002
0.26551151 1.0292147 3.2986112
0.18605137 1.1517328 3.3322608
-0.16230631 1.1136816 3.3389928
-0.30382967 1.2683871 3.3833799
-0.42380261 1.3144331 3.4001772
-0.54342532 1.351411 3.4147387
-0.66336393 1.3716711 3.4252224
-0.78288746 1.3617994 3.4283116
-1.0226679 1.3859786 3.4452751
-1.0626256 1.3857107 3.4470499
-1.3024375 1.4051672 3.4628587
-1.3426795 1.3929043 3.4617107
-1.5025105 1.3918329 3.4688106
-1.5421841 1.4035604 3.4735086
-1.6223838 1.3910295 3.4741354
-1.7821805 1.3641721 3.4749219
-1.9020877 1.3891547 3.4865603
-1.9417613 1.4008821 3.4912584
-1.981719 1.4006143 3.4930334
-2.061919 1.3880833 3.4936602
-2.3020346 1.3075131 3.4849987
-2.341933 1.3084731 3.4870715
-2.3819065 1.3058439 3.4882693
-2.4219732 1.3084098 3.4907429
-2.5018234 1.306174 3.4938738
-2.5167637 1.30494 3.4942598
-2.6217623 1.2877076 3.4948783
-2.7040539 1.2853765 3.4980981
-2.7853699 1.1578664 3.4706323
-2.946517 0.85110199 3.402966
-3.0260136 0.76564014 3.3857088
-3.2634556 0.65755165 3.3701882
-3.3212819 0.54133803 3.3444057
-3.4808726 0.25706804 3.2821739
-3.520617 0.13424331 3.2539399
-3.7514703 -0.074685208 3.2134326
-4.3261862 0.0038529187 3.2591295
-3.7516646 -0.11246361 3.2041943
-4.1827221 -0.43469137 3.1451759
-6.5653925 -1.0760185 3.0979447
-6.7260523 -1.0683199 3.1072295
-6.8458805 -1.0649811 3.1135662
-6.924911 -1.0730643 3.1152279
-6.9648728 -1.075875 3.1163807
-7.1246972 -1.0824095 3.122143
-7.2019997 -1.1071876 3.1196387
-7.3218617 -1.1109113 3.1242483
-7.4542274 -1.1251684 3.1268556
-7.5614834 -1.0971711 3.138649
-7.5757589 -1.0941819 3.1400383
-7.6956091 -1.0956074 3.14521
-7.7737703 -1.114808 3.1441104
-7.8532658 -1.1002975 3.151324
-7.937109 -1.0943706 3.1566367
-8.053422 -1.1181343 3.1561775
-8.1770477 -1.0996612 3.1663938
-8.2149715 -1.1041454 3.167043
-8.3346701 -1.150719 3.1611564
-8.4132099 -1.1790595 3.1578369
-8.5754528 -1.1134591 3.1813676
-8.6126556 -1.1082646 3.1843529
-8.6925163 -1.0997735 3.1901097
-8.7023773 -1.0692078 3.198046
-8.7032461 -1.0600827 3.2003195
-8.7052708 -0.94681573 3.228138
-8.7468872 -0.69332218 3.2921042
-8.7533512 -0.66477078 3.2993908
-8.7566729 -0.590505 3.3177223
-8.8171768 -0.34865534 3.3797083
-9.135438 -0.19407627 3.4322057
-9.1769161 -0.19331506 3.4343023
-9.2560005 -0.20282015 3.4356186
-9.3334599 -0.21706267 3.4357004
-9.6923027 -0.48742622 3.3860507
-9.6938343 -0.50092232 3.3828177
-9.7270918 -0.61118323 3.3573604
-9.7328377 -0.66899896 3.343473
-9.7322693 -0.83260828 3.3033991
-9.7319584 -0.85312295 3.2983632
-9.7721977 -0.99098969 3.26647
-10.123656 -1.1784793 3.2367659
-10.163458 -1.1482507 3.2459986
-10.20381 -1.0333804 3.2759748
-10.218611 -0.99578083 3.2858601
-10.243331 -0.94413197 3.2996411
-10.253934 -0.87377048 3.3173525
-10.261245 -0.83608425 3.3269138
-10.284914 -0.6883077 3.3641765
-10.325989 -0.60110217 3.3874145
-10.344015 -0.51666248 3.4089136
-10.362221 -0.46999532 3.4211752
-10.366251 -0.45467395 3.4251113
-10.484653 -0.28997499 3.4708796
-10.485505 -0.26907462 3.4760346
-10.523802 -0.12282057 3.5135984
-10.644938 0.0049444214 3.550452
-10.684786 0.025729898 3.5573754
-10.679396 0.066971973 3.5672221
-6.4429665 -1.1032224 3.0856466
-6.6826453 -1.1012532 3.0971687
-6.9223471 -1.1039921 3.1075394
-5.1042733 -1.0405169 3.0393324
-4.6229606 -1.0851984 3.0062251
-4.5835495 -1.0761747 3.0066185
-4.5429726 -1.0678227 3.0067937
-4.2683797 -1.0790756 2.9913909
-4.2233853 -1.069154 2.9917471
-4.1429844 -0.9714992 3.0119472
-3.665931 -0.93475068 2.9989684
-3.6254332 -0.97796774 2.9865243
-3.5848341 -1.0273252 2.9725728
-3.5084991 -1.0800965 2.9561393
-3.2639184 -1.1011118 2.9397295
-3.2239914 -1.1054102 2.9368382
-3.1042104 -1.1183056 2.9281642
-2.9045386 -1.1327142 2.9154401
-2.8168123 -1.1157806 2.915544
-2.6716976 -1.1052591 2.9114354
-2.6316605 -1.0931879 2.9125459
-2.552063 -1.0788852 2.9123805
-2.4725454 -1.07639 2.9093285
-2.4323292 -1.0777781 2.9071362
-2.3519244 -1.0866214 2.901268
-2.1920781 -1.0832064 2.8947411
-2.1128566 -1.0980048 2.8874695
-2.0723798 -1.1083935 2.8830621
-1.8721595 -1.0827969 2.880105
-1.7929146 -1.0809662 2.8769031
-1.7523174 -1.0867176 2.8736253
-1.4517636 -1.1641208 2.8408346
-1.4344742 -1.1729628 2.8378739
-1.3944521 -1.1826347 2.8336627
-1.3145366 -1.1821079 2.8301108
-1.2745788 -1.1818446 2.8283346
-1.1136823 -1.2055888 2.8151114
-1.0337133 -1.2314086 2.8051076
-0.99407983 -1.2449454 2.7999687
-0.87455678 -1.2351023 2.7968726
-0.71437597 -1.2431018 2.7875361
-0.67441821 -1.2428385 2.7857599
-0.63481045 -1.2335223 2.786216
-0.59457231 -1.218327 2.7880821
-0.41905093 -1.1466972 2.7975304
-0.3076067 -1.1394147 2.7941797
-0.28780103 -1.1352806 2.7942793
-0.10671616 -1.1561185 2.7808375
0.012966156 -1.0918312 2.7910607
0.093293667 -1.0803142 2.7901797
0.13288546 -1.0813696 2.7880979
0.17283154 -1.0833925 2.7857625
0.21276569 -1.0877765 2.78285
0.25312805 -1.0875907 2.7810364
0.29269266 -1.0847378 2.7799122
0.37260771 -1.0840605 2.776397
0.41255379 -1.0860832 2.7740619
0.49241114 -1.0972129 2.7676592
0.57281208 -1.0766826 2.768981
0.61228514 -1.0294787 2.7787173
0.65067196 -0.98905373 2.7868443
0.69125366 -0.92939323 2.7995784
0.77027607 -0.8263917 2.8211508
0.81114435 -0.7842921 2.8295734
0.82346678 -0.74352813 2.838984
0.8239131 -0.71451306 2.8460655
0.82341051 -0.630018 2.8667712
0.82838583 -0.59211308 2.8758202
0.81088638 -0.55451506 2.8858294
-7.855895 1.4273136 3.7701459
-7.8159447 1.4277836 3.7684207
-7.6959534 1.395663 3.7550313
-7.4960699 1.389228 3.7442491
-7.4768262 1.390121 3.7435813
-7.3973274 1.3555167 3.7314491
-7.1987228 1.305477 3.7100525
-7.0771742 1.2931999 3.7014484
-6.9573946 1.2803423 3.6927838
-6.8381414 1.2832153 3.687994
-6.6380377 1.3214304 3.6881311
-6.4377975 1.278407 3.6683764
-6.3978472 1.278841 3.6666424
-6.3177366 1.277422 3.662605
-6.197772 1.2251612 3.6442869
-6.0779562 1.2193836 3.6373539
-5.9582 1.2018059 3.6275349
-5.7180409 1.2393118 3.6256533
-5.6782999 1.2420332 3.6244888
-5.558238 1.2410482 3.6187174
-5.4385796 1.2045907 3.6042817
-5.3584161 1.2025995 3.6001019
-4.974102 1.2025248 3.5823812
-4.8217626 1.2088457 3.5769114
-4.7968178 1.204385 3.5746706
-4.7424068 1.1057837 3.5480289
-4.7426329 1.0933139 3.544987
-4.7425303 1.0521346 3.5349026
-4.7430048 0.99243748 3.5203118
-4.734776 0.80910093 3.4750562
-4.7034931 0.7476595 3.458576
-4.7034178 0.7418043 3.4571393
-4.5822954 0.48862553 3.3895876
-4.5425892 0.3717351 3.3591466
-4.5175171 0.33081782 3.3479762
-4.343544 0.02727898 3.2656634
-8.0990467 1.1891721 3.7230544
-7.8592472 0.94926077 3.6532841
-7.5395269 0.67553246 3.5715547
-7.4805841 0.63377517 3.5586183
-7.4595661 0.62405342 3.5552707
-7.2709632 0.6772458 3.5596035
-7.0811968 0.67930794 3.551367
-6.8809733 0.67633194 3.5414159
-6.8011236 0.67777205 3.5380905
-6.7611732 0.67820626 3.5363564
-6.5613871 0.60028183 3.5080798
-6.4013233 0.59915918 3.5004323
-6.1616392 0.52224076 3.4705639
-6.1218815 0.4849149 3.4595962
-5.8878126 0.21983181 3.3839281
-5.9350915 -0.0604522 3.3174989
-5.930203 -0.12666427 3.3010664
-5.924458 -0.13494115 3.2987759
-5.8772335 -0.34251428 3.2457914
-5.8592639 -0.4271732 3.2242413
-5.8571348 -0.50247872 3.2057102
-5.8068323 -0.61266279 3.1764226
-5.8067098 -0.77285546 3.1372054
-6.0467596 -1.0323088 3.0847545
-6.1267633 -1.0544097 3.0830297
-6.2066755 -1.0576769 3.085911
-6.3260126 -1.0697076 3.0884631
-6.4060745 -1.0688347 3.0923645
-6.4863396 -1.0632267 3.0974345
-1.9482107 0.26488858 3.2134905
-1.4278903 0.42289644 3.2282
-1.2291124 0.22909422 3.1716056
-1.1868858 0.19103065 3.1603434
-1.0696948 0.15233567 3.1454737
-0.83008909 0.11332745 3.1248887
-0.79013586 0.096825987 3.1190093
-0.55040073 0.05439797 3.0975811
-0.47067118 0.015452031 3.0843756
-0.35146213 -0.11049278 3.0480561
-0.22620988 -0.35270786 2.9829981
-0.22655106 -0.36593473 2.9797761
-0.24376082 -0.45637393 2.9584315
-0.2274096 -0.55654478 2.9331589
-0.22742271 -0.59829181 2.9229407
-0.43487144 -1.0671315 2.817735
-0.47486043 -1.0721202 2.8183558
-0.595083 -1.0638211 2.8259251
-0.75497675 -1.0743325 2.8307171
-0.87446022 -1.098918 2.8302028
-0.9141717 -1.1030445 2.831022
-0.95440745 -1.1041677 2.8326004
-0.99434924 -1.1020696 2.8349538
-1.0742486 -1.1002346 2.8390832
-1.1142223 -1.1028596 2.840282
-1.1942093 -1.0934525 2.8462691
-1.4001925 -0.98391938 2.8825681
-1.5409636 -0.66375238 2.967422
-1.598403 -0.66413617 2.9699738
-1.9496441 -0.37932295 3.0558684
-1.9493272 -0.34325552 3.0646822
-1.929435 -0.25221807 3.0860498
-1.9439163 -0.17677085 3.1051846
-1.9485497 -0.12250453 3.1186812
-1.9487464 -0.048126549 3.1368964
-1.947638 0.014425032 3.1521564
0.56869555 -0.55224711 2.8975403
0.59663677 -0.67977971 2.8650362
0.37202549 -0.98081315 2.8016963
0.36203861 -0.98567915 2.8009653
0.33219528 -0.99779391 2.7993746
0.17229509 -1.0133168 2.8029404
0.13194036 -1.0045929 2.8069344
-0.10739994 -0.51661384 2.9374051
0.13910389 -0.38663393 2.9578667
0.19404554 -0.38616818 2.9554498
0.25400686 -0.38622671 2.9526737
-7.3658562 -0.71161878 3.2240124
-5.8827462 -1.0945849 3.0619559
-6.1241994 -1.0853375 3.0753412
-6.283165 -1.1013964 3.0787327
-6.3231382 -1.1065612 3.0793097
-8.7391968 1.2655326 3.7712326
-8.8192625 1.3057739 3.7847705
-8.7755089 1.3849664 3.8021398
-8.6558094 1.3509605 3.7883022
-8.5352077 1.3420664 3.78057
-8.4161701 1.3396144 3.7744865
-8.375288 1.345173 3.7739642
-8.2154875 1.3470533 3.7670636
-8.08566 1.3462198 3.7608795
-5.6430101 -1.0847832 3.0533123
-5.5239711 -1.0644724 3.0528007
-5.4449296 -1.0540349 3.0517149
-5.3233156 -1.0622976 3.0440905
-5.2808738 -1.0629897 3.0419662
-2.9470563 0.57700211 3.3358977
-2.5475025 0.18700765 3.2220316
-2.4679525 0.19425017 3.2201402
-2.2663317 0.66549742 3.3262036
-2.5055552 0.79697597 3.3694057
-2.6276078 0.82233584 3.3812351
-8.419322 1.2269771 3.7470608
-8.4592857 1.2365186 3.7512372
-8.5391197 1.2644789 3.7617586
-8.6992474 1.2660028 3.7695074
-8.2993622 1.2272525 3.7416027
-8.3792629 1.2263124 3.7450528
-8.2595215 1.2288573 3.7401602
0 0 0 1 0 0 0 1 0 0 0 1 0 0 0 0 0 386 1 0 0
