ply
format ascii 1.0
comment PCL generated
element vertex 333
property float x
property float y
property float z
element camera 1
property float view_px
property float view_py
property float view_pz
property float x_axisx
property float x_axisy
property float x_axisz
property float y_axisx
property float y_axisy
property float y_axisz
property float z_axisx
property float z_axisy
property float z_axisz
property float focal
property float scalex
property float scaley
property float centerx
property float centery
property int viewportx
property int viewporty
property float k1
property float k2
end_header
-9.6330738 -0.025061995 3.9592056
-9.6499891 -0.080147475 3.9296989
-9.6609087 -0.10552822 3.9033265
-9.6866274 -0.14853662 3.8291569
-9.7030354 -0.17050451 3.777904
-9.8128166 -0.42997244 3.5158806
-9.8318291 -0.5391947 3.5167418
-9.8365374 -0.55245256 3.5070376
-9.9214811 -0.67241836 3.246182
-9.9596081 -0.8063556 3.1867027
-9.9648123 -0.82420921 3.1782756
-9.998929 -0.94081855 3.1227226
-10.012289 -0.96842515 3.0879817
-10.073728 -1.1066314 2.936305
-10.079828 -1.109202 2.9132223
-10.092641 -1.1017162 2.8554769
-10.121315 -1.1066351 2.7418308
-10.137087 -1.1210288 2.6877246
-10.151962 -1.1285356 2.6323347
-10.168936 -1.1327289 2.5659814
-10.177206 -1.1389064 2.5366278
-10.179572 -1.1408366 2.5283456
-10.204709 -1.1434389 2.4274888
-10.214941 -1.149121 2.3897614
-10.225173 -1.1548032 2.3520336
-10.282925 -1.1670665 2.1248331
-10.295119 -1.1722535 2.0787306
-10.333502 -1.1551839 1.9095892
-10.357789 -1.1460451 1.8037616
-10.369578 -1.1488065 1.7575668
-10.381368 -1.1515682 1.7113718
-10.39704 -1.1464492 1.6436425
-10.413339 -1.1484133 1.5784451
-10.429234 -1.1479523 1.5131546
-10.436283 -1.1452752 1.4824189
-10.447677 -1.147189 1.4372362
-10.455542 -1.1509409 1.4077898
-10.463539 -1.1409162 1.3678957
-10.482944 -1.1359607 1.2850286
-10.492368 -1.1367919 1.2471155
-10.51081 -1.1360288 1.1711971
-10.519829 -1.1344345 1.1331912
-10.521791 -1.1339393 1.124817
-10.533176 -1.1342752 1.0785297
-10.54729 -1.1320769 1.0192672
-10.555501 -1.1256316 0.98107636
-10.57273 -1.117592 0.90488017
-10.586886 -1.1222839 0.85040319
-10.595501 -1.118264 0.81230509
-10.604924 -1.1190952 0.77439201
-10.610424 -1.1209166 0.75322795
-10.633598 -1.124014 0.66074562
-10.641869 -1.1301913 0.63139224
-10.647654 -1.1091934 0.59264576
-10.704067 -1.0858344 0.34529483
-10.72567 -1.0902369 0.26017725
-10.733877 -1.0837766 0.22198701
-10.80698 -1.1078899 -0.059423804
-10.830145 -1.1109436 -0.15189588
-10.839971 -1.1141855 -0.18972003
-10.853683 -1.1095457 -0.24909455
-10.865063 -1.1098597 -0.29537636
-10.87921 -1.1145227 -0.34984106
-10.884714 -1.1163433 -0.37102497
-10.902748 -1.1131247 -0.44703966
-10.906666 -1.1121204 -0.46377152
-10.915683 -1.1105111 -0.50177884
-10.930948 -1.1029438 -0.56961071
-10.966984 -1.090754 -0.72564566
-10.989712 -1.084505 -0.82302707
-11.005383 -1.0793632 -0.89076746
-11.022544 -1.0586638 -0.97578847
-11.026365 -1.0381526 -1.0061619
-11.067027 -0.93552494 -1.2461529
-11.104628 -0.87738121 -1.4416388
-11.185869 -0.99908412 -1.6861166
-11.187401 -1.0013086 -1.6907761
-11.198526 -1.0193046 -1.7233005
-11.207725 -1.0241451 -1.75741
-11.304172 -0.96704805 -2.1926348
-11.325489 -1.0130887 -2.2466378
-11.355334 -1.0127505 -2.3688498
-11.374575 -1.0121796 -2.4478927
-11.393052 -1.0162656 -2.5204666
-11.408421 -1.028179 -2.5747042
-11.413122 -1.0253015 -2.5959899
-11.43469 -1.0186844 -2.6888919
-11.522382 -1.043576 -3.0293651
-11.534637 -1.0614377 -3.0666041
-11.552021 -1.0412326 -3.1521792
-11.560849 -1.0392644 -3.189671
-11.584892 -1.0424165 -3.2856636
-11.61359 -1.0649453 -3.3867412
-11.638605 -1.0386634 -3.5078735
-11.647821 -1.0359517 -3.5474901
-11.667862 -1.0386482 -3.6274533
-11.690667 -1.0013996 -3.7474432
-11.705803 -0.95638323 -3.8416815
-11.687943 -0.87732005 -3.8255601
-11.601129 -0.48339698 -3.754107
-11.59988 -0.46819428 -3.7599416
-11.596231 -0.35627514 -3.825532
-11.643124 -0.12140939 -4.1861048
-11.665216 -0.13223565 -4.2686048
-11.670775 -0.026207343 -4.3675847
-11.688669 0.021462582 -4.4750009
-11.714535 0.033456236 -4.5893345
-11.716488 0.033919573 -4.5976524
-11.721336 0.10239044 -4.6667151
-11.704029 0.15403186 -4.6331296
-11.647305 0.52777565 -4.6701336
-11.640145 0.56423503 -4.6670995
-11.635364 0.58395809 -4.6617455
-11.631089 0.59047759 -4.6489663
-11.614949 0.6125263 -4.598865
-11.589765 0.62786818 -4.5069761
-11.507331 1.2072628 -4.586834
-11.526601 1.2076645 -4.6658759
-11.5235 1.2385765 -4.6754389
-11.492671 1.2886862 -4.5854893
-11.473252 1.286008 -4.5042028
-11.455485 1.2881287 -4.4331207
-11.431664 1.2865156 -4.3346071
-11.40167 1.3210979 -4.2369018
-11.401154 1.3217658 -4.2352738
-11.38605 1.3444809 -4.1898875
-11.382341 1.3510914 -4.1794844
-11.378311 1.3544968 -4.1654649
-11.374675 1.3570644 -4.1524496
-11.371919 1.3317045 -4.1229463
-11.339568 1.241647 -3.9259596
-11.316083 1.2206471 -3.8148746
-11.295321 1.2285502 -3.7357149
-11.286632 1.2249601 -3.6976185
-11.264879 1.2318009 -3.6136422
-11.235631 1.227771 -3.4912128
-11.208016 1.2567346 -3.3991904
-11.204184 1.2584774 -3.3847785
-11.131096 1.3872666 -3.178721
-11.129111 1.3867265 -3.1702242
-11.075784 1.3597918 -2.9329114
-11.074307 1.3546472 -2.9231791
-11.067044 1.3140724 -2.8643107
-11.033202 1.2673316 -2.6923883
-10.992477 1.2766998 -2.5326946
-10.98339 1.2755365 -2.4947171
-10.949824 1.2538953 -2.3419747
-10.932046 1.2491422 -2.2659006
-10.96408 1.2361839 -2.3874979
-10.980267 1.2506446 -2.4640474
-11.001223 1.2486577 -2.5482616
-11.019796 1.2485571 -2.6240978
-11.028885 1.2497203 -2.6620755
-11.048249 1.2574408 -2.7467651
-11.197971 0.84470212 -3.0617728
-11.2015 0.80550849 -3.0480027
-11.17684 0.57877505 -2.784137
-11.161145 0.54650182 -2.6967831
-11.157932 0.53670979 -2.67661
-11.123459 0.50999701 -2.5165091
-11.121474 0.50945663 -2.5080123
-11.100916 0.50901699 -2.4236794
-11.091828 0.50785375 -2.3857021
-11.051493 0.53380698 -2.2395263
-11.005204 0.55813956 -2.0678601
-10.897099 0.87989795 -1.8574903
-10.901604 1.2523929 -2.1438282
-10.908309 1.2554429 -2.1734276
-10.898027 1.2615604 -2.1358068
-10.888143 1.2652507 -2.098067
-10.879851 1.2592338 -2.0598516
-10.870763 1.2580707 -2.0218742
-10.848613 1.2673384 -1.9380168
-10.848316 0.90709352 -1.6776874
-10.706926 1.1690457 -1.2882794
-10.684697 1.1810333 -1.2060564
-10.674491 1.1819645 -1.1650145
-10.664587 1.1861612 -1.1275594
-10.615844 1.2575411 -0.9796977
-10.600651 1.2946403 -0.94429028
-10.597992 1.2966635 -0.9348799
-10.564728 1.3428735 -0.83217764
-10.548719 1.3418514 -0.76601732
-10.491376 1.2745273 -0.48324376
-10.483168 1.2680668 -0.4450534
-10.436386 1.2855099 -0.26641202
-10.394389 1.3271538 -0.12473595
-10.333381 1.3309461 0.12186623
-10.324927 1.3294375 0.15749812
-10.275731 1.3197397 0.36552715
-10.268498 1.3143198 0.39898312
-10.263854 1.3111972 0.42020905
-10.238276 1.3162665 0.52109659
-10.232147 1.3217657 0.54218674
-10.223127 1.3201656 0.58020008
-10.199295 1.3028694 0.69003761
-10.190275 1.3012695 0.72805107
-10.17165 1.2977641 0.8066889
-10.139963 1.3068721 0.92963517
-10.134322 1.3058962 0.95338786
-10.131502 1.3054085 0.9652642
-10.105265 1.3054502 1.0724615
-10.096609 1.309353 1.1050271
-10.071321 1.3096987 1.2081219
-10.056967 1.304424 1.2705797
-10.032741 1.2780269 1.388575
-10.008655 1.2834542 1.4831043
-10.001993 1.2799213 1.5128719
-9.9906149 1.2802544 1.5591313
-9.9647789 1.2835803 1.6623236
-9.9553509 1.2844446 1.7002336
-9.928277 1.2797604 1.8142465
-9.8862333 1.2846509 1.9825519
-9.8595638 1.2775412 2.0966597
-9.8497314 1.2808309 2.1344748
-9.8316822 1.2777081 2.2104836
-9.8096514 1.2862172 2.2943997
-9.7852526 1.2966561 2.3866014
-9.7697306 1.2941267 2.4518547
-9.748538 1.2964157 2.5368171
-9.7168322 1.3172587 2.6514025
-9.7018337 1.3369665 2.6985192
-9.6826019 1.3309873 2.7814193
-9.6410074 1.3677436 2.9249668
-9.6310959 1.3719844 2.9624238
-9.6271181 1.3688589 2.9809256
-9.596921 1.3694599 3.1039028
-9.5683498 1.3730854 3.2180605
-9.5651026 1.3747932 3.230103
-9.5615864 1.3718915 3.2465572
-9.5259247 1.3801963 3.3863263
-9.5007839 1.4057266 3.4707055
-9.4781237 1.386935 3.5768304
-9.4687023 1.3877692 3.6147342
-9.4643679 1.3891172 3.6314797
-9.4539022 1.3651785 3.6914678
-9.4305182 1.2288858 3.8850646
-9.4208784 1.2168107 3.9331455
-9.4252644 1.162644 3.9541821
-9.4306803 1.1364176 3.9509139
-9.440341 1.0876963 3.9464755
-9.4528742 1.0124919 3.9493484
-9.5037031 0.73216021 3.9432602
-9.5088854 0.69062066 3.9519596
-9.5174046 0.64486766 3.9500508
-9.5371714 0.52118587 3.9582319
-9.550312 0.45089129 3.9550896
-9.5673513 0.35938546 3.9512725
-9.5765476 0.2883943 3.9647532
-9.5804014 0.25641751 3.9720025
-9.5990429 0.15795098 3.9666448
-9.6196651 0.04896351 3.9607596
-10.089337 1.2661768 1.1658024
-10.124449 1.274902 1.0160328
-10.158463 1.2710924 0.87976754
-10.174737 1.2639905 0.81836355
-10.25242 1.1532029 0.58057714
-10.270058 1.112704 0.53762674
-10.35738 0.88095152 0.34745646
-10.389095 0.6195094 0.40589249
-10.391142 0.60264575 0.40965891
-10.403658 0.53219092 0.40918672
-10.466356 0.15623571 0.42336977
-10.490898 -0.043541312 0.46676576
-10.492069 -0.081460595 0.4892565
-10.536364 -0.2301479 0.41518402
-10.550998 -0.3074626 0.41098595
-10.568709 -0.78341651 0.68094814
-10.568376 -0.7853111 0.68367469
-10.501798 -1.057423 1.151486
-10.478535 -1.0353919 1.2307123
-10.44798 -1.1301018 1.4237059
-10.430346 -1.135716 1.4998094
-10.405735 -1.117608 1.5873641
-10.381268 -1.1320554 1.6977488
-10.369074 -1.1268684 1.7438515
-10.227169 -0.6831224 2.0046067
-10.230017 -0.6027168 1.9351345
-10.236543 -0.48171017 1.8214253
-10.240379 -0.44796464 1.7814738
-10.238901 -0.42606393 1.7717603
-10.236257 -0.36675325 1.7399074
-10.233932 -0.3370527 1.7280468
-10.232376 -0.33503327 1.7329522
-10.221115 -0.31934276 1.7676872
-10.208664 -0.30110949 1.8054584
-10.190228 -0.30345052 1.8824815
-10.17427 -0.31499076 1.956004
-10.144765 -0.35648626 2.1064301
-9.9991226 -0.026937395 2.4645991
-9.9132376 0.16571653 2.6770182
-9.8907986 0.12008788 2.8015399
-9.8786888 -0.040296152 2.9663901
-9.8496923 -0.074959904 3.1098266
-9.826848 -0.061597511 3.193573
-9.7921047 -0.020132169 3.305737
-9.7676592 -0.00023166835 3.3913269
-9.7258568 -0.043537974 3.5933142
-9.5931139 0.22946236 3.9394383
-9.5801764 0.30709267 3.9364729
-9.5678024 0.38482243 3.9311328
-9.5613337 0.4236376 3.9296498
-9.5491629 0.50870317 3.9182024
-9.5294466 0.79222143 3.7948518
-9.5285082 0.79973996 3.7932787
-9.4828119 0.993572 3.8406072
-9.5163832 1.3491209 3.4476724
-9.5480146 1.3475965 3.319499
-9.5760899 1.3373762 3.2121105
-9.6495628 1.2004343 3.0103445
-9.7047281 1.3029997 2.7111239
-9.732317 1.2800111 2.6149116
-9.7416 1.2695601 2.5844879
-9.7735529 1.2799716 2.4464173
-9.7774792 1.2809633 2.4296565
-9.7991066 1.2748798 2.3456459
-9.8179636 1.2731513 2.2698264
-9.8313074 1.2644827 2.221529
-9.8545065 1.2611061 2.1291471
-9.8725462 1.2643061 2.0531206
-9.8819714 1.2634805 2.0151992
-9.8985281 1.259953 1.9500715
-9.9071484 1.26394 1.9119724
-9.9287758 1.2578564 1.8279616
-9.9464216 1.2634046 1.7518581
-9.9554462 1.2649662 1.7138542
-9.9726505 1.2575279 1.6488923
-9.9930487 1.2587947 1.5646194
-10.005968 1.2682863 1.5049933
-10.010401 1.2694832 1.4860166
-10.01983 1.2686193 1.4481071
-10.03909 1.2644652 1.3723818
-10.060164 1.2583593 1.2906479
0 0 0 1 0 0 0 1 0 0 0 1 0 0 0 0 0 333 1 0 0
