ply
format ascii 1.0
comment PCL generated
element vertex 350
property float x
property float y
property float z
element camera 1
property float view_px
property float view_py
property float view_pz
property float x_axisx
property float x_axisy
property float x_axisz
property float y_axisx
property float y_axisy
property float y_axisz
property float z_axisx
property float z_axisy
property float z_axisz
property float focal
property float scalex
property float scaley
property float centerx
property float centery
property int viewportx
property int viewporty
property float k1
property float k2
end_header
-9.9205704 1.1170665 3.66447
-9.9252052 1.0771797 3.6669483
-9.8839493 0.99898028 3.6693463
-9.8984928 0.51200664 3.6975472
-9.8858299 0.43378982 3.7013438
-9.8842297 0.31274235 3.7080989
-9.881918 0.27169153 3.7103033
-9.8814259 0.23212686 3.7125127
-9.8588524 0.097923264 3.7189853
-9.4554119 -0.1298372 3.7121265
-9.4176311 -0.134342 3.7105343
-9.3973217 -0.13893588 3.7098012
-9.0234785 0.1263375 3.6765566
-9.0138683 0.1662506 3.6738336
-8.9176331 0.19939683 3.6672597
-8.8943624 0.20131128 3.6660142
-8.8356066 0.20460103 3.6629572
-8.8142662 0.20729123 3.6617622
-8.7719269 0.20776527 3.6596665
-8.5745325 0.14815286 3.6533849
-8.5613766 0.1238308 3.654115
-8.2927408 -0.13037144 3.6553366
-8.1327953 -0.12911601 3.6474493
-7.8912773 -0.20512684 3.6399369
-7.9715538 -0.20641665 3.6439331
-8.0517635 -0.20755933 3.6479173
-8.2486525 -0.71366757 3.6861095
-8.1277895 -0.80993742 3.6856375
-7.6457272 -0.80131572 3.6615922
-7.551959 -1.0105202 3.6688197
-7.2296891 -1.0698631 3.6564202
-7.4704237 -1.0679284 3.6680758
-7.5616283 -1.1019487 3.6744535
-7.6814365 -1.1025593 3.6803429
-7.7224975 -1.1001335 3.6822126
-7.8360472 -1.1182977 3.6887872
-7.9231615 -1.1134719 3.6927722
-8.0018616 -1.1214914 3.6970708
-8.0417976 -1.1216948 3.699034
-8.1605511 -1.1174595 3.7045984
-8.2404232 -1.1178665 3.7085247
-8.2826328 -1.1103201 3.7101617
-8.362505 -1.1107271 3.714088
-8.4002151 -1.1136972 3.7160985
-8.441205 -1.1187465 3.7183867
-8.4836159 -1.090021 3.7188377
-8.4845438 -1.0500857 3.7166288
-8.7675619 -0.74372131 3.7131653
-8.8080406 -0.68661666 3.71192
-9.0100307 -0.57551581 3.7155194
-9.059082 -0.5358972 3.7156801
-9.2938709 -0.1712312 3.7065687
-9.4503078 -0.17569815 3.7144659
-9.5291023 -0.17375101 3.7182066
-9.5448895 -0.17016162 3.7187755
-9.5674953 -0.15532611 3.7190428
-9.8511028 -0.061511233 3.7276068
-9.883379 -0.061120167 3.7291622
-9.9042377 -0.057793066 3.7299938
-9.9058247 -0.012526855 3.7275159
-9.9102039 0.026671559 3.7255173
-9.9038124 0.080631897 3.7221587
-9.9070206 0.16034895 3.7178154
-9.9048805 0.20022444 3.7154598
-9.9045353 0.31743234 3.7088265
-9.8991966 0.43466291 3.7019477
-9.6891155 0.80554813 3.6707442
-9.7052116 0.92506474 3.6647842
-9.7362366 1.0395242 3.6598389
-9.3431435 1.3581836 3.6226399
-9.3022633 1.3604851 3.620512
-9.2627325 1.3597815 3.6186199
-9.1811504 1.3538177 3.6149697
-9.1401367 1.35642 3.6128182
-9.0235138 1.3448185 3.607774
-8.9431763 1.3615158 3.6029053
-8.9027672 1.3627654 3.6008599
-8.8627644 1.3631136 3.5988853
-8.8553438 1.3630006 3.5985291
-8.8293066 1.3655285 3.5971138
-8.7029247 1.346315 3.5920222
-8.6198196 1.3539233 3.5875313
-8.5809841 1.3542088 3.5856173
-8.5012512 1.3695536 3.5808544
-8.4200325 1.3729546 3.5766933
-8.3836918 1.3753052 3.5747848
-8.3437319 1.3730117 3.5729613
-8.2217455 1.3759224 3.5668354
-8.0218468 1.331615 3.5595677
-7.9013662 1.3998421 3.5498281
-7.7022295 1.4148796 3.5392475
-7.5613432 1.3489482 3.5360842
-7.5004139 1.3494136 3.5330803
-7.4606638 1.3695434 3.5300014
-7.5217257 1.3864949 3.5320284
-7.5407467 1.3915708 3.5326715
-7.6058993 1.4186553 3.5343266
-7.6932597 1.4182223 3.5386205
-7.7032442 1.4181727 3.5391111
-7.8915215 1.4148406 3.5485003
-7.9029245 1.4171828 3.5489254
-7.9728127 1.4168364 3.5523605
-7.981616 1.4166428 3.5528016
-8.2149248 1.4156361 3.5642602
-8.2200518 1.4153107 3.5645292
-8.2606621 1.4136102 3.5666099
-8.3133478 1.4127493 3.5692332
-8.5023756 1.3721324 3.5807638
-8.5822716 1.3742279 3.5845501
-8.6633377 1.3838853 3.5879667
-8.7836695 1.4024718 3.592798
-8.8018827 1.4007323 3.5937865
-8.9401445 1.3682773 3.6023753
-8.9819031 1.3695694 3.6043432
-9.0214996 1.3645757 3.6065602
-9.0626831 1.3643714 3.6085844
-9.1002941 1.3665838 3.6102974
-9.1191845 1.368889 3.6110904
-9.219141 1.3808514 3.6153002
-9.2990837 1.3879298 3.6188073
-9.3400497 1.3803447 3.6212375
-9.6608505 1.4012716 3.6357338
-9.7767124 1.3632305 3.6435435
-9.8426857 1.3605045 3.6469216
-9.8598213 1.3611693 3.6477213
-9.8854694 1.3615016 3.6489561
-9.9162807 1.3188061 3.6528721
-9.9041672 1.2367383 3.6569128
-4.6632471 0.87534344 3.4211891
-4.5847554 1.1163621 3.4037473
-4.625639 1.2054341 3.4007173
-4.6558452 1.2352079 3.4005127
-4.7060409 1.2750168 3.4007185
-4.8262758 1.3167267 3.4042399
-4.8663607 1.3340025 3.4052236
-4.905941 1.3143615 3.4082665
-5.0833526 1.2722718 3.4193127
-5.1073818 1.2686787 3.4206898
-5.326582 1.2687662 3.4313972
-5.404089 1.2833869 3.4343598
-5.4450707 1.2808884 3.4365036
-5.5249457 1.280548 3.4404263
-5.5649042 1.2828695 3.4422481
-5.6447997 1.2850208 3.4460311
-5.6846948 1.2798672 3.4482718
-5.8832889 1.306844 3.456454
-6.002552 1.335489 3.4606655
-6.1239214 1.3924525 3.4633813
-6.1638584 1.3922822 3.4653425
-6.2437539 1.3944336 3.4691257
-6.2836914 1.3942633 3.471087
-6.3110628 1.3841794 3.4729939
-6.4850407 1.3389204 3.4840512
-6.6049376 1.3483768 3.4893768
-6.685771 1.335741 3.4940403
-6.7246213 1.3329155 3.4960985
-6.9252663 1.3197693 3.5066462
-6.7654748 1.3154665 3.4990799
-6.7255373 1.3156366 3.4971187
-6.5784397 1.3361984 3.4887693
-6.5259581 1.3289467 3.4866138
-6.4051437 1.3367691 3.480268
-6.3651643 1.3319558 3.478586
-6.2056446 1.2584836 3.4749377
-5.8835392 1.1031373 3.4679658
-5.8412561 0.94601727 3.4747691
-5.8373585 0.86789215 3.4789886
-5.9983616 0.34178299 3.5165563
-6.1183691 0.34083581 3.5224745
-6.2790627 0.41930938 3.5258977
-6.3593445 0.45869166 3.5275979
-6.5202336 0.53672868 3.5310555
-6.8405309 0.57421654 3.5445921
-6.9616137 0.65213275 3.5461111
-7.0664492 0.65168589 3.5512598
-7.0408702 0.57191032 3.554513
-6.9597101 0.45322806 3.5572464
-6.9185519 0.3342301 3.5619526
-6.7967701 0.13598156 3.5671923
-6.9409242 -0.21165253 3.5938616
-6.8784781 -0.76926774 3.6222875
-7.1099014 -1.0668103 3.6503937
-6.861186 -0.89135307 3.6283343
-6.4161434 -0.72585607 3.5972426
-6.3955722 -0.72467619 3.5961707
-5.9543686 -0.59764296 3.5674379
-5.9144993 -0.5975771 3.5654857
-5.5942292 -0.71623522 3.5565324
-5.4565983 -0.75548315 3.552022
-5.433598 -0.75441223 3.5508373
-5.3537254 -0.75403905 3.5469129
-5.3533416 -0.73562157 3.5458546
-5.3542747 -0.71451193 3.5447085
-5.2931752 -0.19431932 3.5123572
-5.2395096 -0.17604996 3.5087032
-4.9757223 -0.15488569 3.494617
-4.9373865 -0.14836277 3.4923754
-4.8563724 -0.1453156 3.4882443
-4.8385196 -0.14433862 3.4873166
-4.7785869 -0.096569613 3.4816911
-4.7794528 -0.070668474 3.4802713
-4.7790551 -0.041757271 3.4786198
-4.7796345 0.15103796 3.4677646
-4.9435658 0.282704 3.4683433
-5.0216618 0.71365833 3.4478321
-4.783462 0.85355616 3.4282939
-4.743587 0.86119461 3.425914
0.0057268143 -0.7720294 3.286011
-0.031374931 -0.81208068 3.2900851
-0.33935118 -0.64323157 3.2956042
-0.37929869 -0.64337146 3.2975643
-0.39958596 -0.64478201 3.2986355
-0.73856854 -0.76675844 3.3220873
-0.85670948 -1.0063692 3.341387
-0.89595318 -1.0651153 3.3466213
-0.93505955 -1.1027371 3.350656
-1.054482 -1.1218979 3.357574
-1.2142723 -1.1224575 3.3654146
-1.2941678 -1.1227375 3.3693349
-1.3341153 -1.1228774 3.371295
-1.3929529 -0.96480936 3.3652472
-1.505599 -0.84322423 3.3638887
-1.5538778 -0.8059085 3.3641417
-1.5569417 -0.72618693 3.359791
-1.5516748 -0.68392104 3.3571477
-1.8208303 -0.33440286 3.3505707
-1.8799162 -0.33103788 3.3532684
-2.0197029 -0.29032189 3.3578012
-2.5380788 -0.30864757 3.3841689
-2.616971 -0.37307197 3.3916612
-2.6580863 -0.40909171 3.3957038
-2.6705031 -0.416619 3.3967357
-2.9372566 -0.86437541 3.4350481
-2.625226 -1.0161357 3.4283662
-2.6151347 -1.015654 3.4278457
-2.5332117 -1.0734521 3.4271049
-2.6511567 -1.0993122 3.4343288
-2.6921062 -1.1018894 3.4364755
-2.7719612 -1.1047189 3.4405377
-2.8121109 -1.0952232 3.4419639
-2.8908706 -1.0903609 3.4455383
-3.0108767 -1.0684448 3.450166
-3.0325232 -1.0632019 3.4509277
-3.0541048 -1.0459403 3.4510081
-3.0767827 -1.0211208 3.4507153
-3.5719163 -0.96857804 3.4719465
-3.0569067 -0.86406833 3.4408782
-3.0370631 -0.82403141 3.4376483
-2.9791818 -0.29983318 3.4052281
-3.0624166 -0.17428093 3.4022083
-3.0985742 -0.05528982 3.3972583
-3.3409622 0.16846293 3.3964727
-3.2623754 0.72270459 3.3613448
-3.0264854 0.52962416 3.3607163
-2.8271742 0.51428449 3.3518419
-2.2676234 0.55787271 3.3220358
-2.0648491 0.71018696 3.3035281
-2.0447328 0.69032574 3.3036661
-1.8912964 0.47947043 3.3080707
-1.4107983 0.4038502 3.2888575
-1.19665 0.48433298 3.2738485
-1.1988616 0.44446108 3.2762074
-1.1547203 0.28757507 3.2829065
-0.58740783 0.44555894 3.2462637
-0.46813488 0.52570748 3.2359102
-0.039951324 0.16936418 3.2351007
0.16153383 0.18307891 3.2244799
0.18464422 0.1873872 3.2231073
0.18281078 0.7725147 3.190166
0.14187145 0.85272747 3.1876385
-0.26975584 0.97261006 3.2009873
0.027891636 -0.73703641 3.2829523
0.025351048 -0.73206621 3.2827959
0.26409817 -0.26751202 3.2449038
0.30324221 -0.21121968 3.2398131
0.38289165 -0.14732032 3.2323134
0.3677597 -0.12995599 3.2320728
0.30517483 0.13171044 3.22036
0.30533981 0.14768918 3.21945
0.38343382 0.69740486 3.1846015
0.50285292 0.7777431 3.1742303
0.57237482 0.8580991 3.1662965
0.74130487 1.0185947 3.1489809
0.54088688 1.097078 3.1543448
0.46034813 1.176018 3.1538246
0.29976702 1.2541637 3.1572609
0.21958685 1.2936774 3.1589487
0.17968988 1.2733465 3.162046
-0.26016617 1.341978 3.1796677
-0.29299736 1.3693583 3.1797264
-0.39271855 1.4287267 3.1812484
-0.43210912 1.431003 3.1830449
-0.55214047 1.4117811 3.189996
-0.67346573 1.4229075 3.1952972
-0.71168876 1.4225434 3.1971858
-0.75165415 1.4248941 3.1990061
-0.7933085 1.4224852 3.2011776
-0.83210611 1.4221956 3.2030902
-1.1130083 1.4028616 3.2179093
-1.1927667 1.4185863 3.2209194
-1.3123553 1.4629356 3.2242601
-1.5118082 1.4223685 3.2362976
-1.5517557 1.422228 3.2382576
-1.5905893 1.4269211 3.2398906
-1.7115462 1.4216647 3.2460985
-1.7914414 1.4213834 3.2500188
-1.8707795 1.4235188 3.2537756
-1.9101701 1.4257951 3.2555721
-1.9916532 1.441743 3.2586539
-2.1096411 1.3877196 3.2674696
-2.1893938 1.3675065 3.2725081
-2.3529203 1.3656846 3.2806027
-2.5092592 1.4062438 3.2859535
-2.6293154 1.4054132 3.2918675
-2.7888584 1.3645911 3.3019688
-2.7962203 1.3648632 3.3023133
-2.8685031 1.3521087 3.3065658
-2.9084415 1.3519446 3.3085268
-2.9483798 1.3517803 3.3104877
-3.0583148 1.363786 3.3151827
-3.0757878 1.3637142 3.3160405
-3.1479654 1.3385025 3.3209913
-2.9902143 1.3318198 3.3136592
-2.9512668 1.3270686 3.3120239
-2.830483 1.3349679 3.3056753
-2.7915351 1.3302165 3.3040402
-2.7275419 1.3156024 3.3017378
-2.712523 1.3106811 3.3012815
-2.6725221 1.3033711 3.2997394
-2.6324997 1.2935694 3.2983367
-2.5901489 1.3040361 3.2956762
-2.545872 1.3167262 3.2927961
-2.4711125 1.3369217 3.2880025
-2.3507483 1.3447437 3.2816787
-2.2708175 1.3400424 3.2780378
-2.0710616 1.3382548 3.2683766
-2.0310783 1.3334126 3.266696
-1.9513032 1.3203305 3.263536
-1.9112511 1.3209244 3.2615449
-1.881186 1.3214831 3.2600441
-1.8316693 1.3198465 3.2577167
-1.6736729 1.2823503 3.2521119
-1.5506568 1.1881063 3.2514203
-1.4691358 1.0413181 3.2557228
-1.1117642 1.2438623 3.226824
-0.79161978 1.2063336 3.2132971
-0.55076599 1.0889482 3.208153
-3.6115775 -1.0011362 3.4757226
-3.6136026 -0.98307747 3.4748023
-3.6138561 -0.97605473 3.4744182
0 0 0 1 0 0 0 1 0 0 0 1 0 0 0 0 0 350 1 0 0
