ply
format ascii 1.0
comment PCL generated
element vertex 478
property float x
property float y
property float z
element camera 1
property float view_px
property float view_py
property float view_pz
property float x_axisx
property float x_axisy
property float x_axisz
property float y_axisx
property float y_axisy
property float y_axisz
property float z_axisx
property float z_axisy
property float z_axisz
property float focal
property float scalex
property float scaley
property float centerx
property float centery
property int viewportx
property int viewporty
property float k1
property float k2
end_header
0.14335585 0.042595848 -3.3252347
0.14432192 -0.040968187 -3.3547425
0.13974905 -0.089058369 -3.3708489
0.13857412 -0.10058099 -3.3746946
0.1343174 -0.13652079 -3.3865883
-0.29742289 -0.41935247 -3.4122388
-0.32470036 -0.42735058 -3.4103932
-0.56807852 -0.43052739 -3.369983
-0.62133503 -0.41984457 -3.3571451
-0.64688969 0.10035411 -3.1701195
-0.68834305 0.14339612 -3.1479328
-0.84091663 0.35353434 -3.0481114
-0.84168816 0.38925087 -3.0354378
-0.84207773 0.43706828 -3.0185807
-0.86876392 0.7101863 -2.9181232
-0.89197302 0.7926209 -2.8852167
-0.86303329 0.836523 -2.8747387
-0.96374655 1.2994593 -2.6949968
-1.1640363 1.3060238 -2.6585178
-1.2026033 1.3175091 -2.6479044
-1.3991103 1.2965373 -2.6217401
-1.4820201 1.3044852 -2.6048031
-1.5604131 1.3005763 -2.5927999
-1.6892226 1.3191339 -2.5643058
-1.7684624 1.3174481 -2.5513775
-1.8835108 1.3049157 -2.5361485
-2.0047703 1.3086859 -2.5141351
-2.0793159 1.2921627 -2.5072179
-2.157604 1.2904938 -2.4944463
-2.1984944 1.2929857 -2.4865944
-2.3189068 1.2945328 -2.4655063
-2.3583131 1.2880986 -2.4610419
-2.4367061 1.2841897 -2.449039
-2.4757977 1.2844753 -2.4422688
-2.5589173 1.2879434 -2.4268689
-2.7111862 1.2682691 -2.4077969
-2.8332927 1.2742625 -2.3848584
-2.8793626 1.2805774 -2.3747804
-3.0360832 1.2733375 -2.3505826
-3.1532693 1.2746134 -2.3301399
-3.2530212 1.2946308 -2.3060911
-3.3535075 1.2821356 -2.2933335
-3.5156293 1.2713501 -2.2694592
-3.3974981 1.2879565 -2.2837837
-3.3803568 1.2887483 -2.2864304
-3.2392104 1.3186331 -2.3000193
-3.1681964 1.3219135 -2.3109839
-3.0840566 1.3024362 -2.3321793
-2.9239058 1.3006001 -2.3601494
-2.8473761 1.3187752 -2.3668249
-2.8146057 1.322737 -2.3710251
-2.7755439 1.3223115 -2.3778393
-2.6995425 1.323881 -2.3902557
-2.6750448 1.3251024 -2.3940067
-2.533272 1.3254676 -2.4180682
-2.4895585 1.3155653 -2.4290037
-2.332458 1.3301027 -2.4507039
-2.2102468 1.3263493 -2.4728739
-2.1728489 1.3305098 -2.4777937
-2.0528314 1.3476063 -2.4922681
-1.9351373 1.3557094 -2.5095038
-1.8525419 1.3410418 -2.5287471
-1.735477 1.3357054 -2.5505948
-1.6937397 1.3309904 -2.5593717
-1.6131608 1.3341918 -2.571996
-1.5739644 1.3361461 -2.5779977
-1.4955711 1.340055 -2.5900006
-1.4543262 1.3316013 -2.6000066
-1.2995162 1.3446062 -2.6218538
-1.2046399 1.3380101 -2.6403582
-1.0554805 1.3356003 -2.6666541
-0.98150015 1.3536056 -2.6729543
-0.94307804 1.3525623 -2.6798763
-0.87636948 1.3543782 -2.6906209
-0.63254595 1.3902088 -2.7196407
-0.54491806 1.3960884 -2.7325275
-0.54190445 1.3947284 -2.7335191
-0.28610563 1.3730532 -2.7847753
-0.53075457 1.2381816 -2.7903922
-0.70602465 0.77723843 -2.9223452
-0.64587784 0.70268649 -2.958786
-0.63821602 0.44674265 -3.0499668
-0.64676666 0.10137723 -3.1697812
-10.61867 -1.156021 -1.9098818
-11.100323 -1.0235809 -1.7811954
-11.074916 -0.85504484 -1.7263498
-11.068256 -0.81902516 -1.714838
-11.05772 -0.83734614 -1.7230691
-11.042654 -0.86499125 -1.7353469
-10.618847 -1.1455691 -1.9061816
-10.080783 -1.1403449 -1.9961528
-10.05241 -1.1273041 -1.9964145
-10.032103 -1.117331 -1.9963775
-9.9352474 -1.1255262 -2.0157807
-9.8566599 -1.1146659 -2.0253761
-9.7574034 -1.0804378 -2.0302925
-9.6215611 -1.0954812 -2.0587525
-9.4650497 -1.087157 -2.0825338
-9.3476667 -1.0809138 -2.1003697
-9.22579 -1.0980122 -2.1271687
-9.1815062 -1.1058764 -2.137486
-8.9856453 -1.0910056 -2.1656823
-8.907279 -1.0846108 -2.1768079
-8.789896 -1.0783676 -2.1946437
-8.7071466 -1.0975472 -2.2154975
-8.6866322 -1.1395613 -2.2337508
-8.6658916 -1.228844 -2.2686408
-8.6863403 -1.2477462 -2.2717891
-8.8925838 -1.1300759 -2.1952801
-9.0487633 -1.1317021 -2.1692033
-9.1273508 -1.1425623 -2.1596081
-9.3381271 -1.1164335 -2.1144698
-9.4112263 -1.130541 -2.1069512
-9.562582 -1.1488106 -2.0875421
-9.6457729 -1.1385621 -2.0697491
-9.8022842 -1.1468863 -2.0459678
-9.8418541 -1.1578983 -2.043083
-9.9639521 -1.1452652 -2.0178144
-10.00319 -1.149579 -2.0126343
-10.042097 -1.1471947 -2.0051587
-10.06111 -1.1436187 -2.000659
0.27923107 0.00051730871 -3.3631935
0.26741886 -0.13085867 -3.4073102
0.23559141 -0.19238052 -3.4234829
0.22474575 -0.4073205 -3.4971075
0.2293272 -0.41923791 -3.5020738
0.22571135 -0.4908846 -3.5266154
0.21437931 -0.53356296 -3.5396681
0.19304228 -0.67179382 -3.5845666
0.19400787 -0.75535792 -3.6140747
0.19316721 -0.87474537 -3.6558533
0.18710279 -0.94650859 -3.6800179
0.18071365 -0.97041446 -3.6873221
0.13791513 -1.0439248 -3.7058327
0.11667442 -1.0746047 -3.7129817
0.049219608 -1.0953475 -3.708756
-0.067305088 -1.1554986 -3.7099962
-0.22613239 -1.1980318 -3.6978321
-0.53591347 -1.1208155 -3.6178622
-0.61441422 -1.1269909 -3.6066368
-0.74015522 -1.0906149 -3.5724094
-0.93206596 -1.1216182 -3.5505519
-1.0977507 -1.1028399 -3.5156884
-1.2543259 -1.1062615 -3.4901748
-1.371917 -1.1121763 -3.472188
-1.4894018 -1.1158588 -3.4534354
-1.685281 -1.1234843 -3.4226918
-1.7289791 -1.1132396 -3.4116385
-1.8901622 -1.1066775 -3.3818328
-1.9293597 -1.108649 -3.3758373
-2.1341343 -1.08961 -3.3342128
-1.9231579 -1.0687824 -3.3628964
-1.903666 -1.070029 -3.3666599
-1.786181 -1.0663465 -3.3854122
-1.5856946 -1.0687048 -3.4204478
-1.2678292 -1.069613 -3.4750018
-1.1067529 -1.0784074 -3.505573
-0.94546318 -1.0827374 -3.5346131
-0.77953959 -0.60687608 -3.3958271
-0.78725386 -0.53911275 -3.3707161
-0.73221684 -0.43878341 -3.3448763
-0.70433712 -0.41380388 -3.3408618
-2.2818139 -1.1196963 -3.3195798
-2.5216043 -1.121542 -3.2793143
-2.6042864 -1.1088043 -3.2607341
-2.8004854 -1.1231267 -3.2322874
-2.8396823 -1.1250983 -3.2262919
-2.9733307 -1.0886558 -3.1906919
-3.0609584 -1.070329 -3.1693053
-3.1389632 -1.0672337 -3.1549091
-3.2125118 -1.0784609 -3.1463025
-3.2514548 -1.0757955 -3.1387219
-3.3644075 -0.93597835 -3.0703535
-3.7756114 -1.0250828 -3.0314817
-3.8263185 -1.056953 -3.0340209
-3.9565864 -1.0814036 -3.02038
-3.970773 -1.0787444 -3.0170257
-4.061398 -1.0677873 -2.9977155
-4.1686592 -1.0542841 -2.9746728
-4.2533536 -1.0515614 -2.9592659
-4.3669105 -1.0802436 -2.9499624
-4.4891434 -1.0758094 -2.9275496
-4.6846881 -1.0781313 -2.8950007
-4.7677407 -1.0718914 -2.878639
-4.8900924 -1.0696927 -2.8569911
-4.9632859 -1.0742133 -2.8460898
-5.0423555 -1.0912381 -2.838577
-5.1612506 -1.1211296 -2.8287871
-5.2888989 -1.1048607 -2.8012948
-5.3279119 -1.1047714 -2.7946069
-5.5202074 -1.1635363 -2.7824321
-5.6214266 -1.1718782 -2.768091
-5.7738314 -1.1475797 -2.7335551
-5.8568091 -1.0603669 -2.6887729
-6.2039733 -1.0517607 -2.6265168
-6.2304559 -1.0603688 -2.625021
-6.4541416 -1.06674 -2.5890925
-6.5206165 -1.0923555 -2.5867453
-6.5815911 -1.1251453 -2.5878556
-6.6015944 -1.1373781 -2.588738
-6.7178683 -1.1864201 -2.5861199
-6.7569914 -1.1885573 -2.5801952
-6.8793526 -1.1303091 -2.5388641
-7.0755196 -1.1521281 -2.5130553
-7.1928887 -1.15854 -2.495281
-7.5128241 -1.3159117 -2.4959531
-7.6418052 -1.2114857 -2.4372773
-7.6564636 -1.2039384 -2.432126
-7.6593189 -1.0721035 -2.3853459
-7.6570673 -1.059249 -2.381216
-7.706038 -0.78638607 -2.2770462
-7.7078266 -0.74862486 -2.2634814
-7.7022724 -0.73496842 -2.2596335
-7.7285728 -0.47805399 -2.1649318
-7.7331133 -0.45209903 -2.1550434
-7.6913834 -0.3890388 -2.1400201
-7.6514883 -0.37131566 -2.1406035
-7.5719175 -0.34032232 -2.143297
-7.4935617 -0.33382124 -2.1543834
-7.2490959 -0.35481131 -2.2034655
-7.1810184 -0.32562947 -2.2048337
-7.097909 -0.33826178 -2.2234499
-6.9707589 -0.3313157 -2.2427053
-6.7186604 0.047808394 -2.1525915
-6.6762433 0.056860015 -2.1566503
-6.5941658 0.060917795 -2.1692297
-6.4391303 0.03021574 -2.2064631
-6.3724051 0.0076023787 -2.2257886
-6.0392241 0.015181005 -2.2799754
-5.6936913 -0.31514201 -2.4549222
-5.6863556 -0.31474122 -2.4560332
-5.345768 -0.31449139 -2.5140574
-5.206284 -0.34806395 -2.5496452
-5.2078223 -0.37712663 -2.559588
-5.1787806 -0.61610115 -2.6484578
-4.9822946 -1.0392785 -2.8305793
-4.8646364 -1.0316256 -2.8479671
-4.6381774 -0.86061895 -2.8265581
-4.609025 -0.81129533 -2.8142123
-4.581934 -0.76098382 -2.801168
-4.5393071 -0.66656506 -2.7752864
-4.5257049 -0.61565238 -2.7597296
-4.5249667 -0.3770054 -2.6760557
-4.4975739 -0.29924831 -2.6534255
-4.4704766 -0.29185048 -2.6554513
-4.4533353 -0.29106048 -2.6580985
-4.3424315 -0.27256829 -2.6705277
-3.9641538 0.068322375 -2.6153684
-3.9343152 0.094345987 -2.6113214
-3.9266143 0.10139118 -2.6101613
-3.9011292 0.1268933 -2.6055548
-3.8790905 0.12790905 -2.6089582
-3.6940551 0.063925549 -2.662997
-3.5360336 0.095739961 -2.6787875
-3.4521332 0.043940544 -2.711292
-3.2448952 0.033204794 -2.750421
-2.9493253 -0.28992301 -2.9143167
-2.8755078 -0.27983052 -2.9233677
-2.8608155 -0.27915335 -2.9256368
-2.8310368 -0.31961197 -2.9449244
-2.7665045 -0.37829214 -2.9765403
-2.7818153 -0.39595872 -2.9801316
-2.9493201 -0.69001395 -3.0548077
-2.7956116 -1.0290436 -3.2000823
-2.5437906 -1.0537641 -3.251729
-2.3299069 -1.0950034 -3.3027034
-2.2080274 -1.1057694 -3.3272791
-3.4082084 -0.5911147 -2.941783
-3.7869067 -1.0127931 -3.025239
-3.9490638 -1.0129414 -2.9976234
-4.0226121 -1.0241687 -2.9890168
-4.1793909 -1.0325094 -2.9651957
-4.2230868 -1.0211103 -2.9537375
-4.2666044 -1.006358 -2.9411321
-4.4340062 -0.85242057 -2.8585153
-4.4446344 -0.67781276 -2.7953892
-4.0672593 -0.41841853 -2.768693
-3.8926117 -0.35854617 -2.7774677
-3.7713552 -0.36294967 -2.7997031
-3.7494779 -0.36809033 -2.8052409
-3.7276001 -0.37323105 -2.8107789
-3.6884205 -0.3714253 -2.8168297
-3.4226427 -0.56826711 -2.9312973
0.16849279 0.43259704 -3.1925764
0.2840414 0.34069538 -3.2445624
0.28866291 0.33107865 -3.2487278
0.30574417 0.2782979 -3.2701759
0.31370878 0.2172498 -3.2929716
0.31648207 0.16950913 -3.3102088
0.30370426 0.1216972 -3.3248177
0.086478233 0.40549767 -3.1880989
0.085743904 0.38981825 -3.1934793
0.12392998 0.26972294 -3.2421656
0.13772345 0.19890057 -3.269388
0.13849497 0.16318409 -3.2820611
0.13734722 0.12688129 -3.2946129
-10.852877 1.131935 -1.0665164
-10.850718 1.1567162 -1.0581828
-10.824825 1.1870618 -1.051945
-10.531319 1.2420157 -1.082727
-10.498405 1.2464795 -1.0867753
-10.45369 1.2476493 -1.093994
-10.288212 1.3043745 -1.1023095
-10.227104 1.3221586 -1.106491
-10.14348 1.3209208 -1.1211938
-10.026203 1.3248734 -1.1398159
-9.9290543 1.3166243 -1.1592883
-9.844986 1.3243271 -1.1709273
-9.7275991 1.330515 -1.1887833
-9.6500034 1.3212293 -1.2052835
-9.6108742 1.3232921 -1.2112355
-9.5677481 1.3207737 -1.2194781
-9.4100828 1.3237718 -1.2453265
-9.3219757 1.2992903 -1.2689562
-9.1164799 1.2809966 -1.3104421
-8.9891329 1.2608128 -1.3392577
-8.7987423 1.2787237 -1.3654531
-8.6763201 1.2728434 -1.388406
-8.5985031 1.268028 -1.4033742
-8.5543394 1.2580224 -1.414423
-8.5099545 1.2524871 -1.4239397
-8.4710464 1.2500793 -1.4314239
-8.3147507 1.2538596 -1.456764
-8.1925478 1.2435089 -1.481249
-8.1527901 1.2440629 -1.487838
-8.0212145 1.2402066 -1.5116419
-7.8355713 1.2455338 -1.5414461
-7.7911863 1.2399983 -1.5509629
-7.7522783 1.2375907 -1.558447
-7.6763153 1.2425408 -1.5696697
-7.6371908 1.2446643 -1.5755996
-7.5570741 1.2389632 -1.5912712
-7.4758205 1.2366055 -1.6059628
-7.3536835 1.2241888 -1.6311622
-7.3205051 1.2205191 -1.6381116
-7.153296 1.2160188 -1.6682215
-7.113956 1.2226115 -1.6726189
-7.074616 1.2292041 -1.6770163
-6.9963665 1.233451 -1.6888759
-6.9570265 1.2400438 -1.6932733
-6.8397598 1.2441796 -1.7118293
-6.7169762 1.2451702 -1.7324311
-6.5267611 1.2611674 -1.7592686
-6.363718 1.2532014 -1.7898847
-6.3564901 1.2513651 -1.7917627
-6.3175812 1.2490168 -1.799226
-6.278564 1.2489021 -1.8059235
-6.239655 1.246554 -1.8133867
-6.1564341 1.236431 -1.8311408
-6.0781837 1.240669 -1.8430039
-5.7836056 1.2970442 -1.8734696
-6.0813456 1.2438059 -1.841363
-6.1224961 1.248444 -1.8327131
-6.208569 1.268306 -1.8110526
-6.3699346 1.2838238 -1.778071
-6.4135046 1.2997323 -1.7650509
-6.5363955 1.2965071 -1.7452154
-6.5809293 1.2997633 -1.7364736
-6.6964746 1.3313806 -1.7056568
-6.8597813 1.2992171 -1.689087
-6.9216814 1.3034425 -1.6770418
-7.0127788 1.2898748 -1.6662627
-7.133009 1.2977602 -1.6429799
-7.2509212 1.2802171 -1.6290215
-7.295455 1.2834734 -1.6202798
-7.3787909 1.2913098 -1.603309
-7.4567175 1.2937665 -1.5891503
-7.6184101 1.2951216 -1.5610862
-7.7372179 1.3223459 -1.5312552
-7.8948398 1.2917444 -1.515107
-7.9675112 1.2867264 -1.5044696
-8.1345396 1.2936721 -1.473532
-8.1760769 1.2998787 -1.4642653
-8.2125778 1.2940172 -1.4600958
-8.3689842 1.2880018 -1.4355216
-8.4132595 1.2957723 -1.4252387
-8.5253906 1.2819866 -1.4109474
-4.5272698 1.3085755 -2.0837793
-4.5225773 1.2987094 -2.0880444
-4.6448097 1.3031456 -2.0656309
-9.4949207 -0.38899142 -1.8322797
-9.6123047 -0.39523596 -1.8144441
-9.6919718 -0.41369289 -1.8073323
-9.7568359 -0.44174081 -1.8061138
-9.7909164 -0.45597017 -1.8052955
-9.933794 -0.46897459 -1.7854838
-9.967433 -0.4742704 -1.7816041
-9.970191 -0.47281343 -1.7806218
-9.9826174 -0.45661366 -1.7728131
-9.9917603 -0.44182193 -1.7660592
-10.071692 -0.34996164 -1.7201648
-10.060431 -0.28645772 -1.699787
-10.059656 -0.27081192 -1.6944251
-9.9467049 -0.27298144 -1.7144589
-9.7312069 -0.31786507 -1.7669884
-9.4564934 -0.14709529 -1.7538955
-9.4282455 -0.078668445 -1.7346876
-9.4158812 -0.004402712 -1.7107192
-9.4075985 -0.0062901378 -1.7127953
-9.4015446 -0.071800455 -1.7368319
-9.3347759 -0.20700054 -1.7956988
-9.3661671 -0.39169705 -1.8551979
-9.4199696 -0.39455855 -1.847023
-9.4762859 -0.39117622 -1.8362265
0.090947151 0.42646515 -3.1814985
-11.238672 -0.18197581 -1.4620643
-11.157148 -0.22568069 -1.4913211
-11.133966 -0.23129177 -1.4972467
-10.777966 -0.2419232 -1.5617214
-10.751572 -0.19330043 -1.5491512
-10.745979 -0.11066714 -1.5210892
-10.665373 0.11576213 -1.4553329
-10.656265 0.1519139 -1.4441922
-10.659388 0.18741794 -1.4311924
-10.660728 0.20964013 -1.4231604
-10.658297 0.25881267 -1.4063087
-10.653379 0.33002371 -1.3821422
-10.652048 0.36383539 -1.3704965
-10.654101 0.43870944 -1.3438547
-10.644815 0.53149664 -1.3128573
-10.632745 0.59351093 -1.2931408
-10.620924 0.74914217 -1.2405084
-10.592663 0.94130868 -1.1778522
-10.588593 0.98952562 -1.1616155
-10.330273 1.261885 -1.1100529
-10.246205 1.2695876 -1.1216919
-10.162691 1.266115 -1.1371608
-10.094436 1.2652543 -1.1491089
-10.06521 1.2645711 -1.1543353
-10.02597 1.2688687 -1.1595212
-9.9670439 1.276428 -1.1669211
-9.8299932 1.2858871 -1.1869835
-9.7469196 1.2734739 -1.2055165
-9.7299118 1.2721411 -1.2088865
-9.5467911 1.2605431 -1.2442033
-9.4347706 1.2720937 -1.2592608
-9.395752 1.2719213 -1.2659788
-11.232013 -0.14595616 -1.4505525
-11.2146 0.092308417 -1.369858
-11.218605 0.10993788 -1.3629843
-11.212833 0.12807025 -1.357602
-11.195791 0.20714499 -1.3327429
-11.189132 0.24316467 -1.3212311
-11.167727 0.27379477 -1.3141277
-11.123318 0.32570106 -1.3034781
-10.927242 0.57248658 -1.2502756
-10.839809 0.94061464 -1.1359272
-10.846096 1.0376203 -1.1007913
-10.848932 1.048472 -1.0964971
-10.852343 1.1086282 -1.0747916
-5.2418575 1.2376183 -1.986771
-5.1064148 1.2460469 -2.0069208
-5.0062799 1.2743105 -2.0140815
-4.7231703 1.2995257 -2.0535321
-5.046114 1.302543 -1.9973712
-5.1863465 1.3091984 -1.9711075
-5.2619581 1.2905962 -1.9647384
-5.3011918 1.2862436 -1.9595727
-5.3794422 1.2820053 -1.9477097
-5.4657364 1.297479 -1.9275525
-5.6220202 1.2934544 -1.9023001
-5.7392869 1.2893186 -1.883744
-8.892437 1.304098 -1.3405567
-9.0924549 1.3192642 -1.3011037
-9.170825 1.3129036 -1.2899655
-8.8139582 1.3126935 -1.3509288
-5.4425626 1.2391506 -1.9519881
-5.5207052 1.2371463 -1.9393592
-5.5625515 1.247244 -1.9286735
-5.6531019 1.2716392 -1.9046571
-5.734201 1.2772352 -1.888855
-5.2809825 1.2354993 -1.9808394
-5.2633719 1.2343364 -1.9842526
-5.3593411 1.2290275 -1.9697422
-6.489346 -0.83878148 -2.5030394
-6.964035 -0.80422157 -2.4099112
-6.7194967 -0.36348221 -2.2968714
-6.6358352 -0.36498159 -2.3116724
0 0 0 1 0 0 0 1 0 0 0 1 0 0 0 0 0 478 1 0 0
