ply
format ascii 1.0
comment PCL generated
element vertex 467
property float x
property float y
property float z
element camera 1
property float view_px
property float view_py
property float view_pz
property float x_axisx
property float x_axisy
property float x_axisz
property float y_axisx
property float y_axisy
property float y_axisz
property float z_axisx
property float z_axisy
property float z_axisz
property float focal
property float scalex
property float scaley
property float centerx
property float centery
property int viewportx
property int viewporty
property float k1
property float k2
end_header
-10.631487 1.2908952 2.7710905
-10.543653 1.3248829 2.7666419
-10.423681 1.3424659 2.7518406
-10.350384 1.3591161 2.7445846
-10.188849 1.3534741 2.7157865
-10.149805 1.3530109 2.7090981
-9.9880018 1.3505816 2.681227
-9.9324894 1.3442873 2.6700125
-9.919302 1.3428525 2.667367
-9.814786 1.331725 2.646472
-9.6089954 1.3171942 2.6075625
-9.5306339 1.3231767 2.5962303
-9.497076 1.3242575 2.590929
-9.3741922 1.3282503 2.571528
-9.2176561 1.3356209 2.5475047
-9.1345634 1.3216915 2.529355
-9.0173483 1.3226254 2.5099792
-8.9389868 1.3286078 2.498647
-8.7779999 1.3091753 2.4657688
-8.6556787 1.2993855 2.4422925
-8.577693 1.2961795 2.4282432
-8.5331707 1.2941899 2.4201744
-8.4495144 1.2940431 2.4061
-8.4159555 1.2951238 2.4007986
-8.3373127 1.3079976 2.3915038
-8.259325 1.3047916 2.3774548
-8.1367235 1.3018932 2.3560159
-8.0193214 1.3074213 2.3379986
-7.9017315 1.3175435 2.3213396
-7.8182631 1.3128023 2.3059068
-7.7396202 1.3256762 2.296612
-7.5828028 1.339938 2.2746263
-7.4806767 1.319665 2.2513654
-7.4024081 1.3233511 2.2393541
-7.2411375 1.3108407 2.2085223
-7.1235485 1.3209654 2.1918643
-6.9960241 1.3028125 2.1649852
-6.957077 1.3000602 2.1576207
-6.8058357 1.3135297 2.1363306
-6.6870317 1.3535241 2.128505
-6.6475234 1.3645579 2.125217
-6.4720511 1.2923982 2.0739582
-6.5895472 1.2845712 2.0912957
-6.633882 1.2911228 2.1007133
-6.7512846 1.2855933 2.1187303
-6.8635788 1.2693715 2.1326559
-6.9469547 1.2763777 2.1487584
-7.0594358 1.2555605 2.1613252
-7.1034908 1.2690051 2.172781
-7.2599339 1.2639303 2.1974833
-7.4217653 1.2626549 2.2242384
-7.4801278 1.2624406 2.2339616
-7.578208 1.2575799 2.2489405
-7.7247696 1.28202 2.2809143
-7.7639036 1.2801772 2.2869201
-7.8026628 1.287523 2.2956426
-7.8860378 1.2945611 2.3117547
-7.9274993 1.295113 2.3188753
-8.0870953 1.2891802 2.3438468
-8.3487816 1.0980293 2.3299069
-8.396801 1.0853035 2.3341105
-8.4470863 1.0819371 2.3415256
-8.4807386 1.0785592 2.3461475
-8.5717945 1.1690661 2.3887992
-8.7137098 1.2482117 2.4365435
-8.8803654 1.2645854 2.4694471
-8.9928474 1.2437395 2.4820054
-9.1150751 1.2558262 2.506161
-9.1932497 1.254438 2.5188518
-9.2718925 1.2415643 2.5281465
-9.4721069 1.256857 2.5663512
-9.5607758 1.2700247 2.5852056
-9.8394442 1.277038 2.6340632
-9.890727 1.2830303 2.6444769
-9.969099 1.2770629 2.6558154
-9.9900303 1.2796174 2.6600988
-10.091121 1.2937311 2.6813226
-10.248608 1.2634137 2.6985631
-10.280781 1.2527316 2.7007275
-10.520452 1.1532506 2.7108278
-10.543209 1.1493437 2.7134624
-10.827105 1.0276949 2.7242732
-10.831367 0.66556442 2.6154349
-11.059654 0.53046805 2.6128514
-10.98524 0.45303094 2.5769448
-10.86007 0.24265738 2.4923091
-10.854178 0.10248424 2.4489152
-10.882483 0.0030033588 2.4235666
-10.937484 -0.094204053 2.4033835
-10.822777 -0.31866086 2.316242
-10.791419 -0.3441698 2.3032658
-10.726882 -0.42667407 2.2674828
-10.49744 -0.68364584 2.1512623
-10.496265 -0.74843836 2.131464
-10.464918 -1.1167668 2.0147784
-10.449501 -1.1465462 2.0031838
-10.171108 -1.1604204 1.9522967
-10.048693 -1.167881 1.929509
-9.9896975 -1.1582224 1.9225368
-9.911335 -1.1522385 1.9112048
-9.8723879 -1.1549907 1.9038403
-9.788826 -1.1574014 1.8890966
-9.7107906 -1.1594592 1.8753867
-9.5752716 -1.188622 1.8438359
-9.5103397 -1.1689779 1.8388891
-9.3971119 -1.1297795 1.8317578
-9.2741327 -1.1234541 1.8130465
-9.1569185 -1.12252 1.7936708
-9.034502 -1.1299807 1.7708828
-8.8048983 -1.1105272 1.7382609
-8.7212429 -1.1106402 1.7241966
-8.5600662 -1.1254483 1.6926855
-8.3935013 -1.144056 1.6591213
-8.1728439 -1.3606962 1.5565755
-8.159606 -1.4278038 1.5340537
-8.0494614 -1.4644282 1.5045015
-8.0439796 -1.46593 1.5031278
-7.9616461 -1.4134071 1.5052087
-7.9274006 -1.3614358 1.5151881
-7.5104694 -1.2197603 1.488124
-7.4251614 -1.2118084 1.4762224
-7.2378945 -1.2615423 1.4297699
-6.7573419 -1.2205409 1.3615793
-6.645896 -1.1826272 1.3543583
-6.562067 -1.1673143 1.3449317
-6.3467226 -1.1626557 1.3102252
-6.2687745 -1.1583109 1.2984668
-6.2123089 -1.1508816 1.2912444
-6.1510534 -1.1534625 1.2801905
-6.031847 -1.1716691 1.2546901
-5.9978213 -1.1591527 1.2527702
-5.7841105 -1.1153523 1.230179
-5.5490394 -1.1572489 1.17808
-5.504797 -1.1660879 1.1679859
-5.3149724 -1.1047786 1.1546977
-5.2261128 -1.1132649 1.1372277
-5.0696712 -1.1082083 1.1125202
-4.8308334 -1.09324 1.0769925
-4.5958266 -1.0858405 1.0398176
-4.4513841 -1.1236529 1.0041537
-4.3684697 -1.1337979 0.98717886
-4.2854528 -1.1416517 0.97087991
-4.2416205 -1.1511207 0.96066415
-4.1977882 -1.1605896 0.95044833
-4.1147714 -1.1684434 0.93414944
-3.9596877 -1.1986402 0.89900482
-3.9205024 -1.1970251 0.89292163
-3.8954344 -1.1889729 0.89115334
-3.8784561 -1.1819307 0.89043635
-3.6790886 -1.1617613 0.86310178
-3.6399035 -1.1601462 0.85701853
-3.4000428 -1.1592486 0.81706262
-3.3649843 -1.1706327 0.8077389
-3.288938 -1.1618606 0.79763883
-3.0615978 -1.1405666 0.76595312
-2.9616024 -1.1413782 0.74893719
-2.8585765 -1.1434743 0.73102438
-2.7610302 -1.1443866 0.71438867
-2.5381126 -1.0721512 0.69885576
-2.442467 -1.0628266 0.68563575
-2.3845572 -1.0584351 0.67725217
-2.3053129 -1.057258 0.66431803
-2.1832113 -1.0654767 0.64135379
-2.1000934 -1.0706897 0.62583685
-2.0263622 -1.056814 0.61766899
-1.9480903 -1.0559301 0.60480917
-1.7820578 -1.0709532 0.57241869
-1.7427692 -1.0670638 0.56700623
-1.6620004 -1.0667825 0.55354548
-1.5222168 -1.1049998 0.51854044
-1.4463396 -1.1365865 0.49625909
-1.4071527 -1.1349955 0.49016827
-1.3676758 -1.1340729 0.4838267
-1.3249631 -1.1178116 0.4815827
-1.2275243 -1.0875515 0.47439545
-1.1491504 -1.0843623 0.46221602
-1.0756202 -1.0750284 0.45270789
-1.0365348 -1.0757314 0.44594014
-0.99734735 -1.0741367 0.43985033
-0.91443491 -1.0839846 0.42296565
-0.79707718 -1.0837958 0.40334058
-0.72334433 -1.0698669 0.39518845
-0.68415689 -1.0682724 0.38909876
-0.61318445 -1.0717258 0.37615097
-0.52236128 -1.0634432 0.36342454
-0.44822073 -1.0403243 0.3579843
-0.4087286 -1.0318371 0.35392857
-0.078127861 -0.97577095 0.31544435
0.058716297 -0.96856779 0.29467309
0.07897377 -0.94921875 0.29712915
0.17934275 -0.88640898 0.29929757
0.20526218 -0.8595221 0.30308449
0.23826647 -0.72872233 0.33711946
0.044410229 -0.53887689 0.4270643
0.0065584183 -0.50392139 0.44398737
-0.4018178 -0.24010673 0.59228736
-0.4206996 -0.22481358 0.60008061
-0.45800495 -0.17873812 0.62027609
-0.46454859 -0.10558774 0.64350337
-0.49560547 0.076691449 0.70385581
-0.50377607 0.11306773 0.71623087
-0.52640533 0.21553098 0.75102377
-0.59582043 0.35346431 0.80439365
-0.59687996 0.35843951 0.80607641
-0.71874189 0.59653425 0.89854366
-0.71823454 0.60802466 0.90193474
-0.68181992 0.69037074 0.92073917
-0.59606266 0.93874216 0.98149514
-0.97270823 1.2778279 1.1472447
-1.0947084 1.2883462 1.1708877
-0.98189068 1.3015428 1.1559591
-0.83432531 1.3316393 1.1403155
-0.63364649 1.3312062 1.1065283
-0.51618671 1.3336943 1.0875816
-0.47689819 1.337588 1.0821704
-0.1112628 1.4062495 1.0416207
-0.045112133 1.4092155 1.0314238
0.051440239 1.4387398 1.0241627
0.13029623 1.4537277 1.0154717
0.20927095 1.4558836 1.002879
0.32843161 1.4515296 0.9815771
0.52982998 1.4082493 0.93470687
0.60795784 1.404881 0.9205848
0.61643982 1.368984 0.90830261
0.61466694 1.321175 0.89413655
0.60976696 1.3209553 0.89489186
0.51258659 1.3310812 0.91425347
0.48563623 1.3298728 0.91840786
0.42424822 1.32675 0.92775869
0.28963327 1.3210844 0.94862115
0.22366238 1.3288383 0.96203113
0.18455267 1.3293753 0.96875268
0.15038967 1.3282138 0.97413075
0.071624756 1.3155202 0.98350054
-0.006503582 1.3188884 0.99762255
-0.33627987 1.053692 0.97270155
-0.33932352 0.98474908 0.95235509
-0.38510513 0.83377731 0.91436058
-0.40272045 0.64609963 0.86053777
-0.39275599 0.58808231 0.84131497
-0.38068199 0.39817035 0.78183705
-0.38253355 0.24038361 0.73441327
-0.3725915 0.089887947 0.68721718
-0.38640165 -0.007172212 0.66017026
-0.36219501 -0.12319621 0.62101042
0.57455778 -0.12913948 0.46210784
0.59687948 -0.049201168 0.48254746
0.43035889 0.29358476 0.61417609
0.41348839 0.32047153 0.62513942
0.40944719 0.31821245 0.62513375
0.40195322 0.25566369 0.60746801
0.40603399 0.23523249 0.60060269
-7.1143103 -1.107434 1.4556648
-6.916544 -0.79911 1.5157726
-6.7040772 -0.37045234 1.6098188
-6.7019744 -0.36986059 1.6096451
-6.6683235 -0.36653602 1.6050072
-6.6065989 -0.36069909 1.5964211
-6.4944801 -0.35378128 1.5797102
-6.4391909 -0.35861433 1.5689754
-6.3891845 -0.36204544 1.5595508
-6.3163061 -0.35458434 1.5495853
-6.2379832 -0.341048 1.5405447
-6.1982107 -0.3405441 1.534027
-6.1543813 -0.35101372 1.5235089
-6.1102328 -0.36215073 1.5127354
-5.9825201 -0.37569219 1.4872198
-5.9441357 -0.39223716 1.475777
-5.9034224 -0.41115564 1.4632256
-5.5632873 -0.6312207 1.3396058
-5.4460726 -0.63030076 1.320226
-5.3878403 -0.63903242 1.3078182
-5.329361 -0.67571104 1.2869142
-5.3311062 -0.68453133 1.2845386
-5.0900116 -1.0631999 1.1295476
-4.9622269 -1.0625421 1.1083156
-4.8493185 -1.0466126 1.0941987
-4.6879315 -1.0512363 1.0657333
-4.5703764 -1.0463909 1.0474838
-4.3553486 -0.61561191 1.1417421
-4.5218334 -0.33366817 1.2549585
-4.592279 -0.30033517 1.2768571
-4.5141749 -0.32649207 1.2558451
-4.2137527 -0.34352103 1.200309
-4.1915045 -0.3380304 1.1982387
-4.014626 -0.30148667 1.1796294
-3.8927941 -0.31018591 1.1565651
-3.7313032 -0.31251845 1.1287755
-3.5744596 -0.30376691 1.1051185
-3.4911315 -0.30474755 1.0908468
-3.3769584 -0.28929812 1.0763724
-3.2562289 -0.29963908 1.0529962
-3.1731079 -0.30520183 1.0373729
-3.0901942 -0.31534672 1.0203983
-2.9679918 -0.32158548 0.99801606
-2.8209884 -0.31994155 0.97385919
-2.8065844 -0.31864312 0.97183621
-2.5093205 -0.32232788 0.92086679
-2.4573729 -0.37410247 0.89649153
-2.4583399 -0.40108365 0.88849121
-2.4644089 -0.43286043 0.87989581
-2.58851 -0.62550104 0.84243059
-2.397716 -1.0306575 0.68786246
-2.3148015 -1.0404674 0.67098892
-2.236326 -1.0349869 0.65948564
-2.1613326 -1.021486 0.65099269
-2.0034249 -1.0177953 0.62562621
-1.9227297 -1.0199599 0.6114378
-1.8445592 -1.0213746 0.59789973
-1.7648215 -1.0162691 0.58607131
-1.6393397 -1.0348064 0.5594185
-1.6052022 -1.0317152 0.55462837
-1.439271 -1.0490365 0.5215596
-1.3491154 -1.0678107 0.50075984
-1.2710466 -1.071514 0.48654646
-1.234458 -1.0716621 0.48036528
-1.1264877 -1.0523967 0.46808559
-1.0436745 -1.0645049 0.45053375
-0.92631721 -1.0643284 0.43090498
-0.86733341 -1.057345 0.42312539
-0.69129801 -1.0570805 0.39368212
-0.58353662 -1.0595911 0.3748498
-0.56629038 -1.0565958 0.37286353
-0.52690029 -1.0504062 0.36812985
-0.45051765 -1.0352439 0.35990655
-5.7674513 1.33017 1.9672152
-5.6893702 1.3292609 1.953845
-5.6452217 1.318114 1.9430686
-5.4496446 1.3250321 1.9123609
-5.4054027 1.3161829 1.9022639
-5.2485862 1.3304485 1.8802795
-5.1493821 1.3475223 1.8688071
-5.1101956 1.3491176 1.8627176
-5.0270782 1.3438982 1.8471988
-4.9535484 1.3532013 1.8376815
-4.8312445 1.3495772 1.8160733
-4.7046018 1.3283504 1.7884122
-4.5869398 1.3354348 1.770822
-4.4694796 1.337923 1.7518754
-4.4302926 1.3395184 1.7457858
-4.3303351 1.3281026 1.7255682
-4.3084955 1.3244039 1.7207865
-4.2303243 1.3229985 1.7072511
-4.0827103 1.3490815 1.6903852
-4.0342875 1.3332738 1.6774819
-4.1772113 1.2924687 1.6891074
-4.362431 1.3158985 1.727259
-4.4602971 1.3142081 1.743161
-4.4992814 1.3172088 1.7506069
-4.6216874 1.3185349 1.7715371
-4.6999598 1.3176421 1.7843941
-4.7391472 1.3160466 1.7904836
-4.812778 1.3044454 1.7993227
-4.9741678 1.3087721 1.8276987
-5.0667911 1.2774659 1.8337618
-5.1500735 1.2867699 1.850544
-5.3119044 1.2854943 1.8772991
-5.3510385 1.2836511 1.8833047
-5.4342279 1.2952527 1.9007663
-5.5177908 1.2976633 1.9155102
-5.6246967 1.2776423 1.9273826
-5.6688452 1.2887892 1.938159
-5.7712917 1.2908438 1.9559622
-5.864048 1.2910616 1.9715844
-5.9818535 1.2918597 1.9915832
-6.1097226 1.2853041 2.011045
-6.3056731 1.2691954 2.0390351
0.0058088303 -0.52463651 0.4378463
-0.096337795 -0.85499084 0.35503721
-0.12884235 -0.89606416 0.34806299
-0.15487814 -0.92592102 0.34339702
-5.9288149 1.3403828 1.9973674
-6.0090923 1.3384086 2.0102336
-6.0365272 1.3330165 2.0132036
-6.1642733 1.3132404 2.0286455
-6.2865033 1.3252964 2.0527921
-5.8506403 1.3417715 1.9846766
-5.806211 1.3375176 1.9759386
-3.0412943 1.3272455 1.5091214
-3.1585512 1.3293535 1.5294244
-3.2370265 1.3238645 1.5409251
-3.3587224 1.3412771 1.5666028
-3.419493 1.3542883 1.5807309
-3.5201125 1.3456039 1.5949788
-3.6722188 1.3285137 1.6153187
-3.8776407 1.3373573 1.6524458
-2.4058399 1.2923194 1.3919821
-2.2881775 1.2994038 1.3743919
-2.214344 1.3156011 1.3669093
-2.1359696 1.3187921 1.3547302
-2.0574944 1.3242811 1.3432295
-1.9004416 1.337557 1.3209063
-1.9835591 1.3427764 1.3364251
-2.1013231 1.3333941 1.353337
-2.5673316 1.2943481 1.4196799
-2.626214 1.2896576 1.4281362
-2.6458073 1.2888591 1.4311807
-2.6850958 1.2849656 1.436592
-2.7439783 1.2802751 1.4450482
-2.8316362 1.2985011 1.4652634
-2.9100103 1.2953103 1.4774424
-3.1009991 1.283519 1.5059062
-3.2231009 1.2917392 1.5288711
-3.3061171 1.2992568 1.545068
-3.3451011 1.3022577 1.552514
-3.5012403 1.3096646 1.5809412
-3.5797157 1.3041756 1.5924419
-3.6191058 1.2979839 1.5971749
-3.7367685 1.2908995 1.6147652
-3.824528 1.3068274 1.634302
-2.9237332 1.3320316 1.490853
-2.7428503 1.3262038 1.4587537
-2.723156 1.3293004 1.4563875
-2.6642735 1.3339909 1.4479312
-2.502579 1.3365585 1.4215899
-2.3851194 1.3390466 1.4026432
-2.3412902 1.3299336 1.3925356
-7.3134704 -1.1342677 1.4809484
-7.3857865 -1.1279411 1.4949907
-7.4799414 -1.1133729 1.5151889
-7.5189819 -1.1129137 1.5218754
-7.7019186 -1.0516058 1.5711031
-7.743506 -1.0496846 1.5786591
-8.0141878 -0.66385937 1.7407773
-8.0204649 -0.65595526 1.7442211
-8.0241871 -0.65339738 1.7456192
-8.0493507 -0.64434284 1.7525787
-8.0989809 -0.63169414 1.7647288
-8.1276474 -0.63251096 1.7692895
-8.1775303 -0.64227349 1.774702
-8.4991951 -0.45950967 1.8839395
-8.5720358 -0.47455657 1.8916037
-8.9360676 -0.50503969 1.9434342
-9.1428928 -0.4679606 1.9893386
-9.2167969 -0.42518288 2.0146747
-9.2544355 -0.39026344 2.0315509
-9.3369541 -0.34515816 2.0590358
-9.6407146 -0.62724274 2.0246425
-9.9422874 -0.4960444 2.1149106
-10.013615 -0.3546851 2.1696377
-10.017126 -0.34733409 2.1724505
-10.255123 -0.35171014 2.2110415
-10.299926 -0.3566469 2.217062
-10.748835 -0.14883704 2.355217
-10.752461 -0.041758023 2.3882194
-10.760534 -0.016379043 2.3972507
-10.770958 0.10073407 2.4344287
-10.769226 0.12998019 2.4429858
-10.765753 0.16959189 2.4543867
-10.773046 0.18494855 2.4602556
-10.832392 0.32433355 2.5123761
-10.80369 0.51942527 2.5665824
-10.804457 0.56067204 2.5791893
-10.807083 0.57146972 2.5828962
-10.81499 0.64798415 2.6073699
-7.1288767 -1.1135772 1.4562494
-7.2603092 -1.1368111 1.4712633
-1.2947783 1.302568 1.2087442
-1.3730512 1.3016753 1.2216015
-1.4904091 1.3014852 1.2412263
-1.6472588 1.2928054 1.264906
-1.4259613 1.3368013 1.2411016
-1.4696884 1.3482124 1.2518873
-1.5086727 1.3512132 1.2593333
-1.5823033 1.339612 1.2681724
-1.1336923 1.2913469 1.1783335
-1.1774201 1.302758 1.1891193
0 0 0 1 0 0 0 1 0 0 0 1 0 0 0 0 0 467 1 0 0
