ply
format ascii 1.0
comment PCL generated
element vertex 456
property float x
property float y
property float z
element camera 1
property float view_px
property float view_py
property float view_pz
property float x_axisx
property float x_axisy
property float x_axisz
property float y_axisx
property float y_axisy
property float y_axisz
property float z_axisx
property float z_axisy
property float z_axisz
property float focal
property float scalex
property float scaley
property float centerx
property float centery
property int viewportx
property int viewporty
property float k1
property float k2
end_header
0.8141818 1.3988626 2.6118927
0.76149607 1.4250054 2.6178772
0.7226944 1.4306982 2.619381
0.60132456 1.4556212 2.625608
0.52138805 1.458127 2.6267309
0.51892519 1.4583759 2.6268024
0.34245586 1.4821968 2.6331975
0.32118988 1.4882836 2.6346571
0.2819767 1.4784386 2.6328363
0.24263668 1.4651785 2.6302855
-0.058514118 1.4728546 2.6341381
-0.52979279 1.3800879 2.6177297
-0.074183941 1.4099822 2.6207895
-0.0015845299 1.3934577 2.6167185
0.038377285 1.3959625 2.6169617
0.078377724 1.3936865 2.6161811
0.15719843 1.383328 2.6133847
0.22451305 1.4026432 2.6170273
0.30563593 1.4110696 2.6182365
0.31812954 1.4111054 2.6181526
0.34561682 1.4111841 2.6179678
0.35803843 1.4107077 2.6177747
0.51792002 1.4260194 2.6198809
0.59913731 1.4224944 2.6185303
0.63792038 1.4191921 2.6175387
0.86494732 1.306129 2.5916624
0.86726809 1.3225238 2.5951562
0.84307718 1.376065 2.6067989
-10.80007 0.051834375 2.4086273
-10.940871 -0.044704948 2.3889873
-10.897371 0.02274169 2.4031112
-10.888329 0.28920487 2.4601049
-11.011339 0.48815614 2.5036104
-11.0225 0.50414133 2.5071151
-10.825945 0.53517824 2.5123198
-10.818386 0.52563691 2.5102212
-10.817935 0.22487652 2.4458134
-5.2037563 1.2969489 2.634208
-5.1155987 1.3090982 2.636163
-5.0632377 1.3199003 2.638092
-4.8907795 1.3398719 2.641104
-4.7561812 1.3371665 2.6395373
-4.7136087 1.3460941 2.6411369
-4.556541 1.334867 2.6375806
-4.4358287 1.3402081 2.6378388
-4.3559933 1.336695 2.6365011
-4.0419383 1.0564561 2.5741878
-4.031888 1.0373008 2.5700121
-3.917773 0.93340451 2.546927
-3.8727307 0.91180533 2.5419714
-3.8324227 0.89700478 2.5385063
-3.7527127 0.8877036 2.5359299
-3.6752648 0.89476776 2.5368745
-3.5178299 0.89453679 2.5356705
-3.1930068 0.65935725 2.4829271
-3.180711 0.57976705 2.4657934
-3.1781037 0.54148209 2.457576
-3.1535208 0.46036905 2.4400263
-3.1142294 0.45529515 2.4386516
-3.0742955 0.54765916 2.4581375
-3.0620849 0.64812928 2.4795623
-3.0346711 0.71662527 2.494029
-2.9964392 0.86919218 2.5264189
-2.9964106 0.88404918 2.5296001
-2.5908213 1.2474306 2.6044395
-2.4706278 1.2455568 2.6031566
-2.4131918 1.2598279 2.6057913
-2.0134704 0.89950752 2.525701
-2.0134499 0.89232981 2.524164
-2.0126796 0.8197794 2.5086224
-2.0135319 0.69640946 2.4822104
-2.0129218 0.50550443 2.4413257
-1.9728992 0.466663 2.4327147
-1.8531427 0.36009532 2.4090161
-1.7177474 0.68443811 2.4774773
-1.6393213 0.82942158 2.5079486
-1.5730512 1.0863307 2.5624769
-1.2926884 1.3164546 2.609699
-1.2527046 1.316396 2.6093931
-1.0951586 1.3110723 2.6070976
-1.0138845 1.2984493 2.6037984
-0.9328227 1.3111417 2.6059217
-0.77511883 1.2996433 2.6023028
-0.69296265 1.3251455 2.6071613
-0.65301323 1.3370497 2.6094174
-6.2973309 -0.30272812 2.2996762
-6.3364158 -0.29136667 2.3023958
-6.3368325 -0.32759148 2.2946417
-6.3371692 -0.34217057 2.2915223
-6.3438053 -0.41375855 2.2762413
-6.3763313 -0.5200007 2.2537291
-6.656641 -0.68547744 2.2203503
-6.7767377 -0.66680825 2.2252288
-6.81565 -0.65583628 2.2278638
-7.0514193 -0.37826094 2.2890327
-7.0965433 -0.35690367 2.293937
-7.1765885 -0.34764788 2.2965062
-7.2565455 -0.3527483 2.2960005
-7.2965097 -0.3576912 2.2952352
-7.4765315 -0.35303506 2.2975526
-7.51651 -0.35558975 2.2972987
-7.5364838 -0.35624346 2.2973051
-7.6364889 -0.35607639 2.2980745
-7.756484 -0.35417047 2.2993627
-7.9570675 -0.36540249 2.2984285
-8.0770626 -0.36349663 2.2997169
-8.1589737 -0.38312149 2.2961152
-8.3989029 -0.38887975 2.2966421
-8.5575829 -0.37825659 2.3000805
-8.6143064 -0.39199382 2.297555
-8.6824265 -0.40029609 2.2962768
-8.6930571 -0.4083651 2.294627
-9.217576 -0.36418545 2.3079345
-9.2528095 -0.32604724 2.3163598
-9.3571739 -0.31605205 2.3192656
-9.3578501 -0.31690302 2.3190885
-9.8729429 -0.2902813 2.328567
-10.112694 0.00079013407 2.3926551
-9.9369965 -0.27850375 2.3315589
-9.9369373 -0.34233069 2.3178906
-9.9370308 -0.36158717 2.3137679
-10.057968 -0.72030336 2.2378399
-10.374771 -1.1155138 2.1555338
-10.456743 -1.1255686 2.1539817
-10.41666 -1.1397614 2.1506486
-10.176024 -1.1379373 2.1492741
-10.137466 -1.1534467 2.1456702
-10.127311 -1.1513989 2.1460342
-9.9773064 -1.1555758 2.1440396
-9.9572983 -1.155493 2.1439106
-9.9360943 -1.1506236 2.1447978
-9.7574968 -1.1283643 2.1482544
-9.6774654 -1.1352177 2.1461999
-9.5975075 -1.1301081 2.1467075
-9.5568542 -1.1267025 2.1471386
-9.4368143 -1.1357858 2.1443131
-9.396821 -1.1356237 2.1440544
-9.3175564 -1.1289728 2.1448975
-9.1969147 -1.1252427 2.1448112
-9.1176052 -1.1257691 2.1441169
-9.0376186 -1.1254449 2.1435995
-8.8776007 -1.1319735 2.1410279
-8.7569742 -1.1258509 2.1414542
-8.7176132 -1.1337171 2.1394811
-8.5970163 -1.1228096 2.1409323
-8.4370136 -1.1269457 2.1388731
-8.3171682 -1.1049266 2.1427093
-8.2771893 -1.1023717 2.1429629
-8.1571655 -1.1090627 2.1406498
-8.0771942 -1.1063459 2.1406453
-7.8772726 -1.0983572 2.1408894
-7.757308 -1.0954781 2.1406262
-7.577136 -1.1743209 2.1224213
-7.5372224 -1.1751649 2.1219478
-7.2958522 -1.3213437 2.0888751
-7.25594 -1.3428319 2.0839808
-6.8969979 -1.2896099 2.0927451
-6.8569117 -1.2908435 2.0921869
-6.5338788 -1.2662902 2.0950754
-6.3374262 -1.1214728 2.1246455
-6.2174611 -1.1186078 2.1243792
-6.0974817 -1.1181355 2.1236002
-5.9762378 -1.1016366 2.1262441
-5.9362302 -1.1038716 2.1254718
-5.8418341 -1.1186888 2.1216066
-5.5964069 -1.1942909 2.1036172
-5.4163179 -1.1018243 2.122097
-5.296309 -1.1061373 2.1202931
-5.1769753 -1.1112852 2.1183157
-5.0569077 -1.1251688 2.1144619
-4.8868661 -1.0894089 2.1208723
-4.8079739 -1.1002924 2.1179631
-4.7280054 -1.1003723 2.1173594
-4.568069 -1.1005318 2.1161523
-4.5480857 -1.0981648 2.1165125
-4.4881096 -1.0982244 2.1160598
-4.4059649 -1.0838581 2.1185338
-4.3661246 -1.0825627 2.1185188
-4.3559933 -1.0815208 2.1186678
-4.2471294 -1.0876598 2.1165547
-4.1671867 -1.0805776 2.1174848
-4.047226 -1.0830846 2.1160681
-3.8429689 -1.0496173 2.1217368
-3.7651691 -1.0665305 2.1175444
-3.6862853 -1.0750271 2.1151464
-3.5580573 -1.0570635 2.1180525
-3.4830956 -1.054751 2.1179979
-3.3631604 -1.050096 2.1181149
-3.2831922 -1.0501759 2.1175113
-3.0832803 -1.0479881 2.1165137
-3.0422289 -1.0348365 2.1190288
-2.8833849 -1.0410256 2.1165383
-2.843401 -1.0410655 2.1162367
-2.6845655 -1.0448672 2.1142576
-2.6024544 -1.0209515 2.1187766
-2.4991338 -1.0522132 2.1113243
-2.620173 -1.0672112 2.1090004
-2.7023365 -1.0902812 2.1046629
-2.8866122 -1.0734377 2.1096213
-2.9276803 -1.0818145 2.1081288
-3.0476325 -1.0816948 2.1090343
-3.2877772 -1.171607 2.091542
-3.3277609 -1.1715672 2.0918436
-3.3472111 -1.1673388 2.0928917
-3.6075819 -1.1707618 2.0940685
-3.7665017 -1.1627116 2.0969579
-3.7859516 -1.1584833 2.098006
0.76874971 -1.0414042 2.0896704
0.74938154 -1.1385753 2.0690045
0.47143078 -1.0502241 2.0899625
0.39044333 -1.0560429 2.0893104
0.31145048 -1.0445514 2.0923507
0.13398886 -1.0448887 2.09358
-0.42018604 -1.1666775 2.0715649
-0.50193596 -1.1599231 2.073611
-0.66186953 -1.1596704 2.0748382
-0.70074558 -1.1515982 2.0768518
-0.77960443 -1.1434627 2.0791724
-0.81848001 -1.1353905 2.0811861
-0.91820765 -1.1321123 2.0826194
-0.98234367 -1.1440272 2.0805385
-1.0623107 -1.1439009 2.081152
-1.081748 -1.1398649 2.0821588
-1.1417685 -1.1230206 2.0862062
-1.3401518 -1.0896566 2.0948057
-1.3801351 -1.0895934 2.0951126
-1.4419861 -1.0849895 2.0965519
-1.6187558 -1.1189892 2.0905678
-1.6992254 -1.1420097 2.0862284
-2.0204332 -1.0633733 2.1054235
-2.1015146 -1.0688632 2.1048427
-2.1803675 -1.0631204 2.1066508
-2.2625632 -1.0742267 2.1048753
-2.3425171 -1.0788859 2.1044641
-2.3813992 -1.068421 2.1069901
-2.4580102 -1.0562313 2.1101623
0.94192743 0.29285681 2.3741171
0.95921707 0.25107604 2.3650434
0.94332981 0.11132355 2.3352334
0.94305611 0.091151491 2.3309159
0.90484047 -0.044619869 2.3021224
0.90491152 -0.10072818 2.2901068
0.86572409 -0.2466709 2.2591424
0.86537361 -0.32152763 2.2431152
0.86620235 -0.33822966 2.2395325
0.86581039 -0.36704695 2.2333646
0.84882307 -0.41984957 2.222182
0.74835253 -0.8504284 2.1307154
0.75058699 -0.92310226 2.1151366
0.92078972 0.27708697 2.3708951
0.90432405 0.18314734 2.3508999
0.88837004 0.071456999 2.3270998
0.86610746 -0.091714188 2.2923217
0.85709572 -0.16648926 2.2763755
0.85183954 -0.2509563 2.2583265
0.82721186 -0.33067352 2.2414365
0.56517601 -0.51361513 2.2041836
0.50550985 -0.51151443 2.2050712
0.49520302 -0.51399922 2.2046146
0.18994284 -0.55167878 2.1987848
0.14889383 -0.55248666 2.1989131
0.11656713 -0.56943524 2.1955209
0.10863495 -0.57287824 2.1948416
0.040342808 -0.66206211 2.1762447
0.063201904 -0.70027083 2.1678953
-10.54693 1.1425781 2.640341
-10.512606 1.1346977 2.6384017
-10.28794 1.2967236 2.6714499
-10.380257 1.2983665 2.6724789
-10.500086 1.2456479 2.6620686
-10.580027 1.2381575 2.661051
-5.1820626 -0.54005766 2.2406747
-5.2176008 -0.56256485 2.2361157
-5.2173362 -0.58498955 2.2313118
-5.1769848 -0.53903633 2.2408562
-6.1836352 1.3001523 2.642081
-6.3036599 1.3068435 2.6443942
-6.544107 1.2815959 2.6407511
-6.704164 1.2876229 2.6432157
-6.824069 1.2751737 2.6414294
-7.053443 1.2894471 2.6461682
-7.1039085 1.2832229 2.6452055
-7.1390605 1.2810738 2.6450031
-7.1440797 1.2808027 2.6449819
-7.2659068 1.2885852 2.647542
-7.3820481 1.2922034 2.6491685
-7.4620495 1.2942712 2.6501982
-7.5427279 1.2954886 2.6510506
-7.6440401 1.2916834 2.6509788
-7.7241249 1.2797766 2.6490164
-7.8035583 1.2865062 2.6510401
-7.8834658 1.2871904 2.6517727
-7.9631896 1.2721376 2.6491342
-8.0038595 1.271091 2.6492083
-8.1239281 1.2849584 2.6530585
-8.2035694 1.2838812 2.6534119
-8.243187 1.2781816 2.652482
-8.2838268 1.272351 2.6515317
-8.3637838 1.2672434 2.6510243
-8.4840355 1.2761996 2.6538241
-8.5637951 1.2736108 2.6538548
-8.6436911 1.258935 2.651298
-8.723752 1.2705717 2.6543772
-8.8612738 1.2771921 2.6568036
-9.0425386 1.3021443 2.6634762
-9.083209 1.3010979 2.6635504
-9.2025566 1.3086736 2.666048
-9.2819262 1.3188031 2.6687994
-9.4025679 1.3150411 2.6688786
-9.4819221 1.3227785 2.6711175
-9.5212383 1.3235016 2.6715608
-9.5619535 1.3296313 2.673172
-9.4813805 1.345192 2.6759131
-9.4413719 1.3429615 2.675142
-9.3213177 1.3314865 2.6718044
-9.121336 1.3299031 2.6699984
-9.0413198 1.3254426 2.6684563
-9.0013266 1.3256042 2.6681976
-8.8813477 1.3260894 2.6674216
-8.7613678 1.3265748 2.6666455
-8.6826591 1.3131683 2.6631975
-8.6212864 1.3103962 2.6621537
-8.5213928 1.3251529 2.6645811
-8.3197088 1.3418317 2.6666732
-8.2965813 1.3499837 2.6682491
-8.1227255 1.3106487 2.658551
-8.0015411 1.3368239 2.6632674
-7.8815613 1.3373091 2.6624913
-7.7615967 1.3401866 2.6622274
-7.6014743 1.3169127 2.6560693
-7.521533 1.3244126 2.6570888
-7.5015607 1.3260627 2.6572957
-7.3828597 1.3128848 2.6536033
-7.3015199 1.3149111 2.6534405
-7.2629099 1.3181565 2.6538522
-7.1822467 1.3193319 2.6535125
-7.0616269 1.3537793 2.6600041
-7.0210848 1.3480003 2.6584692
-6.9417152 1.3379037 2.655725
-6.8610525 1.3390791 2.6553853
-6.821044 1.3368487 2.6546142
-6.7417493 1.3387148 2.6544321
-6.6611013 1.3422825 2.6546047
-6.6211376 1.3472297 2.655371
-6.501564 1.3580573 2.6568124
-6.4743843 1.3541543 2.6557775
-6.4211864 1.3504333 2.6545904
-6.381855 1.347352 2.6536422
-6.3012218 1.3533123 2.6543269
-6.2612734 1.3606522 2.6556058
-6.1417909 1.3315775 2.6485033
-6.0617452 1.3223321 2.6459365
-5.9811416 1.3330777 2.6476462
-5.9017715 1.3229809 2.644902
-5.781867 1.3354299 2.6466885
-5.7019105 1.3405395 2.6471961
-5.6625938 1.3398507 2.6467602
-5.5412159 1.3348618 2.6448016
-5.3813176 1.3474731 2.6463294
-5.3413839 1.3572054 2.6481206
-5.2220216 1.347271 2.6451178
-5.0713191 1.3889892 2.652946
-4.9136004 1.3727057 2.6483023
-4.8725095 1.3806715 2.6497066
-4.6722369 1.4049206 2.6534305
-4.6540523 1.4099102 2.6543655
-4.5515709 1.4099274 2.6536174
-4.3512311 1.4517603 2.6611061
-4.270957 1.4929338 2.6693342
-4.1918864 1.4851003 2.6670768
-3.9550097 1.3297777 2.6320789
-3.8742204 1.3136439 2.6280315
-3.835012 1.3128536 2.6275747
-3.7950354 1.3151877 2.6277812
-3.7547545 1.3099573 2.6263657
-3.6362159 1.3093212 2.62536
-3.5150898 1.2932439 2.6210289
-3.4762478 1.2971237 2.6215749
-3.4362578 1.2946725 2.6207566
-3.3562837 1.2921627 2.6196327
-3.1259658 1.3774142 2.636199
-3.1104875 1.3809028 2.6368325
-3.0709615 1.3677633 2.633729
-2.92205 1.3308079 2.6247232
-2.7520928 1.3209884 2.6213739
-2.6920972 1.3137219 2.6193779
-2.6320951 1.3040643 2.6168697
-2.4111724 1.3452618 2.6240711
-2.2518413 1.3333356 2.6203487
-2.2112479 1.342576 2.6220298
-2.0712924 1.3375857 2.6199346
-1.9313569 1.3397729 2.6193767
-1.8902724 1.3501313 2.6212933
-1.8102851 1.3428364 2.6191444
-1.7303247 1.3451116 2.6190453
-1.6503577 1.3449943 2.6184337
-1.490478 1.3639004 2.6213095
-1.2927613 1.3672004 2.6205661
-1.2617345 1.3746793 2.6219401
-1.2506108 1.3755114 2.6220367
-1.1931548 1.3826048 2.6231341
-1.0099292 1.3490713 2.6146095
-0.9304471 1.3454432 2.6132495
-0.90316582 1.3438985 2.6127186
-0.81028843 1.346772 2.6126528
-0.71824265 1.3436272 2.6113043
-0.65079021 1.3507061 2.6123254
-5.8636146 1.2894876 2.63745
-5.7035666 1.2781739 2.6338534
-5.6230235 1.2984893 2.6376131
-5.5427904 1.3071113 2.6388707
-5.4637122 1.2958946 2.6358888
-5.3437772 1.3035588 2.6366503
-6.023632 1.2960162 2.6400218
-5.9111366 1.29408 2.638782
-0.42086077 -1.1520405 2.0747042
-0.46105051 -1.0754082 2.091409
-0.53990936 -1.0672727 2.0937295
-0.77870226 -1.0588844 2.0972772
-0.85866976 -1.0587583 2.0978909
-1.0175023 -1.0481036 2.1013372
-1.0975337 -1.0240494 2.1070752
-1.137517 -1.0239862 2.1073821
-1.257494 -1.0142256 2.110352
-1.2974577 -1.0213407 2.1091216
-1.4973493 -1.030596 2.1086059
-1.5373459 -1.0257473 2.1099374
-1.5784698 -1.0217294 2.1110995
-1.7005973 -1.0519146 2.1055315
-2.0182173 -1.0473549 2.1088374
-2.045732 -1.0377405 2.1110981
-2.1792789 -1.0479331 2.109895
-2.2181478 -1.0422535 2.1113963
-2.2980955 -1.0493056 2.1104724
-2.3791962 -1.0476172 2.1114287
-2.4191668 -1.0523396 2.1107109
-6.216929 -0.4260551 2.2726774
-6.2162094 -0.43239817 2.2713139
-6.1962595 -0.5360409 2.2489736
-6.2432837 -0.61279464 2.2328825
-5.9743271 -1.0799897 2.1308653
-5.9349661 -1.0878453 2.1288946
-5.8149714 -1.0897655 2.1276033
-5.7349854 -1.0894506 2.127084
-5.6550283 -1.0843501 2.1275897
-5.494379 -1.0828851 2.1267252
-4.1639261 -1.0577149 2.1223569
-4.2439022 -1.0552478 2.1234717
-4.3249211 -1.0731339 2.1202359
-4.4048891 -1.0730541 2.1208394
-4.4837732 -1.0645576 2.1232374
-4.5637417 -1.0644777 2.123841
-4.604538 -1.0707505 2.122797
-4.7258539 -1.0787642 2.1219709
-4.8047466 -1.0678805 2.1248801
-5.0057511 -1.0760977 2.1245947
0 0 0 1 0 0 0 1 0 0 0 1 0 0 0 0 0 456 1 0 0
