ply
format ascii 1.0
comment PCL generated
element vertex 233
property float x
property float y
property float z
element camera 1
property float view_px
property float view_py
property float view_pz
property float x_axisx
property float x_axisy
property float x_axisz
property float y_axisx
property float y_axisy
property float y_axisz
property float z_axisx
property float z_axisy
property float z_axisz
property float focal
property float scalex
property float scaley
property float centerx
property float centery
property int viewportx
property int viewporty
property float k1
property float k2
end_header
0.72873181 -1.0477502 1.8113496
0.77818477 -1.0923314 2.2481143
0.75202847 -0.84987283 2.0119069
0.75268745 -0.72958457 2.0148561
0.76388466 -0.35682657 2.1046584
0.75573945 -0.16827378 2.0284183
0.75564885 -0.15598033 2.0273273
0.75199842 0.032133747 1.9906986
0.71427357 0.19186448 1.6545308
0.69834214 0.19689608 1.5140469
0.70093906 -0.20405999 1.546448
0.70063758 -0.28404748 1.5456913
0.69064867 -0.50587398 1.4629509
0.690422 -0.52361 1.4613745
0.69670141 -0.76401931 1.5224082
0.68833566 -0.92565006 1.4525392
0.68687159 -0.96368366 1.4405429
0.68802953 -1.0068872 1.4517705
0.6923641 -1.0498195 1.4909804
0.69649732 -1.0855939 1.5282457
0.71478164 -1.0670106 1.6888983
-0.1001395 -1.2180376 -5.4873953
-0.09643364 -1.2435882 -5.4541378
-0.091124415 -1.2185154 -5.4079561
-0.03754285 -1.2216024 -4.9358015
-0.023649871 -1.20718 -4.8137398
-0.019153416 -1.2074237 -4.7741175
-0.014264464 -1.1825335 -4.7316341
0.0341039 -1.1537426 -4.3061676
0.039017737 -1.1362872 -4.2632885
0.048263699 -1.1218643 -4.1821694
0.052560836 -1.1224396 -4.1442957
0.05683589 -1.1230361 -4.106616
0.063946277 -1.1226697 -4.0439787
0.079589546 -1.164547 -3.9051588
0.11361124 -1.127279 -3.6062949
0.11825386 -1.0876663 -3.5663316
0.16528913 -0.89052284 -3.1566076
0.16743298 -0.89052045 -3.1377192
0.16950417 -0.89088249 -3.1194623
0.17429337 -0.8112731 -3.0791574
0.17387791 -0.77122855 -3.0837684
0.17402449 -0.73123199 -3.083427
0.19162899 -0.47230458 -2.9344702
0.19303465 -0.45279074 -2.922549
0.19938625 -0.29255494 -2.8703928
0.19532989 -0.17218143 -2.9089899
0.19329253 -0.11449449 -2.9283097
0.19022346 -0.012079991 -2.9577818
0.18693614 0.068589494 -2.9886603
0.18273322 0.14896637 -3.0275986
0.1951109 0.56712818 -2.9284742
0.19512764 0.57709777 -2.9285636
0.14877388 0.62032509 -3.3379905
0.13979381 0.86079299 -3.4228196
0.13863042 0.94043046 -3.4349608
0.1297113 1.1014037 -3.5173652
0.12085239 1.1820691 -3.5973322
0.11290442 1.326128 -3.6707788
0.11028883 1.3038867 -3.6932952
0.052800521 1.1880724 -4.1970472
0.0075726807 1.2061589 -4.5959578
-0.0059285313 1.2470644 -4.7158813
-0.032962233 1.2889633 -4.9550576
-0.037600726 1.2493086 -4.9949837
-0.08293891 1.2524436 -5.3945107
-0.091855139 1.2930748 -5.4740324
-0.10545436 1.2940171 -5.5938711
-0.1190758 1.2949421 -5.7139049
-0.11912936 1.2550135 -5.7134285
-0.11944568 1.1351068 -5.7133684
-0.12040296 0.93493092 -5.7170496
-0.11609042 0.61534578 -5.6714649
-0.1164999 0.5751425 -5.674118
-0.1167182 0.49519908 -5.6741433
-0.11709222 0.41513562 -5.6755371
-0.11347774 0.25456321 -5.6398792
-0.13603649 -0.015620932 -5.8322182
-0.13611633 -0.073071167 -5.8315573
-0.11002943 -0.25715259 -5.5973473
-0.10612917 -0.41742033 -5.5591784
-0.101964 -0.49769038 -5.5205746
-0.097975284 -0.65791965 -5.4816275
-0.10306796 -0.81770009 -5.5227027
-0.10333821 -0.93264872 -5.5223541
-0.10317755 -0.97751266 -5.5198736
-0.10184455 -1.0975814 -5.5052776
0.59647918 -0.19557205 0.62590003
0.57950842 -0.47426564 0.48299623
0.55257428 -0.51179469 0.24658394
0.49723503 -0.74991876 -0.23532963
0.49485496 -0.7923283 -0.25529218
0.48364758 -1.0296988 -0.34839869
0.4713527 -0.94935232 -0.45863104
0.46968618 -0.909136 -0.47426891
0.442972 -0.70835543 -0.7144022
0.44130081 -0.58787507 -0.73198724
0.43244091 -0.38791132 -0.81479561
0.4262248 -0.30765843 -0.87146831
0.42909452 -0.18732101 -0.84904194
0.42934248 -0.10732397 -0.84875691
0.42971438 0.01267156 -0.84832954
0.42801476 0.13289601 -0.86615884
0.42739919 0.14804482 -0.87194204
0.43019363 0.24595091 -0.84964633
0.43070531 0.32624173 -0.84704494
0.43078786 0.36873975 -0.84732652
0.4308607 0.40623799 -0.84757507
0.43070406 0.42857116 -0.84948564
0.43358973 0.50886369 -0.82596779
0.43382287 0.62885797 -0.82676303
0.43369719 0.70883977 -0.82976937
0.43922067 0.90937155 -0.7858665
0.39035535 1.2252657 -1.2238964
0.349911 0.77145314 -1.5694563
0.34981388 0.7214554 -1.5691249
0.35215431 0.62409061 -1.5461924
0.353201 0.58415049 -1.5360222
0.34951699 0.42398399 -1.5646771
0.34950468 0.3792662 -1.5637238
0.34434381 0.21560833 -1.6053076
0.34431168 0.19812648 -1.6051755
0.34593403 0.10329379 -1.5886301
0.34430814 0.015611008 -1.6008728
0.34397575 -0.02408541 -1.6028588
0.33868372 -0.16668198 -1.6460984
0.33343318 -0.18206313 -1.6919932
0.33230126 -0.18451855 -1.7019079
0.31827021 -0.22337899 -1.8246057
0.31070727 -0.22375914 -1.8912301
0.30177012 -0.2408151 -1.9695661
0.30227989 -0.18305489 -1.9664464
0.30100888 -0.1023917 -1.9795599
0.29859281 -0.042584792 -2.0022669
0.29820406 0.016958222 -2.0071058
0.29676399 0.085980974 -2.0214324
0.2968761 0.098543763 -2.0207429
0.2971276 0.12458172 -2.0191455
0.2961981 0.21893014 -2.0295753
0.29758188 0.32474267 -2.0198958
0.29824352 0.36481103 -2.015018
0.30791178 0.4211807 -1.931174
0.3277697 0.90285993 -1.767653
0.32328993 0.95755148 -1.8084208
0.31702867 1.0622128 -1.8660707
0.35256216 1.3831708 -1.5606234
0.35677862 1.3833885 -1.5234793
0.36155728 1.3836353 -1.4813827
0.39495286 1.2655146 -1.1843455
0.44490451 1.3083973 -0.7452637
0.44944662 1.3086662 -0.70525193
0.46315101 1.269604 -0.58358133
0.44379592 0.94960183 -0.7465111
0.44549161 0.80970997 -0.72824955
0.44731557 0.62955445 -0.70790195
0.45643377 0.51031899 -0.6247344
0.45758945 0.38994738 -0.61169422
0.45776838 0.3676326 -0.60958791
0.45566177 0.18977383 -0.62392461
0.45558411 0.14977571 -0.62365949
0.45522529 0.10976309 -0.6258707
0.45453876 0.052133247 -0.63055086
0.45312589 -0.087235108 -0.63968956
0.47809225 -0.39663103 -0.41237617
0.52680355 -0.18986586 0.01188612
0.52980912 -0.070121452 0.035522938
0.53461725 0.11482736 0.073493481
0.53469491 0.15482548 0.073228359
0.53500581 0.31481794 0.072168112
0.53981417 0.47504249 0.11072779
0.5398919 0.51504064 0.1104629
0.53996956 0.55503875 0.11019778
0.57748425 0.78865325 0.43517423
0.58343405 0.908678 0.48474503
0.58828115 1.0287313 0.52460003
0.64374274 1.2300837 1.0084643
0.65274501 1.1902406 1.0887251
0.67032796 1.0302653 1.2474387
0.67480391 1.0302391 1.2868748
0.67932332 1.0302719 1.3266926
0.71173751 1.1909912 1.6084621
0.73902833 1.1914237 1.8488982
0.76650143 1.2718208 2.089041
0.78540766 1.2320735 2.2565591
0.80740917 1.3122897 2.448499
0.80740333 1.3695788 2.447087
0.80715072 1.4066041 2.4439828
0.79781353 1.4086251 2.3616683
0.78846347 1.4056466 2.279361
0.77530587 1.4011095 2.1635435
0.77046633 1.4031339 2.1208565
0.7564013 1.4320376 1.9962499
0.74902046 1.4717932 1.9302762
0.74681151 1.4710839 1.9108312
0.74196553 1.4706082 1.8681476
0.71582294 1.4121499 1.6392052
0.70684671 1.4196427 1.559942
0.68876028 1.3821328 1.4014821
0.68006212 1.3625998 1.3253105
0.66622716 1.3646178 1.2033694
0.65245593 1.3916337 1.0813963
0.65132511 1.3891332 1.0714927
0.5980705 1.3486848 0.60325193
0.5974648 1.3486254 0.5979166
0.5844903 1.3485572 0.48360658
0.54438436 1.3364081 0.13054061
0.53988683 1.3361759 0.090920448
0.5265063 1.3131096 -0.026421547
0.50836992 1.3170519 -0.18630624
0.50385773 1.3093202 -0.22587657
0.49030316 1.3110685 -0.34534144
0.50389624 1.271914 -0.22464967
0.5129472 1.2324905 -0.14396954
0.53097105 1.1935132 0.015755653
0.54453051 1.1942647 0.13520384
0.57906687 0.90885186 0.44626427
0.31723887 -1.0539968 -1.8139694
0.32618311 -1.0631201 -1.7349494
0.32173559 -1.0541749 -1.7743466
0.86388969 0.53294939 2.9646275
0.86345041 0.40540677 2.9637854
0.86539221 0.49286264 2.9788172
0.86658573 0.61283869 2.9864843
0.86865282 0.69269621 3.0027997
0.86883664 0.732741 3.0034683
0.84701633 0.85351068 2.8083527
0.56773758 0.39056417 0.35875416
0.56753367 0.31057 0.35885644
0.57089949 0.12826936 0.39284015
0.38954791 -1.0540648 -1.1768873
0.39030173 -1.0385056 -1.1706153
0.39002556 -1.0137863 -1.1736355
0.3892163 -1.0259614 -1.1804763
0 0 0 1 0 0 0 1 0 0 0 1 0 0 0 0 0 233 1 0 0
