ply
format ascii 1.0
comment PCL generated
element vertex 506
property float x
property float y
property float z
element camera 1
property float view_px
property float view_py
property float view_pz
property float x_axisx
property float x_axisy
property float x_axisz
property float y_axisx
property float y_axisy
property float y_axisz
property float z_axisx
property float z_axisy
property float z_axisz
property float focal
property float scalex
property float scaley
property float centerx
property float centery
property int viewportx
property int viewporty
property float k1
property float k2
end_header
0.41596556 1.0134288 -1.928262
0.4520483 0.98194116 -1.9247613
0.45112324 0.98658592 -1.9253267
0.15360212 1.3479637 -1.966804
0.11446667 1.3593755 -1.9677821
-0.0067539215 1.3878509 -1.9699597
-0.045789719 1.3894286 -1.9697199
-0.18899822 1.368467 -1.9655241
-0.24530029 1.3477103 -1.9623231
-0.4917593 1.3453159 -1.9592772
-0.53173065 1.3425698 -1.9584908
-0.58607626 1.3391464 -1.9574603
-0.65073872 1.3366648 -1.9564314
-0.66504383 1.3353306 -1.9561065
-0.74500847 1.3343774 -1.9550964
-0.77066803 1.330887 -1.9543775
-0.80973148 1.3304744 -1.9538906
-0.86493063 1.3304889 -1.9532766
-0.92872524 1.3221087 -1.9515263
-0.98485327 1.3266006 -1.951457
-1.0248108 1.3236655 -1.9506475
-1.0496035 1.3213795 -1.9500875
-1.1047502 1.3202537 -1.949333
-1.1695471 1.3180624 -1.9483385
-1.2495046 1.3150307 -1.9470708
-1.3294759 1.3144599 -1.946108
-1.3846025 1.3144587 -1.945493
-1.4884689 1.3082696 -1.9435672
-1.5684402 1.3076987 -1.9426043
-1.6644549 1.3086637 -1.941653
-1.7444196 1.3077104 -1.9406428
-1.7843518 1.3023169 -1.9395288
-1.8243344 1.3018403 -1.9390237
-1.8643615 1.3027591 -1.9386913
-1.9042995 1.300887 -1.9380137
-1.9842894 1.3023921 -1.937308
-2.0891478 1.2991937 -1.9357419
-2.1042368 1.3009622 -1.9357928
-2.1700685 1.3036715 -1.9353943
-2.2082112 1.3031319 -1.934902
-2.3042748 1.3108711 -1.9347898
-2.3442822 1.312853 -1.9345891
-2.4241469 1.3020658 -1.9323611
-2.5051842 1.3113502 -1.9326081
-2.5861216 1.3108008 -1.9316372
-2.7552664 1.3011295 -1.9285517
-2.7952838 1.30576 -1.9286792
-2.8527014 1.3188868 -1.929666
-2.8127158 1.3191723 -1.9301474
-2.7727439 1.3219184 -1.9309337
-2.6927729 1.3224891 -1.9318964
-2.6528149 1.3276963 -1.9329877
-2.4912107 1.3605744 -1.9388658
-2.4112532 1.3636059 -1.9401335
-2.3722172 1.3689401 -1.9412301
-2.3322315 1.3692256 -1.9417114
-2.2922456 1.3695109 -1.9421929
-2.148973 1.3876263 -1.9460366
-2.1327255 1.3943776 -1.9470546
-2.0925407 1.410311 -1.949478
-1.9297216 1.391385 -1.9489481
-1.8897362 1.3916705 -1.9494295
-1.8116915 1.4072602 -1.9522326
-1.7698071 1.3974484 -1.9514835
-1.5322526 1.3281788 -1.9455467
-1.4666376 1.3266053 -1.9460835
-1.4122953 1.329035 -1.946991
-1.3466649 1.3255769 -1.9472944
-1.2923388 1.3298912 -1.9484351
-1.2523532 1.3301767 -1.9489164
-1.2267427 1.3294653 -1.949114
-1.1867852 1.3324003 -1.9499235
-1.1324096 1.3334938 -1.9506656
-1.0924239 1.3337792 -1.951147
-1.0268302 1.3318485 -1.9516393
-0.9715457 1.3345084 -1.9525857
-0.93249512 1.3373818 -1.9533775
-0.89250946 1.3376671 -1.9538589
-0.85253763 1.3404133 -1.9546452
0.15345621 1.2123154 -1.9499876
0.049404144 1.2792821 -1.957128
-0.1923089 1.3318605 -1.9609494
-0.23125505 1.3263381 -1.9598305
-0.5051136 1.3372372 -1.9581268
-0.6078763 1.3168826 -1.9544574
-11.371603 0.68885279 -1.7565439
-11.376683 0.79679281 -1.7698673
-11.377031 0.8361631 -1.7747438
-11.349321 0.76272523 -1.7659496
-10.802942 0.79693031 -1.7762842
-10.793222 0.81706893 -1.7788889
-10.727514 1.2740891 -1.8362736
-10.712771 1.2830129 -1.8375442
-10.672865 1.2932031 -1.8392525
-10.574924 1.2914474 -1.8401273
-10.472028 1.2946565 -1.8416729
-10.454945 1.2924904 -1.8415949
-10.47493 1.2910863 -1.841198
-10.708255 0.85369676 -1.7843771
-10.801725 0.65560794 -1.7587795
-10.826662 0.62181187 -1.754312
-10.770587 0.14732626 -1.6961209
-10.770241 0.10795589 -1.6912445
-10.766913 0.063543484 -1.6857762
-10.763853 -0.049482115 -1.6717999
-10.782808 -0.16776705 -1.6569259
-11.137028 -0.17844838 -1.6516508
-11.178328 -0.15383339 -1.6542413
-11.217631 -0.13692503 -1.6558989
-11.176983 0.075977445 -1.6827434
-11.1796 0.089492768 -1.6843896
-11.187359 0.11895533 -1.6879551
-11.190514 0.14367561 -1.6909842
-11.221241 0.27615434 -1.7070634
-3.3101687 1.3029853 -1.922592
-3.3501539 1.3026999 -1.9221107
-3.3901401 1.3024144 -1.9216292
-3.4710608 1.3068923 -1.9212817
-3.511996 1.3116555 -1.9214156
-3.5794437 1.3062522 -1.9199934
-3.6328745 1.3109262 -1.9199768
-3.751826 1.2951782 -1.9166979
-3.7927332 1.2950197 -1.9162219
-3.9121804 1.3057728 -1.9162225
-3.9752514 1.3084822 -1.9158548
-4.1525903 1.2899899 -1.9115844
-4.3125467 1.2913091 -1.9099637
-4.3915963 1.2906113 -1.9089954
-4.4306469 1.2877378 -1.9082036
-4.5924463 1.2893111 -1.9065939
-4.632432 1.2890255 -1.9061124
-4.6754007 1.2717963 -1.9034975
-4.6345053 1.2699127 -1.9037201
-4.554502 1.2655793 -1.9040754
-4.4345751 1.2713988 -1.9061345
-4.3118429 1.2583563 -1.9058868
-4.2727814 1.2632983 -1.9069351
-4.1936874 1.2611457 -1.9075505
-4.0718794 1.2527479 -1.9078681
-3.9919231 1.2558063 -1.9091392
-3.9128447 1.2561176 -1.9100599
-3.7929325 1.264401 -1.9124242
-3.6721117 1.2705036 -1.9145284
-3.5112581 1.2695117 -1.9161997
-3.3922863 1.2849036 -1.9194347
-3.3531938 1.2849177 -1.9198725
-3.3132229 1.2876788 -1.9206606
-3.2314172 1.2814478 -1.9208007
-11.008937 -1.0240819 -1.5482558
-11.016544 -1.0118439 -1.549688
-11.031409 -0.97766763 -1.5537586
-11.032582 -0.89386314 -1.5641338
-10.768612 -1.1128973 -1.539927
-10.608182 -1.1141096 -1.5415663
-10.766968 -1.1391972 -1.5366852
-6.4069591 -0.087144591 -1.7157301
-6.7142143 -0.32157624 -1.6832429
-6.8332601 -0.3401792 -1.6796091
-6.9130335 -0.34561461 -1.6780454
-6.9540348 -0.34884286 -1.6771879
-6.9573536 -0.35390878 -1.676523
-7.3514266 -0.59600639 -1.6421171
-7.3906574 -0.67268121 -1.632175
-7.185945 -1.0696275 -1.5852535
-7.0658913 -1.0758492 -1.5858214
-7.0259228 -1.0730013 -1.5866202
-6.9453211 -1.0576776 -1.5894188
-6.7525415 -0.5734092 -1.6515985
-6.911808 -0.44687974 -1.6655064
-1.229589 -1.0581014 -1.6531222
-0.69681931 -1.0196534 -1.6638309
-0.59147978 -1.085355 -1.6568615
-0.47068501 -1.0698279 -1.6601337
-0.20804167 -1.0633546 -1.6638658
-0.17073727 -1.0774529 -1.6625344
-0.12776327 -1.07635 -1.6631504
0.11107588 -1.0880131 -1.6643687
0.18909168 -1.0675017 -1.6677816
0.1366806 -1.033824 -1.6713716
-0.031667233 -0.59685123 -1.7236603
-0.038508892 -0.43434685 -1.7437279
-0.015730858 -0.30784586 -1.759663
-0.014649391 -0.27541491 -1.7636951
-0.015388966 -0.26670682 -1.7647663
-0.017539501 -0.21231504 -1.7714846
-0.015850067 -0.18550029 -1.7748275
-0.02580452 -0.19295406 -1.7737924
-0.17692375 -0.31188887 -1.7573638
-0.51919508 -0.21697946 -1.7653108
-0.59939718 -0.17694104 -1.7693793
-0.80113935 0.23232301 -1.8178608
-0.91917086 -0.19890651 -1.7630895
-0.97154045 -0.21896863 -1.7600185
-0.975142 -0.30277365 -1.7495899
-0.95661545 -0.32243091 -1.7473599
-0.8354435 -0.65744311 -1.7071838
-0.94379854 -0.81949574 -1.6858873
-4.775238 -1.0754975 -1.611416
-4.5743985 -1.0761924 -1.6135701
-4.5335188 -1.0756119 -1.6140981
-4.4526219 -1.0796622 -1.6144983
-4.4144382 -1.0774673 -1.6151963
-4.3738971 -1.0942758 -1.613565
-4.1739645 -1.1643845 -1.6071045
-3.9510813 -1.0934588 -1.6183825
-3.9336495 -1.0834732 -1.6198148
-3.8946655 -1.0662118 -1.6223893
-3.8537703 -1.0680954 -1.622612
-3.7337964 -1.0696677 -1.6237553
-3.6547332 -1.0668923 -1.6249813
-3.5738676 -1.0660148 -1.6259921
-3.4538937 -1.067587 -1.6271354
-3.2939491 -1.0663981 -1.6290668
-3.2539475 -1.0685649 -1.6292444
-3.2148705 -1.0660868 -1.6299876
-3.1339891 -1.0676732 -1.6306931
-3.0140154 -1.0692453 -1.6318364
-2.8318641 -1.05444 -1.6357036
-2.7519069 -1.0514097 -1.636971
-2.7119076 -1.0535861 -1.6371474
-2.5919645 -1.0502712 -1.6388962
-2.5119791 -1.0521631 -1.6395539
-2.4320216 -1.0491328 -1.6408215
-2.3920219 -1.0513092 -1.6409978
-2.2720649 -1.0504555 -1.6424417
-2.1921077 -1.047425 -1.6437092
-2.1112008 -1.0494101 -1.6443657
-2.0721645 -1.0441102 -1.645458
-1.9521937 -1.0457175 -1.646597
-1.871273 -1.0501635 -1.6469485
-1.7922649 -1.042118 -1.6488271
-1.672308 -1.0412642 -1.6502709
-1.5523648 -1.0379491 -1.6520199
-1.5123792 -1.0376645 -1.6525011
-1.4295456 -1.0546023 -1.6513255
-5.5026498 -1.2212534 -1.5852343
-5.2116303 -1.2011129 -1.5909771
-5.1298084 -1.2098079 -1.590812
-5.0108528 -1.191952 -1.5943522
-4.8899541 -1.1981689 -1.5949302
-4.7699184 -1.2095968 -1.5948524
-4.690917 -1.1969659 -1.5972995
-4.6175799 -1.1912163 -1.5988302
-4.4505835 -1.2259107 -1.5963923
-4.431746 -1.2199562 -1.5973405
-4.3700571 -1.2066246 -1.5996811
-4.2910404 -1.1964576 -1.6018229
-4.2519474 -1.1964434 -1.6022606
-4.1719909 -1.193385 -1.6035316
-4.055027 -1.226459 -1.6007365
-3.9701033 -1.2184356 -1.6026783
-3.691854 -1.2915606 -1.5967176
-3.6107345 -1.2776414 -1.5993478
-3.5328746 -1.2258712 -1.6066337
-3.4935169 -1.205714 -1.6095713
-3.4526808 -1.1715099 -1.6142668
-3.0898092 -1.1647997 -1.6191462
-3.0098372 -1.1642053 -1.6201119
-2.969851 -1.163908 -1.6205949
-2.9307895 -1.1589661 -1.6216431
-2.8099065 -1.1627191 -1.6225263
-2.7708449 -1.1577773 -1.6235746
-2.7308745 -1.1550161 -1.6243627
-2.5877476 -1.1441644 -1.6273043
-2.5087118 -1.141041 -1.6285732
-2.3878052 -1.1452025 -1.629406
-2.3487692 -1.1399026 -1.6304983
-2.2288263 -1.1365876 -1.6322472
-2.1478915 -1.1434947 -1.6322937
-2.0707684 -1.1278796 -1.6350896
-1.9479771 -1.1396108 -1.6350051
-1.7887464 -1.175295 -1.6323578
-1.7497103 -1.1699952 -1.6334503
-1.669739 -1.169426 -1.6344129
-1.5890417 -1.1344949 -1.639643
-1.4290986 -1.1333565 -1.6415682
-1.3891132 -1.1330719 -1.6420496
-1.3081927 -1.1375179 -1.642401
-9.5641823 -1.096342 -1.555414
-9.5696316 -0.50561911 -1.6285785
-9.731307 -0.45767671 -1.632718
-9.8890505 -0.50088829 -1.625602
-9.9699593 -0.49165875 -1.6258435
-9.9817123 -0.48592561 -1.6264231
-10.009754 -0.44318253 -1.6314088
-10.010609 -0.44061577 -1.6317174
-10.017585 -0.41259748 -1.6351128
-10.017614 -0.33381215 -1.6448785
-9.9754829 -0.29391414 -1.6502942
-9.8914728 -0.29745048 -1.650793
-9.8515606 -0.29400659 -1.651665
-9.811573 -0.2957963 -1.6518892
-9.7716656 -0.29450279 -1.6524947
-9.6915865 -0.29256403 -1.6536282
-9.41255 -0.23583725 -1.6637726
-9.3728514 -0.20347914 -1.6682265
-9.2521152 -0.23937011 -1.6651242
-9.2310143 -0.40404719 -1.6449463
-9.2862873 -0.69019836 -1.6088588
-9.2871742 -0.72959107 -1.6039659
-9.2862358 -0.7862547 -1.5969524
-8.9642162 -1.0983164 -1.5618615
-8.9242239 -1.0979557 -1.5623523
-8.8846912 -1.0926198 -1.5634547
-8.8420401 -1.109466 -1.5618422
-8.5707989 -1.156364 -1.5590544
-8.5533018 -1.1562061 -1.5592691
-8.4483204 -1.1552595 -1.5605575
-8.402564 -1.1475753 -1.5620204
-8.2021141 -1.1532086 -1.563558
-8.0444736 -1.1044524 -1.5713601
-7.8229833 -0.74581343 -1.6182872
-7.8089013 -0.69147587 -1.6251799
-7.769249 -0.65419513 -1.6302435
-7.6550932 -0.47358543 -1.653905
-7.6181769 -0.41892463 -1.6610925
-7.593255 -0.41130006 -1.6623156
-7.5831828 -0.41858602 -1.6615248
-9.8819227 -1.1806359 -1.5414208
-9.8201256 -1.1726093 -1.5431051
-9.6019707 -1.1781114 -1.5448564
-9.4443007 -1.1296661 -1.5526204
-9.3015985 -1.1529949 -1.5513203
-9.2420025 -1.1751766 -1.5492355
-9.178196 -1.1618412 -1.5516002
-8.8432188 -1.2301208 -1.5468729
-8.8028336 -1.2694526 -1.5424478
-8.6226616 -1.2700064 -1.5443889
-8.4547291 -1.2734717 -1.5458325
-8.4420586 -1.2752248 -1.5457566
-8.2820234 -1.2522783 -1.5503861
-8.2146721 -1.2369018 -1.5530434
-8.1618786 -1.2241744 -1.55521
-8.0823307 -1.220939 -1.5564983
-8.0023441 -1.2202177 -1.55748
-7.8875914 -1.1945676 -1.5619395
-7.8525963 -1.1942519 -1.562369
-7.684525 -1.0769306 -1.5787867
-7.4246383 -1.0845776 -1.5807377
-7.3041792 -1.0933679 -1.5809917
-7.2250042 -1.0874565 -1.5826077
-7.1446118 -1.0892512 -1.583282
-7.0646987 -1.0810945 -1.5851845
-7.0246811 -1.0831684 -1.5853738
-6.9043198 -1.0821153 -1.5868468
-6.8251696 -1.0737429 -1.5887675
-6.6642618 -1.0896367 -1.5885922
-6.6246748 -1.086681 -1.5894002
-6.5846815 -1.0862941 -1.5898943
-6.5059366 -1.0753529 -1.5921289
-6.4251628 -1.0772554 -1.5927941
-6.3042984 -1.0886146 -1.5927341
-6.2241392 -1.1050668 -1.5915889
-6.1039996 -1.1579378 -1.5863751
-6.0244431 -1.1521341 -1.5879819
-5.6233673 -1.2246597 -1.5834656
-6.3986697 0.04594852 -1.7323207
-6.3575397 -0.010426894 -1.7257912
-6.3398643 -0.047117136 -1.7214402
-6.2965841 -0.12545469 -1.7122123
-5.9939547 -0.31471792 -1.6921272
-5.9142752 -0.32121879 -1.6922101
-5.6367974 -0.32099479 -1.695333
-5.5943537 -0.31566182 -1.6964675
-5.6064086 -0.36007893 -1.6908271
-5.6741395 -0.35790282 -1.6903414
-5.7541265 -0.35867685 -1.6893532
-5.9013596 -0.3629331 -1.6871834
-5.9537158 -0.36501282 -1.6863415
-6.0088415 -0.3639732 -1.6858555
-6.1136265 -0.38467628 -1.6821203
-6.2657337 -0.93301243 -1.6124525
-6.0661826 -1.0538695 -1.5996971
-5.9462023 -1.0527085 -1.6011794
-5.826149 -1.0589302 -1.6017473
-5.7860818 -1.0659258 -1.6013271
-5.7460399 -1.0704606 -1.6012115
-5.6247935 -1.0819277 -1.6011425
-5.5451388 -1.0859674 -1.6015303
-5.2648787 -1.1520557 -1.5964642
-5.1853223 -1.1462522 -1.598071
-4.9350119 -1.1037893 -1.6061268
-4.8942256 -1.0884258 -1.6084862
-4.8551946 -1.0785558 -1.610145
-6.4530525 1.2931165 -1.8863115
-6.5726538 1.3094311 -1.8869998
-6.6528792 1.2981707 -1.8847091
-6.6920795 1.2909664 -1.8833787
-6.7723732 1.2828814 -1.8814809
-6.8123913 1.284955 -1.8812916
-6.852138 1.2860548 -1.8809845
-6.9716964 1.2946799 -1.8807201
-7.0518079 1.276136 -1.8775278
-7.1730394 1.2873529 -1.877566
-7.2130628 1.2829869 -1.8765783
-7.3729253 1.2844557 -1.8749772
-7.4026542 1.2810102 -1.8742186
-7.4523077 1.2812145 -1.87369
-7.4929857 1.2842307 -1.8736101
-7.5055628 1.2850547 -1.873572
-7.5573149 1.2826582 -1.8726977
-7.5894375 1.2849846 -1.8726277
-7.613121 1.2878125 -1.8727142
-7.6530628 1.2860763 -1.8720534
-7.6805339 1.2833471 -1.8714087
-7.7530527 1.2816744 -1.8703923
-7.8293967 1.2828207 -1.8696829
-7.8930941 1.2878394 -1.8695945
-8.013073 1.2867963 -1.8681269
-8.0530663 1.2864486 -1.8676376
-8.0931025 1.2910223 -1.867758
-8.1731319 1.2952482 -1.8673892
-8.2131042 1.2924399 -1.8665953
-8.3085518 1.2857718 -1.864704
-8.3330612 1.2889363 -1.8648229
-8.3726187 1.2884461 -1.8643209
-8.4529972 1.282972 -1.8627458
-8.4930115 1.2850848 -1.8625612
-8.5093498 1.2840738 -1.8622537
-8.532548 1.2821339 -1.8617545
-8.6525049 1.2786303 -1.8599821
-8.7324915 1.2779349 -1.8590038
-8.7725496 1.2849692 -1.8594289
-8.8120632 1.2795578 -1.8583174
-8.9083805 1.2729781 -1.8564273
-8.828372 1.2712381 -1.8571041
-8.8115616 1.2720333 -1.8573902
-8.7484083 1.2744207 -1.8583906
-8.7083693 1.2698586 -1.8582716
-8.6283836 1.2705799 -1.8592533
-8.6115532 1.2688504 -1.8592266
-8.5483971 1.2713012 -1.8602349
-8.4911165 1.2672904 -1.8603766
-8.4511013 1.2651772 -1.860561
-8.3711367 1.2683333 -1.8618443
-8.2684441 1.2738256 -1.8636706
-8.2284966 1.279109 -1.864771
-8.1084042 1.2678841 -1.8647192
-8.0111122 1.2616199 -1.8650279
-7.948431 1.2693267 -1.8666824
-7.8540974 1.265592 -1.8672717
-7.8459024 1.265328 -1.8673304
-7.748374 1.2612845 -1.8679171
-7.6910591 1.2520981 -1.8674177
-7.6283493 1.2574437 -1.8687798
-7.6115522 1.2578572 -1.8690184
-7.5711451 1.2605232 -1.8697996
-7.4913664 1.2634511 -1.8710524
-7.3707318 1.2389778 -1.8693644
-7.2506781 1.2327663 -1.8699335
-7.1710176 1.2287482 -1.870324
-7.0511618 1.2422229 -1.8733312
-7.0112257 1.2459519 -1.874239
-6.9312067 1.2458544 -1.8751194
-6.8913689 1.2594206 -1.8772454
-6.8218994 1.27658 -1.8801475
-6.7719326 1.2795286 -1.8810703
-6.7318082 1.2761971 -1.8811048
-6.6915512 1.2761256 -1.8815451
-6.5718913 1.2740976 -1.8826284
-6.5315533 1.2752149 -1.8832169
-6.4123192 1.2782423 -1.8849221
-6.371912 1.2719166 -1.8845887
-6.3323326 1.2790229 -1.8859111
-6.2924051 1.2826104 -1.8868011
-6.1726618 1.2733246 -1.8869858
-6.3100252 1.2947466 -1.888109
-6.3725247 1.2983189 -1.8878547
-5.1503325 1.2727568 -1.8983189
-5.0694113 1.2682791 -1.8986665
-4.9513254 1.2743112 -1.9007314
-4.9103909 1.2695479 -1.9005976
-4.8694835 1.2697062 -1.9010735
-4.9515743 1.246209 -1.8972452
-5.0315619 1.2480786 -1.8965846
-5.112443 1.249665 -1.8958791
-5.2314615 1.2416648 -1.8935598
-5.2723408 1.2410843 -1.8930318
-5.2732658 1.245729 -1.8935974
-5.2702475 1.2645181 -1.8959601
-9.7896156 1.2799702 -1.8474643
-9.9247971 1.3009052 -1.8485515
-9.9096861 1.2887337 -1.8472114
-9.869648 1.2841717 -1.8470924
-9.829586 1.2771484 -1.8466687
-9.6041527 -1.0991639 -1.5546184
-9.6846008 -1.0949098 -1.5542483
-9.7645645 -1.0980923 -1.5529618
-9.8445063 -1.1037364 -1.5513705
-9.9240074 -1.1118944 -1.5494725
-9.9691439 -1.1107225 -1.5491142
-10.048693 -1.1115603 -1.5481231
-10.088229 -1.1145111 -1.5473163
-10.199104 -1.1127217 -1.5463014
-10.082573 -1.1307244 -1.5453696
-9.9030733 -1.1683778 -1.5427043
-10.408609 -1.1171502 -1.5434155
-10.328188 -1.1165973 -1.5443811
-10.249094 -1.1131563 -1.5456898
-10.208666 -1.1129512 -1.5461663
-10.248222 -1.1134412 -1.5456643
-10.328602 -1.1189154 -1.5440891
-10.367222 -1.1270725 -1.5426472
-10.447752 -1.1153221 -1.5432055
-10.489119 -1.1078604 -1.543669
-10.528196 -1.1134144 -1.5425446
0 0 0 1 0 0 0 1 0 0 0 1 0 0 0 0 0 506 1 0 0
