ply
format ascii 1.0
comment PCL generated
element vertex 530
property float x
property float y
property float z
element camera 1
property float view_px
property float view_py
property float view_pz
property float x_axisx
property float x_axisy
property float x_axisz
property float y_axisx
property float y_axisy
property float y_axisz
property float z_axisx
property float z_axisy
property float z_axisz
property float focal
property float scalex
property float scaley
property float centerx
property float centery
property int viewportx
property int viewporty
property float k1
property float k2
end_header
-10.356961 -1.0765043 2.9891002
-10.317096 -1.1140009 2.9819913
-10.183863 -1.1313078 2.9749699
-9.7799311 -1.1117587 2.9648423
-9.7770329 -1.1126618 2.964608
-9.6973782 -1.1280541 2.9596281
-9.6570349 -1.1360288 2.9570785
-9.6170511 -1.1381177 2.9554524
-9.459301 -1.1234903 2.9525807
-9.4171762 -1.1314616 2.9499733
-9.297224 -1.1377282 2.9450953
-9.2172565 -1.1419059 2.9418433
-9.1401463 -1.1402199 2.9395928
-9.1360025 -1.1406295 2.9393945
-9.0973101 -1.1457295 2.9373438
-8.8574514 -1.1411624 2.9302387
-8.8174744 -1.1408085 2.9289916
-8.777504 -1.1380115 2.928123
-8.618659 -1.1238235 2.9251475
-8.4976807 -1.1282045 2.9205282
-8.3377838 -1.1219025 2.9162965
-8.2178717 -1.1135117 2.913691
-8.1382494 -1.1166893 2.9106052
-8.0183105 -1.1180701 2.9064846
-7.9801469 -1.1114633 2.9062653
-7.9387217 -1.1090332 2.9052925
-7.8580608 -1.115211 2.9017079
-7.8187699 -1.1152998 2.9004145
-7.7381086 -1.1214777 2.8968298
-7.6185222 -1.1194155 2.893254
-7.5782051 -1.1176187 2.8922193
-7.5183063 -1.11789 2.8902264
-7.3983545 -1.1241715 2.8853459
-7.2391582 -1.1134772 2.8818176
-7.1199512 -1.098246 2.880295
-6.9989333 -1.117252 2.8734081
-6.9189787 -1.1165535 2.8709121
-6.8390169 -1.1182982 2.8680372
-6.6383905 -1.1356217 2.8588181
-6.5987792 -1.1269592 2.85887
-6.5591555 -1.1231828 2.8581645
-6.5198975 -1.111093 2.8587592
-6.3239403 -1.1221153 2.8506687
-6.2786059 -1.1275924 2.8483431
-6.1601129 -1.1030639 2.8482845
-6.0387473 -1.1230541 2.8412337
-5.9588051 -1.1174695 2.8394952
-5.9191809 -1.1136931 2.8387897
-5.7192936 -1.1119469 2.8325496
-5.6397109 -1.1004922 2.8317325
-5.5197849 -1.0970014 2.8283672
-5.3191905 -1.1021097 2.8210418
-5.2396011 -1.0930979 2.8198459
-5.1592803 -1.1007128 2.8160496
-5.0393481 -1.099665 2.8123055
-4.9024348 -1.0760301 2.8115084
-4.782496 -1.0706302 2.8084385
-4.742517 -1.0704564 2.8071632
-4.629302 -1.0808035 2.8018723
-4.4294114 -1.0818578 2.795198
-4.3897643 -1.0854594 2.7933486
-4.2701302 -1.0505242 2.7948651
-4.0628257 -0.96836525 2.800844
-3.6629696 -0.88543296 2.8006709
-3.5902634 -0.93443727 2.790709
-3.5426543 -0.95088708 2.7866094
-3.3550246 -1.0548514 2.7643878
-3.3100398 -1.0667534 2.7610784
-3.27005 -1.081133 2.7575474
-3.2300687 -1.085741 2.7555311
-3.1900849 -1.0927919 2.7531362
-3.1501069 -1.0925143 2.7518771
-3.1101272 -1.0946795 2.7502394
-2.9105611 -1.1069418 2.7418389
-2.7902951 -1.1046723 2.7382734
-2.7503231 -1.0970658 2.7381501
-2.6788368 -1.0942003 2.7362657
-2.6387436 -1.0906234 2.7355139
-2.518683 -1.0745281 2.7340975
-2.3190136 -1.0781785 2.7270281
-2.1789947 -1.103541 2.7185373
-2.0391963 -1.1259818 2.7105064
-1.879307 -1.1620234 2.6997135
-1.8392155 -1.1608896 2.6985834
-1.7992365 -1.1607383 2.6973047
-1.6792123 -1.193506 2.6883175
-1.5595431 -1.187811 2.6853023
-1.136894 -1.2051293 2.6688521
-1.0794365 -1.2220136 2.6643643
-1.0398579 -1.2256665 2.662509
-0.95989275 -1.224997 2.6600082
-0.87989092 -1.241305 2.6548753
-0.75999641 -1.2242399 2.6536145
-0.69996977 -1.2210786 2.6521492
-0.5599122 -1.1951349 2.6516073
-0.46006632 -1.1810796 2.650533
-0.41997099 -1.1750596 2.6501598
-0.20018721 -1.1605502 2.6452494
-0.071630478 -1.1426909 2.6438296
-0.031793118 -1.1346762 2.6437738
0.16772223 -1.0713792 2.6470835
0.20773125 -1.0758362 2.6450896
0.28771782 -1.0798599 2.641861
0.32771206 -1.0818717 2.6402464
0.44764948 -1.0749421 2.6374135
0.52771282 -1.0911918 2.6322877
0.60754871 -1.0707636 2.6328528
0.60751867 -1.0651693 2.6337206
0.78549623 -0.72841722 2.6801057
0.81773663 -0.68894166 2.6851726
0.83224535 -0.61053234 2.6968501
0.82176876 -0.52676421 2.7101717
0.81128263 -0.47114384 2.7191322
0.80878639 -0.46554142 2.7200816
0.79604912 -0.43218297 2.7256656
0.66765213 -0.27144101 2.7547557
0.61170149 0.28570151 2.8429115
0.73832369 0.33653194 2.8466637
0.74838161 0.3388887 2.8467011
0.77847099 0.35984915 2.848969
0.85565567 0.42397225 2.8563914
0.87280893 0.45711797 2.8609688
0.87530899 0.50225997 2.8678825
0.87514019 0.54131979 2.8739405
0.88230038 0.61950248 2.8858223
0.8821311 0.65856236 2.8918803
0.88662386 0.7757839 2.9098983
0.8029542 0.97198528 2.9430265
0.80540419 1.0382521 2.9532151
0.80546474 1.0773305 2.9592686
0.80560875 1.1223577 2.9662414
0.80083895 1.1733181 2.9742932
0.79840088 1.2123886 2.980427
0.79843616 1.2845964 2.9916148
0.77359629 1.329731 2.999418
0.69360685 1.3599802 3.0067108
0.65372705 1.3755728 3.0104258
0.45386362 1.4055789 3.0215855
0.41393709 1.409171 3.0234425
0.17387819 1.3954018 3.0291281
0.014024258 1.3993598 3.0349481
-0.21446228 1.4221044 3.0459149
-0.27630234 1.449306 3.0521443
-0.33699036 1.4548303 3.0549769
-0.43725014 1.4386264 3.0557318
-0.59686852 1.431829 3.0598776
-0.79664993 1.43449 3.0667973
-1.0367584 1.4074951 3.070435
-1.0767303 1.4077069 3.0717697
-1.1167095 1.4075507 3.0730479
-1.1566741 1.4081303 3.0744393
-1.3963025 1.4196979 3.0840371
-1.4763622 1.4142371 3.0857985
-1.5561972 1.420177 3.0893195
-1.6761892 1.4334999 3.0952923
-1.7561476 1.433188 3.0978484
-1.9162245 1.4457245 3.105005
-2.0359251 1.4194077 3.104826
-2.2310264 1.4083498 3.1094673
-2.2360022 1.4094334 3.1097972
-2.2635095 1.4082228 3.1105056
-2.2760031 1.408174 3.1109049
-2.4358158 1.3938901 3.1138971
-2.5157771 1.388692 3.115696
-2.5958469 1.3898246 3.1184797
-2.6755402 1.3732324 3.1185043
-2.7600908 1.3656739 3.1200871
-2.8343868 1.3753964 3.1240137
-2.9046981 1.3978964 3.1297903
-2.9375188 1.4035515 3.1317356
-3.0402741 1.3696402 3.1298277
-3.1149573 1.3643538 3.1314411
-3.1547022 1.3600408 3.1320674
-3.1948359 1.3431618 3.1307592
-3.2744429 1.3220813 3.1300855
-3.3040841 1.3111141 3.1293516
-3.3147426 1.3032548 3.1284809
-3.3415365 1.2717696 3.1244748
-3.3411446 1.1877162 3.1114373
-3.3938441 1.0319946 3.0890238
-3.4066257 0.964495 3.0789804
-3.6963224 0.74339163 3.0541551
-4.103581 0.74327296 3.0674019
-4.2326345 0.97957355 3.108222
-4.2342753 1.085297 3.1246579
-4.2341018 1.1064218 3.1279256
-4.3130407 1.1799794 3.1418953
-4.3531089 1.2198968 3.1493857
-4.5218973 1.2813489 3.1644061
-4.5934577 1.3425033 3.1762133
-4.6640596 1.3917656 3.1861463
-4.6740751 1.3920646 3.1865189
-4.7947702 1.4044682 3.1923723
-4.9137883 1.349135 3.1876745
-4.9360423 1.3449414 3.1877496
-5.0737901 1.3278927 3.1895945
-5.1301761 1.3120682 3.1889791
-5.1530628 1.3082645 3.1891351
-5.3307619 1.2712964 3.1891947
-5.410356 1.2769659 3.1926658
-5.4899483 1.2801931 3.1957583
-5.6098766 1.2744523 3.1987751
-5.6502252 1.2801371 3.2009702
-5.8501825 1.3592999 3.2197502
-5.9301734 1.4002453 3.2287004
-6.0508633 1.4284244 3.2369981
-6.0633602 1.4332196 3.2381482
-6.2103786 1.3944485 3.2369289
-6.3031912 1.3924322 3.2396395
-6.4096103 1.3752465 3.2404428
-6.4495878 1.3749609 3.2417006
-6.5248237 1.3789034 3.2447622
-6.5704947 1.3897765 3.2479348
-6.6105247 1.3975637 3.2504454
-6.6908507 1.402963 3.2538984
-6.8101277 1.3843321 3.2548964
-6.8500814 1.3836734 3.2560956
-7.0106602 1.3884683 3.262069
-7.1702137 1.3984509 3.2688129
-7.2503309 1.4269823 3.2758436
-7.4105663 1.4310641 3.2816954
-7.6289325 1.3971261 3.2835491
-7.8294153 1.4280627 3.294873
-7.8563423 1.419736 3.2944598
-7.9091811 1.4032267 3.2936227
-8.068284 1.3925991 3.2971582
-8.1889305 1.421132 3.3055093
-8.2291107 1.4237602 3.3072252
-8.3086596 1.4172248 3.3088036
-8.3888674 1.4202703 3.3118882
-8.4252319 1.4037569 3.3105137
-8.6289186 1.3829519 3.3139243
-8.7486725 1.3794132 3.3172767
-8.9084797 1.3766605 3.3220553
-8.9485588 1.3778148 3.3235397
-8.9884596 1.3763896 3.3246183
-9.0280571 1.3705425 3.3250022
-9.1483173 1.3743738 3.3295131
-9.2284241 1.3759453 3.3323658
-9.3472672 1.3591411 3.3336327
-9.6277933 1.3835837 3.3465576
-9.8144131 1.3922788 3.3539836
-9.8668823 1.3918592 3.3556275
-9.9468288 1.3863342 3.3573756
-10.013176 1.3892057 3.3599815
-10.133192 1.3967301 3.3650568
-10.334137 1.4033811 3.3726325
-10.373607 1.3956976 3.3727274
-10.508377 1.3924589 3.3766153
-10.534138 1.372321 3.3743339
-10.942577 1.2660003 3.3711624
-10.93297 1.2548808 3.3691266
-10.732042 1.1813083 3.3511813
-10.622021 0.9889366 3.3177884
-10.810921 0.66596538 3.2738945
-11.012112 0.58740038 3.2682736
-11.050485 0.58302331 3.2688451
-11.050481 0.58058053 3.2684665
-11.05023 0.57933336 3.2682652
-10.96913 0.12071888 3.1945579
-10.973968 0.096000746 3.1908853
-10.974529 0.086666211 3.1894572
-10.970313 0.076555207 3.187753
-10.933815 0.01703456 3.177341
-10.813211 0.001756534 3.1710453
-10.773221 -0.010149002 3.1678979
-10.452646 -0.28229409 3.1152854
-10.413074 -0.37755305 3.0992353
-10.399586 -0.43602473 3.0897353
-10.373274 -0.52876848 3.074507
-10.333038 -0.6088438 3.0607884
-10.382598 -0.9167012 3.0146978
-10.410824 -0.94614959 3.011054
-10.410566 -0.95680493 3.0093944
-10.378 -1.0273917 2.9973958
-0.63980675 -1.1099274 2.667413
-0.71976471 -1.1102302 2.6699705
-0.75963354 -1.1118426 2.6710193
-0.83947802 -1.1087202 2.674104
-0.9995122 -1.1176374 2.6779346
-1.0393753 -1.1119204 2.680119
-1.389231 -0.86600822 2.7296205
-1.2386465 -0.34296045 2.8057656
-1.2386863 -0.33086905 2.8076406
-1.2686524 -0.3065511 2.8123848
-1.2884939 -0.33169121 2.8091354
-1.5983915 -0.63712233 2.7719007
-1.9179873 -0.33012974 2.8298812
-1.9553361 -0.2027549 2.8508353
-1.9577518 -0.18307674 2.8539634
-1.9575896 -0.11705576 2.8641884
-1.9199977 0.002188012 2.8814418
-1.9168715 0.060288534 2.890343
-1.9151947 0.08559902 2.8942103
-1.9973979 0.51328862 2.9631615
-1.9973834 0.51402426 2.963275
-2.0072968 0.55601478 2.9701047
-2.0367842 0.61889088 2.9808083
-2.0770164 0.67450374 2.9907362
-2.104522 0.64263737 2.9866941
-2.0947835 0.59181994 2.9785025
-2.1119084 0.45893627 2.9584689
-2.3970931 0.19722967 2.9272048
-2.486959 0.20131843 2.9307654
-2.5169687 0.16211899 2.9256687
-2.7827084 -0.24231017 2.8716552
-2.8226888 -0.24736224 2.8721747
-2.9426343 -0.28447032 2.8703313
-2.9826145 -0.28952241 2.8708508
-3.0238445 -0.29579949 2.8712211
-3.4226241 -0.11760055 2.9118233
-3.4313278 0.10488452 2.9465823
-3.4369547 0.26505202 2.9715848
-3.3535147 0.51678842 3.0078752
-3.3110733 0.56838197 3.0144877
-3.2839806 0.65262318 3.026659
-3.3139958 0.69883603 3.0347977
-3.3537207 0.88006514 3.0641744
-3.354017 0.88520712 3.0649807
-3.346035 1.0313282 3.0873632
-3.3339076 1.0763785 3.0939491
-2.9139452 1.2834678 3.11236
-2.7144251 1.3346835 3.1137974
-2.6760633 1.3362132 3.1127849
-2.5961034 1.3389683 3.1106074
-2.4759123 1.3854067 3.1138885
-2.3158977 1.3744464 3.1069782
-2.1739292 1.3518333 3.0988498
-2.0764937 1.3302267 3.0923281
-1.9965293 1.3403108 3.0912862
-1.7964168 1.3284295 3.082927
-1.5567696 1.3249263 3.0745783
-1.4768109 1.3252383 3.0720222
-1.4367161 1.3312786 3.0716522
-1.3964167 1.3382119 3.071414
-1.3165479 1.3410721 3.0692556
-1.2369363 1.3261746 3.0643539
-0.99705219 1.3417689 3.0589569
-0.95707607 1.3370389 3.056922
-0.83701086 1.3629353 3.057024
-0.7970314 1.3630913 3.0557458
-0.7569418 1.3593595 3.0538619
-0.71707296 1.3634034 3.05319
-0.63689184 1.3608258 3.0501788
-0.59691095 1.3634249 3.0492792
-0.5571928 1.3621889 3.0477941
-0.51717758 1.3641837 3.0467997
-0.47686243 1.3624482 3.0452178
-0.43699932 1.3567201 3.0430317
-0.35703897 1.3594751 3.0408542
-0.30571938 1.3589598 3.0391026
-0.26566362 1.3601497 3.0379825
-0.23699045 1.3584986 3.0367925
-0.1859355 1.3572093 3.0349298
-0.1459527 1.3597777 3.0340254
-0.025780201 1.3418984 3.0273407
0.094183445 1.3441352 3.0237799
0.21405649 1.3421221 3.0195634
0.29399967 1.3326044 3.0154846
0.41390944 1.3027183 3.0069478
0.57349539 1.1055993 2.9712048
0.77288818 0.82673162 2.9214976
0.78512812 0.7043305 2.902132
0.78756666 0.66526002 2.8959985
0.49847317 0.34655428 2.856029
0.486022 0.33668441 2.8549051
0.21182919 0.28093547 2.8551977
0.17067909 0.28309095 2.8568718
0.15411234 0.11955617 2.8320706
0.14876175 0.093927756 2.8282738
0.14898109 -0.03667739 2.8080282
0.12144184 -0.14663681 2.7918863
-0.074207783 -0.31896049 2.7715564
-0.078961849 -0.35215676 2.7665672
-0.041237831 -0.38524431 2.7602112
0.0068502426 -0.41991162 2.753273
0.045394897 -0.42331591 2.7514899
0.37450314 -0.54850107 2.7213719
0.36692333 -0.9468807 2.6598871
0.08778429 -1.063432 2.6509187
0.045321941 -1.0663376 2.6518517
-0.16012526 -1.050457 2.6610043
-0.18762064 -1.0627768 2.6599908
-0.43978596 -1.091086 2.6638176
-0.51974773 -1.0962752 2.6656179
-0.52985477 -1.0972954 2.6657891
-10.595805 1.0459414 3.3257678
-10.214256 1.3210095 3.3559637
-10.094362 1.3536764 3.3571205
-9.9879322 1.3499597 3.3530779
-9.9344482 1.3500055 3.3513429
-9.9071922 1.3534644 3.350991
-9.8944769 1.3551946 3.3508451
-9.7468624 1.339076 3.3435392
-9.666604 1.3495821 3.3425529
-9.3866711 1.3409431 3.3320963
-9.307106 1.3377072 3.3290033
-9.1871796 1.341109 3.3256242
-9.1067991 1.3236384 3.3202989
-8.9872894 1.3402648 3.3189826
-8.8669567 1.3377708 3.3146765
-8.7870026 1.3384103 3.3121715
-8.7074242 1.3278457 3.3079424
-8.5070257 1.3171887 3.2997637
-8.4271479 1.3046452 3.295218
-8.3076248 1.313943 3.2927656
-8.1473122 1.3093258 3.2868285
-8.0274363 1.3444846 3.288372
-7.987464 1.3472471 3.287498
-7.9254284 1.3682995 3.2887397
-7.6676569 1.3261135 3.2738066
-7.5684452 1.3033346 3.2670453
-7.4676886 1.3074323 3.2643983
-7.3285799 1.3050478 3.2594979
-7.2090187 1.3118745 3.2566614
-7.0887108 1.3018763 3.2511933
-6.9687891 1.3149437 3.2493122
-6.916327 1.325087 3.2491751
-6.8092585 1.3318245 3.2467318
-6.7692919 1.3443208 3.2473662
-6.6093965 1.3625578 3.2449841
-6.4891601 1.329631 3.2359655
-6.3295288 1.3352507 3.2316368
-6.1721172 1.336375 3.2266839
-6.0493045 1.3190684 3.2200017
-5.8077607 0.99925309 3.1625764
-5.8098755 0.97861212 3.159447
-5.8101788 0.9594149 3.156482
-5.8963938 0.74625456 3.1262596
-5.8789039 0.74637949 3.1257093
-5.8496547 0.74876577 3.1251264
-5.7946939 0.75892687 3.1249106
-5.7422233 0.7593016 3.1232595
-5.6772599 0.75976551 3.1212156
-5.3693066 0.75188547 3.1099639
-5.3342719 0.17579906 3.0195539
-5.3342443 0.1729634 3.0191138
-5.3334403 -0.10767643 2.9756005
-5.3130598 -0.19031742 2.9621308
-5.3105135 -0.22931099 2.9560056
-5.3054209 -0.30729812 2.9437549
-5.292264 -0.39436799 2.9298344
-5.2924037 -0.41840747 2.9261138
-5.2898908 -0.43057984 2.9241457
-5.2748036 -0.50849032 2.9115815
-5.271862 -0.55384225 2.904458
-5.2714658 -0.56020069 2.90346
-5.269125 -0.74888682 2.8741455
-5.570714 -1.0379674 2.8391738
-5.6106796 -1.0480273 2.8389165
-5.7298045 -1.073855 2.8387947
-5.8097596 -1.0744681 2.8413038
-5.8901153 -1.0638462 2.8455672
-5.9696684 -1.0756943 2.8463225
-6.0096426 -1.0784392 2.8471992
-6.0496168 -1.081184 2.8480759
-6.1303596 -1.0715187 2.8522036
-6.2095222 -1.0848484 2.8527164
-6.2898703 -1.0815414 2.8558459
-6.3298445 -1.0842862 2.8567228
-6.4095049 -1.0872298 2.8588612
-6.449779 -1.0827677 2.8608646
-6.5701065 -1.0773289 2.8656266
-6.6096907 -1.0815556 2.866261
-6.6896486 -1.0797303 2.8691483
-6.809577 -1.0830883 2.8725343
-6.889535 -1.0812629 2.8754215
-6.9299045 -1.0776495 2.8772964
-7.0094662 -1.0821826 2.8791854
-7.0890312 -1.0842775 2.8814523
-7.1290054 -1.0870223 2.882329
-7.1689854 -1.0848906 2.8839617
-7.2497253 -1.0776634 2.8877115
-7.4859014 -0.64248413 2.9628382
-7.5708685 -0.63094407 2.9673941
-7.9395256 -0.68741113 2.9706521
-8.0870419 -0.67683834 2.9770954
-8.1024132 -0.67138696 2.9784408
-8.1404924 -0.67152369 2.9796598
-8.1599054 -0.67148268 2.9802985
-8.3411007 -0.68347329 2.9843423
-8.6625729 -0.51665425 3.020663
-8.7384396 -0.35166386 3.0487008
-8.7549248 -0.25240737 3.0646181
-8.7821865 -0.14171395 3.0826588
-8.7828941 -0.13131043 3.0842941
-8.78269 -0.09387739 3.0900879
-8.8642635 -0.070748091 3.096329
-9.024189 -0.062278882 3.1028504
-9.104126 -0.072698429 3.1038396
-9.2232437 -0.088005655 3.1053474
-9.2632256 -0.085888356 3.1069779
-9.3433771 -0.0860084 3.10957
-9.4464264 -0.077924073 3.1141791
-9.463129 -0.077744178 3.1147511
-9.5838947 -0.052175477 3.1226468
-9.663022 -0.074484743 3.121767
-9.7425632 -0.085964419 3.1225791
-9.7420683 -0.14319886 3.1136942
-9.78197 -0.29686251 3.0911825
-10.359491 -0.24324572 3.1183019
-10.577013 0.22304519 3.1976421
-10.569514 0.26144832 3.2033486
-10.525187 0.42476833 3.2272124
-10.523911 0.44249904 3.2299182
-10.607511 0.72726941 3.2767687
-10.617192 0.79945797 3.28827
-10.598161 0.92866987 3.3076725
-10.597801 0.96185011 3.3128023
-4.4938869 1.0020406 3.1202128
-4.7546167 1.3002975 3.1749225
-4.8332443 1.3153337 3.1798134
-4.9131994 1.314788 3.1823332
-5.1831803 1.0818627 3.1550336
-5.2098336 0.96715587 3.1381271
-5.2103772 0.9614585 3.1372619
-5.2494669 0.75423461 3.1064243
-5.2132983 -0.040814981 2.9820478
-5.1015587 -0.092821442 2.9703493
-4.9417377 -0.108167 2.9627657
-4.821672 -0.07500571 2.9639935
-4.4877324 0.28672916 3.0091698
-4.4849482 0.35904658 3.0202851
-4.4899993 0.4371894 3.0325584
-4.5007777 0.6052283 3.0589485
-4.5101213 0.63249528 3.063478
-4.5126467 0.67156672 3.0696146
-4.505908 0.80063647 3.0893955
-4.506247 0.80651307 3.090317
-4.493834 0.92386371 3.1080971
0 0 0 1 0 0 0 1 0 0 0 1 0 0 0 0 0 530 1 0 0
