ply
format ascii 1.0
comment PCL generated
element vertex 580
property float x
property float y
property float z
element camera 1
property float view_px
property float view_py
property float view_pz
property float x_axisx
property float x_axisy
property float x_axisz
property float y_axisx
property float y_axisy
property float y_axisz
property float z_axisx
property float z_axisy
property float z_axisz
property float focal
property float scalex
property float scaley
property float centerx
property float centery
property int viewportx
property int viewporty
property float k1
property float k2
end_header
-9.995739 1.3115486 -2.1047213
-10.074675 1.3110371 -2.1036475
-10.115309 1.3039752 -2.1024129
-10.225368 1.2776477 -2.0983467
-10.292747 1.275999 -2.0973086
-10.378197 1.2802185 -2.0966251
-10.453075 1.2785147 -2.0954843
-10.612768 1.2698497 -2.0925467
-10.653095 1.2707697 -2.0921168
-10.732771 1.2714455 -2.0911524
-10.765637 1.277374 -2.0913215
-10.773136 1.277319 -2.0912187
-10.732378 1.2628018 -2.0902905
-10.651667 1.2535316 -2.0904062
-10.611966 1.2500854 -2.0905747
-10.571659 1.2516421 -2.091253
-10.532017 1.2556261 -2.0921662
-10.492044 1.2583965 -2.0929618
-10.411703 1.2552935 -2.0936911
-10.372042 1.2568007 -2.0943561
-10.332068 1.2595711 -2.0951517
-10.212048 1.2554983 -2.0962977
-10.132118 1.2635159 -2.0981371
-10.10683 1.2674392 -2.0988581
-9.9147301 1.27689 -2.1022942
-9.8339672 1.2694502 -2.1025941
-9.793952 1.2673205 -2.1028988
-9.7139893 1.2704844 -2.1042519
-9.5940084 1.2715187 -2.1059096
-9.5141125 1.2821059 -2.1080062
-9.3556919 1.2997439 -2.1118274
-9.4758358 1.3071491 -2.1110139
-9.628212 1.3048185 -2.1088066
-9.6807041 1.3043659 -2.1080813
-9.7927837 1.2992045 -2.1061118
-9.835556 1.3017598 -2.1058142
-9.8755007 1.3009069 -2.1052113
-10.999921 0.040274888 -1.9642056
-10.978212 0.15509269 -1.9760031
-10.967484 0.11381069 -1.9720014
-10.951052 0.062070429 -1.9670247
-10.951214 0.02532202 -1.9633367
-10.970659 -0.21695755 -1.9387841
-10.979969 -0.29620361 -1.9307152
-10.980747 -0.49413231 -1.9108528
-10.980256 -0.50818133 -1.9094501
-10.480566 -0.75781524 -1.8908839
-10.061596 -0.40734845 -1.9314624
-10.022356 -0.32043234 -1.9406884
-9.6602497 -0.20090422 -1.9573673
-9.5827904 0.038905859 -1.9824235
-9.4601269 -0.11993332 -1.9680808
-9.4475384 -0.12972325 -1.9672618
-9.3788223 -0.24943793 -1.9561445
-9.3785076 -0.2527405 -1.9558173
-9.3381634 -0.39964727 -1.9416051
-9.3379726 -0.43747777 -1.9378132
-9.3379841 -0.45303655 -1.9362525
-9.3779774 -0.45338088 -1.9356999
-9.4740677 -0.45302254 -1.9344913
-9.4968796 -0.44994092 -1.9345049
-9.6175499 -0.45947829 -1.9319853
-9.7965126 -0.45579898 -1.9300363
-9.8519459 -1.0414095 -1.8705815
-9.6513443 -1.1023092 -1.8670715
-9.5304384 -1.1061482 -1.8682524
-9.4511833 -1.1022781 -1.8696672
-9.4106321 -1.1058307 -1.8698361
-9.3711739 -1.104063 -1.8705244
-9.3312035 -1.1012437 -1.8713249
-9.2911873 -1.1033734 -1.8716296
-9.2113285 -1.1084198 -1.8721578
-9.1711864 -1.1048136 -1.8730395
-9.1311932 -1.1044688 -1.873592
-9.0511837 -1.1062536 -1.8744494
-9.0111914 -1.1059089 -1.8750019
-8.9312277 -1.1027451 -1.8763549
-8.8912125 -1.1048746 -1.8766596
-8.8114204 -1.1025014 -1.8779312
-8.7714272 -1.1021571 -1.8784838
-8.6909637 -1.115398 -1.8781979
-8.2108192 -1.1360121 -1.8823493
-8.170804 -1.1381422 -1.882654
-8.1235876 -1.1460752 -1.8824699
-7.7793622 -0.75117344 -1.9265372
-7.7350149 -0.69896936 -1.9323477
-7.6427622 -0.38716099 -1.9648169
-7.6423283 -0.31537378 -1.9720229
-7.6485171 -0.27665812 -1.9758259
-7.6538763 -0.2371105 -1.9797231
-7.6392393 -0.1973905 -1.9838966
-7.6369319 -0.19558564 -1.9841075
-7.619503 -0.18801108 -1.985093
-7.6011605 -0.18189193 -1.9859443
-7.5793848 -0.18202682 -1.9862128
-7.1631289 -0.35307601 -1.9744481
-7.1231818 -0.34998354 -1.9752756
-7.0799456 -0.34117213 -1.9767195
-6.999959 -0.34042805 -1.9778302
-6.9599662 -0.34005606 -1.9783854
-6.6824169 -0.062003285 -2.0098691
-6.4894333 0.010264903 -2.0196173
-6.4635687 0.020857662 -2.0210147
-6.4436455 0.028465807 -2.0220358
-6.4071259 0.028390944 -2.0225015
-6.3633747 0.032512784 -2.0234814
-6.2466688 -0.017129302 -2.020014
-6.2064466 -0.039034486 -2.0183377
-6.1145649 -0.13424982 -2.0099778
-6.1092091 -0.13832253 -2.0096388
-5.725163 -0.14394888 -2.0140486
-5.5203347 -0.3142933 -1.9996161
-5.485219 -0.32633805 -1.9988629
-5.4902706 -0.34426144 -1.9969997
-5.522192 -0.38605815 -1.9923941
-5.6014776 -0.4122206 -1.9887429
-5.6811323 -0.41670978 -1.9872611
-5.8010612 -0.45128459 -1.9822397
-6.051712 -0.87225664 -1.9367697
-5.7529926 -1.0562671 -1.9221826
-5.6730065 -1.0555232 -1.9232931
-5.6330128 -1.055151 -1.9238485
-5.5530272 -1.0544071 -1.9249591
-5.5130582 -1.0515611 -1.9257623
-5.4730406 -1.053663 -1.9260697
-5.393054 -1.052919 -1.9271804
-5.3530612 -1.052547 -1.9277357
-5.2635703 -1.0510657 -1.9290434
-5.2235703 -1.0532866 -1.9293387
-5.1530714 -1.0531609 -1.9302645
-5.100996 -1.0625174 -1.9300005
-5.0218859 -1.0603305 -1.9312445
-4.9436784 -1.0490415 -1.9333898
-4.7437458 -1.0477762 -1.9361063
-4.3936028 -0.79152989 -1.966343
-4.4059715 -0.35619017 -2.0098476
-4.3885717 -0.33876228 -2.011821
-4.3645778 -0.31218466 -2.0147974
-4.3478708 -0.31297725 -2.0149343
-4.2679248 -0.30752343 -2.0165169
-4.1097312 -0.29820216 -2.0195007
-3.9897311 -0.30486467 -2.0203867
-3.9497447 -0.30461165 -2.0209301
-3.823884 -0.31292325 -2.0217266
-3.7470703 -0.34786052 -2.0192173
-3.8294618 -0.3632257 -2.016609
-4.0282755 -0.41317528 -2.0090239
-4.236371 -0.75095153 -1.9724497
-3.9840026 -1.0429686 -1.946429
-3.9430997 -1.0542918 -1.9458231
-3.7840433 -1.0466512 -1.9486496
-3.6632078 -1.0500467 -1.9498742
-3.622345 -1.0539482 -1.9500121
-3.5441108 -1.0476069 -1.9516615
-3.4606333 -1.063719 -1.9511266
-3.4206467 -1.0634661 -1.9516699
-3.3432889 -1.0529702 -1.9537246
-3.2233427 -1.0497372 -1.9556025
-3.1007414 -1.0639157 -1.9557683
-3.0216579 -1.0567812 -1.9575083
-2.9434373 -1.047966 -1.9594055
-2.8429344 -1.0527742 -1.9602251
-2.802948 -1.0525174 -1.9607687
-2.7434912 -1.0491747 -1.9618741
-2.6829886 -1.0517466 -1.9623998
-2.643002 -1.0514898 -1.9629436
-2.5230424 -1.050719 -1.9645746
-2.4830561 -1.0504622 -1.9651183
-2.4030826 -1.0499482 -1.9662056
-2.3630965 -1.0496914 -1.9667493
-2.2831097 -1.0516517 -1.9675887
-2.2031505 -1.0486639 -1.968924
-2.1631503 -1.0508811 -1.9692198
-2.0831773 -1.0503674 -1.9703071
-2.0432045 -1.0476363 -1.9710988
-1.9632318 -1.0471224 -1.9721862
-1.9232452 -1.0468655 -1.9727299
-1.8832724 -1.0441343 -1.9735216
-1.8032856 -1.0460947 -1.9743609
-1.7632992 -1.0458378 -1.9749047
-1.6833401 -1.0428499 -1.97624
-1.6433537 -1.042593 -1.9767838
-1.5233941 -1.0418222 -1.9784148
-1.483366 -1.048988 -1.9782145
-1.4033792 -1.0509483 -1.9790539
-1.3633928 -1.0506914 -1.9795976
-1.2834198 -1.0501776 -1.980685
-1.2034469 -1.0496638 -1.9817723
-1.1634467 -1.0518811 -1.9820681
-1.0834596 -1.0538416 -1.9829074
-0.80160189 -0.79493588 -2.0125265
-0.80310678 -0.63487339 -2.0285614
-0.80305409 -0.59656906 -2.0324039
-0.85332727 -0.30617729 -2.060879
-0.94341516 -0.21225563 -2.0691326
-0.93833685 -0.18690705 -2.0717409
-0.92839551 -0.17694601 -2.0728686
-0.82263112 0.19319034 -2.1113634
-0.8743577 0.36567199 -2.1279933
-0.87475705 0.40522444 -2.1319554
-0.90558696 0.52189106 -2.1432576
-0.90596795 0.52601767 -2.1436665
-0.87675405 0.60298687 -2.1517651
-0.86880231 0.68799508 -2.1603944
-0.86890531 0.72616863 -2.1642218
-0.84181595 0.76602948 -2.1685708
-0.99494624 1.327999 -2.2229531
-0.91692686 1.3426642 -2.2254345
-0.75507069 1.3331611 -2.2265778
-0.71698475 1.3424339 -2.2280011
-0.59521151 1.3423705 -2.2295721
-0.47526169 1.3437154 -2.2312605
-0.43625212 1.351048 -2.2325013
-0.41720629 1.355684 -2.2332129
-0.31722546 1.3543333 -2.2343724
-0.21541595 1.3515731 -2.2354143
-0.17548323 1.3569655 -2.2364724
-0.13280249 1.3590093 -2.2372303
-0.057830334 1.3725969 -2.2395642
-0.016747952 1.3878914 -2.2416303
0.065066814 1.3849076 -2.2423906
0.10460234 1.3744183 -2.2418506
0.14750624 1.320123 -2.2369606
0.31239176 0.88188517 -2.1951408
0.31208277 0.86211872 -2.1931543
0.31874847 0.38113648 -2.1449981
0.31948137 0.35887831 -2.1427751
0.32776213 0.23260182 -2.1302166
0.33067703 0.20997119 -2.1279845
0.33090067 0.18688384 -2.1256719
0.33123112 0.1308482 -2.1200557
0.31157398 0.014447212 -2.1081262
0.33332205 -0.094341144 -2.0974963
0.33365345 -0.15371679 -2.0915451
0.29251862 -0.24099194 -2.0822587
0.17425919 -0.25370708 -2.0794516
-0.10571241 -0.31060213 -2.0701187
-0.18541288 -0.29313639 -2.0708382
-0.34738111 -0.32409558 -2.0656352
-0.382761 -0.88679969 -2.0087376
-0.26376867 -0.9372133 -2.0052223
0.097631454 -1.0071234 -2.0028913
0.21763563 -0.96857053 -2.0083125
0.21961927 -1.0641072 -1.9987558
0.22010422 -1.0786312 -1.9973053
0.14037371 -1.1090083 -1.9932258
0.059114456 -1.1179011 -1.9912813
-0.2193284 -1.0760287 -1.9918746
-0.28411818 -1.0905991 -1.9895741
-0.31924057 -1.0868053 -1.9894997
-0.4040947 -1.0895249 -1.9881278
-0.44407749 -1.0899916 -1.9875631
-0.52007627 -1.0790362 -1.9876776
-0.53667259 -1.0786979 -1.9874965
-0.7241745 -1.0734621 -1.9855931
-0.80508447 -1.0703812 -1.9848541
-0.84504104 -1.0733225 -1.9840416
-0.88405395 -1.0802786 -1.9828385
-0.92495394 -1.0792056 -1.9824164
-1.0040035 -1.0816791 -1.9811444
-1.0440135 -1.0796711 -1.9808277
-1.12398 -1.0806048 -1.9796982
-1.1639633 -1.0810717 -1.9791335
-1.2039735 -1.0790639 -1.9788167
-1.2439299 -1.0820053 -1.9780041
-1.2839401 -1.0799975 -1.9776872
-1.3639064 -1.0809311 -1.9765579
-1.5640714 -1.1435919 -1.9676803
-1.6040277 -1.1465335 -1.9668678
-1.6430943 -1.14854 -1.9661605
-1.7230339 -1.1519482 -1.9647833
-1.7630172 -1.152415 -1.9642186
-1.8429837 -1.1533487 -1.9630892
-1.8829937 -1.1513408 -1.9627724
-1.9229503 -1.1542823 -1.9619598
-2.0029435 -1.1527414 -1.9610783
-2.0429001 -1.1556828 -1.9602656
-2.1228664 -1.1566164 -1.9591362
-2.1628499 -1.1570833 -1.9585716
-2.2028327 -1.15755 -1.9580069
-2.2428429 -1.1555421 -1.95769
-2.2828262 -1.156009 -1.9571253
-2.3227828 -1.1589504 -1.9563128
-2.4027493 -1.1598841 -1.9551834
-2.4427326 -1.1603508 -1.9546187
-2.523643 -1.15727 -1.9538797
-2.5626824 -1.1617514 -1.9529246
-2.6399467 -1.1405053 -1.9540548
-2.8034375 -1.0853629 -1.957468
-2.9049244 -1.0720694 -1.9574869
-2.9840474 -1.0763421 -1.9560335
-3.0648875 -1.0706732 -1.955555
-3.1048744 -1.0709434 -1.9550099
-3.1448612 -1.0712135 -1.9544649
-3.2222664 -1.085428 -1.9520366
-3.3422422 -1.0837618 -1.9506497
-3.5017014 -1.1640902 -1.9405274
-3.5290701 -1.184088 -1.9381672
-3.5820527 -1.2376695 -1.9321067
-3.6186061 -1.2527292 -1.9301227
-3.6609921 -1.2716602 -1.927675
-3.7017541 -1.2805803 -1.9262522
-3.8033011 -1.2936023 -1.923631
-3.8228688 -1.2956038 -1.9231768
-3.8810575 -1.2757684 -1.9244125
-4.0628386 -1.2223191 -1.9274189
-4.1028099 -1.2250657 -1.9266257
-4.222847 -1.2134936 -1.9262317
-4.3425937 -1.2489748 -1.921122
-4.4628906 -1.1953022 -1.9249471
-4.6215677 -1.1997273 -1.922448
-4.7374239 -1.1922504 -1.9216974
-4.7819495 -1.1987193 -1.9204719
-4.9419127 -1.1973232 -1.91854
-4.981945 -1.1901639 -1.9187396
-5.1531186 -1.1992536 -1.9156108
-5.1793785 -1.1982937 -1.9153669
-5.2193651 -1.1985466 -1.9148235
-5.3132954 -1.2094468 -1.9125137
-5.4299364 -1.2163525 -1.9103103
-5.5500498 -1.2159238 -1.9087975
-5.6702299 -1.2147226 -1.9073614
-5.7001576 -1.2157741 -1.9068682
-5.9694633 -1.1267345 -1.9123108
-5.9921384 -1.1248841 -1.9122027
-6.171669 -1.1470759 -1.9076515
-6.1939788 -1.1493855 -1.9071308
-6.3132782 -1.1756985 -1.9029465
-6.3532715 -1.1760819 -1.90239
-6.3932643 -1.1764652 -1.9018335
-6.493783 -1.1538889 -1.902796
-6.5539174 -1.1528352 -1.9021229
-6.714242 -1.1504133 -1.9002892
-6.8312922 -1.1057267 -1.9032551
-7.2351766 -1.0738217 -1.9012239
-7.3511934 -1.0975208 -1.8973442
-7.3938332 -1.1142293 -1.8951161
-7.4338012 -1.1170893 -1.8943115
-7.6734295 -1.2085273 -1.8820364
-7.8490796 -1.3308834 -1.8674891
-7.928503 -1.3934379 -1.8601861
-7.9683161 -1.4135793 -1.8576503
-8.2094297 -1.2353048 -1.8724083
-8.7481518 -1.2881873 -1.8601264
-8.7683067 -1.2710388 -1.8615854
-8.8086824 -1.2293184 -1.8652469
-9.0502167 -1.1166612 -1.873418
-9.0905743 -1.1154491 -1.8730168
-9.1302013 -1.1173499 -1.8723129
-9.1701946 -1.1176944 -1.8717604
-9.2102108 -1.115564 -1.8714558
-9.3856764 -1.1586294 -1.8648636
-9.4102612 -1.1634583 -1.8640608
-9.5704746 -1.1620023 -1.8621317
-9.6096191 -1.1712387 -1.8606982
-9.6492729 -1.17514 -1.8597933
-9.8496475 -1.136765 -1.861047
-9.9697952 -1.1338006 -1.8597882
-10.010052 -1.124926 -1.8601569
-10.029785 -1.1042557 -1.8619745
-10.589964 -1.1190033 -1.8532397
-10.615278 -1.1247156 -1.8523389
-10.62956 -1.1258483 -1.8520403
-10.694926 -1.1243246 -1.8513465
-10.748483 -1.1290637 -1.8501774
-10.788514 -1.1243999 -1.8501267
-10.814586 -1.1195767 -1.8502728
-10.868614 -1.1101236 -1.8505211
-11.055168 -1.049823 -1.8541529
-11.109028 -1.0524492 -1.853192
-11.132146 -1.0163573 -1.8565125
-11.139859 -0.84169298 -1.8739315
-11.112966 -0.76231915 -1.882241
-11.074324 -0.53848362 -1.9051924
-11.236827 -0.21250305 -1.9357834
-6.5383644 1.3083214 -2.1491787
-6.4983716 1.3086939 -2.1497343
-6.457665 1.3008956 -2.1494792
-6.4307365 1.2944771 -2.1491842
-6.3369231 1.2888938 -2.1498394
-6.2976189 1.2949631 -2.1509571
-6.2177601 1.2905836 -2.1515522
-6.1579266 1.29293 -2.1525626
-6.0173731 1.2678802 -2.1518707
-5.9774051 1.270727 -2.1526737
-5.8982053 1.2870661 -2.1553385
-5.7781038 1.2758126 -2.1557653
-5.697072 1.2667755 -2.1559086
-5.6173935 1.2666576 -2.1569288
-5.5774002 1.2670304 -2.1574841
-5.5370502 1.2633173 -2.1576343
-5.6170611 1.2650465 -2.1567714
-5.6973553 1.2634382 -2.15557
-5.7370157 1.2614543 -2.1548574
-5.777009 1.2610818 -2.1543021
-5.8973699 1.2665237 -2.1532888
-6.0167089 1.2646577 -2.151556
-6.097003 1.2630494 -2.1503546
-6.1373529 1.2667624 -2.1502044
-6.257 1.2640333 -2.148381
-6.2966852 1.2645239 -2.1479163
-6.4170952 1.2749141 -2.1473987
-6.4471636 1.2820575 -2.1477258
-6.5372453 1.2911162 -2.1474676
-6.6174908 1.2845595 -2.1457705
-6.6571026 1.277627 -2.1445622
-6.736659 1.2653736 -2.1423028
-6.8165226 1.252257 -2.1399527
-6.8968163 1.2506487 -2.1387515
-6.9767051 1.2400064 -2.1366491
-7.0195298 1.2412218 -2.1362164
-7.0567646 1.2466841 -2.136282
-7.1371565 1.2549728 -2.1360722
-7.2167864 1.2501421 -2.1345563
-7.2971535 1.2559566 -2.1340985
-7.3368387 1.2564471 -2.1336336
-7.3764992 1.2544633 -2.132921
-7.4168005 1.2532277 -2.1322751
-7.5365458 1.2603956 -2.131443
-7.5374937 1.2602808 -2.1314192
-7.6564274 1.2493808 -2.1287854
-7.7536888 1.2560945 -2.1281991
-7.8737803 1.2674322 -2.1277807
-7.9462008 1.2593842 -2.1260355
-7.9536996 1.2593194 -2.125932
-8.0737019 1.2607597 -2.124522
-8.1937485 1.2671486 -2.1236079
-8.2848072 1.2686694 -2.122581
-8.4340534 1.2597551 -2.1197538
-8.513648 1.2594417 -2.1186914
-8.553709 1.2665201 -2.1188827
-8.5944557 1.2718304 -2.1188874
-8.5148573 1.2765846 -2.1203952
-8.4740887 1.2688 -2.1201425
-8.354496 1.2738991 -2.1222029
-8.23454 1.2774076 -2.1241086
-8.1945467 1.2777524 -2.1246612
-8.1548967 1.2772131 -2.1251206
-8.1152477 1.2744534 -2.1253574
-8.035305 1.2823122 -2.1271811
-7.9552517 1.2755784 -2.1275425
-7.914207 1.276101 -2.1281266
-7.8749447 1.2796264 -2.1289887
-7.8349514 1.2799712 -2.1295414
-7.7949586 1.280316 -2.1300941
-7.6580367 1.2831703 -2.1321537
-7.6354275 1.2796067 -2.1320891
-7.5950947 1.2763948 -2.1322894
-7.4969339 1.2673281 -2.1326513
-7.3779755 1.2757539 -2.1350372
-7.2979164 1.2690763 -2.1354046
-7.2576399 1.2727861 -2.1362982
-7.1379929 1.2755152 -2.1381216
-6.9780931 1.2844285 -2.1410868
-6.8572779 1.2650039 -2.1407034
-6.7769842 1.2666122 -2.1419046
-6.6981416 1.2870368 -2.1449745
-6.618351 1.3075762 -2.148068
-3.2781911 1.2939122 -2.1899607
-3.1989024 1.2928424 -2.1908803
-3.1198606 1.3073924 -2.1933634
-2.99897 1.294131 -2.1935992
-2.9181623 1.2979298 -2.1950269
-2.8359823 1.3063122 -2.1969321
-2.7582581 1.3063828 -2.1979458
-2.7132602 1.3018365 -2.1980727
-2.6332183 1.2953171 -2.1984556
-2.5152159 1.3104306 -2.2014997
-2.7254782 1.3426855 -2.2020116
-2.7604637 1.342293 -2.201519
-2.8799694 1.3138868 -2.1971221
-2.921639 1.3095365 -2.196146
-3.0825436 1.3274881 -2.1958623
-3.1225991 1.3396002 -2.1965585
-3.1625304 1.3294466 -2.1950228
-3.2406824 1.3082838 -2.1918879
-3.3606279 1.3050367 -2.1900086
-3.4014902 1.3089176 -2.1898687
-3.4811347 1.3068502 -2.1886296
-3.5622568 1.3021294 -2.1871054
-3.6396434 1.2966199 -2.1855505
-3.6813543 1.2996917 -2.1853185
-3.798672 1.2840284 -2.1822278
-3.8821211 1.2951196 -2.1822593
-3.9436779 1.2929901 -2.1812484
-3.9588919 1.2939281 -2.1811454
-4.0020256 1.2844504 -2.1796362
-4.1220264 1.2910993 -2.1787488
-4.2419715 1.287852 -2.1768694
-4.3219724 1.2922846 -2.1762779
-4.3610826 1.2878882 -2.1753304
-4.4393177 1.2815694 -2.1736832
-4.3584547 1.2754723 -2.174119
-4.2384815 1.2737714 -2.1755023
-4.1993437 1.2732198 -2.1759541
-4.07937 1.2715191 -2.1773374
-3.9994111 1.2745085 -2.1786728
-3.960273 1.2739569 -2.1791246
-3.9194522 1.277498 -2.1800084
-3.839493 1.2804873 -2.1813438
-1.9527011 1.3133585 -2.2090793
-2.0752885 1.3101425 -2.2071691
-2.1535668 1.3155293 -2.2066953
-2.1962721 1.3159575 -2.2061853
-2.2743664 1.3087084 -2.2044466
-2.3427372 1.30742 -2.2034318
-2.3534093 1.3058715 -2.2031384
-2.3942664 1.3024194 -2.2022629
-2.4333761 1.3049748 -2.2020125
-2.3171463 1.3165528 -2.2046793
-2.197196 1.3178978 -2.206368
-2.1772041 1.3181219 -2.2066493
-2.0638537 1.3412582 -2.210438
-1.9949815 1.3612874 -2.2133391
-1.9540739 1.3597956 -2.2137191
-1.8741071 1.360692 -2.2148449
-1.7145731 1.312513 -2.2120788
-1.7526841 1.3057122 -2.2109032
-1.8327007 1.3097596 -2.2102728
-1.9153893 1.3097396 -2.2091997
-4.7991819 1.2767758 -2.1685414
-4.8417687 1.2839861 -2.1687129
-4.9625902 1.2848777 -2.1672375
-5.1781335 1.2739788 -2.1633525
-5.2824411 1.2753937 -2.1621435
-5.3773856 1.2639447 -2.1597652
-5.4573965 1.2656739 -2.1589024
-4.8391409 1.2715702 -2.1675017
-4.8782377 1.2646998 -2.1663063
-4.9990592 1.2655913 -2.1648307
-5.0390177 1.2603855 -2.1637909
-5.1189909 1.2598701 -2.1627035
-5.1589775 1.2596123 -2.1621597
-5.1989498 1.2568805 -2.1613679
-5.2566929 1.2568916 -2.1606212
-5.278923 1.2563651 -2.1602805
-5.3766966 1.2582481 -2.1592028
-5.4570398 1.2615883 -2.1584973
-8.9144688 1.2764956 -2.1152105
-8.9944782 1.2782806 -2.1143532
-9.1141357 1.2806047 -2.1130364
-9.154129 1.28026 -2.1124837
-9.2341385 1.2820448 -2.1116266
-9.2741318 1.2817001 -2.111074
-3.7187126 1.2870179 -2.1835632
-3.6387258 1.2850593 -2.1844029
-3.5196426 1.2899712 -2.1864378
-3.4396973 1.2954346 -2.1880214
-3.4005868 1.2998309 -2.1889689
-6.2399197 -0.83070683 -1.9384993
-6.1967607 -0.63894147 -1.9582925
-6.599102 -0.38247162 -1.9788052
-6.9202886 -0.59340596 -1.9534883
-6.672884 -1.0598752 -1.9099058
-6.4034524 -0.97241753 -1.9221677
-9.3253765 1.3033609 -2.1125827
-9.2682743 1.3079213 -2.1137798
-9.1556816 1.2965189 -2.1140945
-9.0753517 1.2980925 -2.1152928
-8.9545288 1.2835741 -2.1154015
-8.8352585 1.2853146 -2.117121
-8.7556591 1.2900687 -2.1186287
-8.6744652 1.2736154 -2.1180301
-8.7544956 1.2778745 -2.1174207
-8.794467 1.2750555 -2.1166203
-8.8744755 1.2768404 -2.1157629
-8.6737118 1.2679603 -2.1174726
-1.3548219 1.326436 -2.2181349
-1.232949 1.3164846 -2.2187154
-1.152982 1.3173813 -2.219841
-1.1139727 1.3247138 -2.2210817
-1.1958122 1.3301696 -2.2205691
-1.2357957 1.3297213 -2.2200062
-1.5527918 1.3104259 -2.2139649
-1.635555 1.3178219 -2.2136347
-1.5946727 1.3188021 -2.2142627
-1.5556383 1.3236626 -2.2152557
-1.4747224 1.320147 -2.2159512
-1.3947556 1.3210437 -2.217077
-1.4728496 1.3137945 -2.2153382
0 0 0 1 0 0 0 1 0 0 0 1 0 0 0 0 0 580 1 0 0
