ply
format ascii 1.0
comment PCL generated
element vertex 673
property float x
property float y
property float z
element camera 1
property float view_px
property float view_py
property float view_pz
property float x_axisx
property float x_axisy
property float x_axisz
property float y_axisx
property float y_axisy
property float y_axisz
property float z_axisx
property float z_axisy
property float z_axisz
property float focal
property float scalex
property float scaley
property float centerx
property float centery
property int viewportx
property int viewporty
property float k1
property float k2
end_header
0.88316679 0.91170764 2.7463777
0.88934708 0.95276624 2.7457039
0.88803053 0.99375528 2.745213
0.8877449 1.0732405 2.744206
0.88355112 1.1541982 2.7432749
0.88551998 1.1916975 2.7427487
0.87976646 1.2716348 2.7418687
0.87001467 1.3135514 2.7415709
0.84588909 1.3693119 2.7414458
0.81678009 1.3930478 2.7418501
0.80515289 1.3994331 2.7420511
0.7640419 1.4200549 2.7427869
0.68344069 1.4373071 2.7445252
0.6044035 1.4702175 2.7460256
0.46460724 1.468762 2.7494407
0.44505548 1.4681089 2.7499239
0.32311487 1.4839548 2.7526846
0.28341913 1.4684308 2.7538471
0.16484833 1.4534793 2.7569184
0.015260696 1.4640857 2.7604177
0.00026655197 1.4639463 2.7607837
-0.056118488 1.4649315 2.762141
-0.084699154 1.4631573 2.7628582
-0.11539078 1.4636266 2.7635977
-0.14264488 1.463122 2.7642663
-0.15513945 1.463006 2.7645714
-0.19471264 1.4621984 2.7655432
-0.20464993 1.4620433 2.7657866
-0.21917486 1.4614055 2.7661476
-0.28576088 1.4521521 2.7678835
-0.36565351 1.4516679 2.7698307
-0.44575548 1.4515237 2.7717786
-0.60652494 1.3826951 2.7765627
-0.66645718 1.37243 2.7781498
-0.72557449 1.3707613 2.7796073
-0.76595116 1.3712199 2.7805824
-0.88700438 1.3724684 2.7835078
-0.99654675 1.3712989 2.7861841
-0.99883795 1.3709475 2.7862442
-1.0011275 1.3705969 2.7863042
-1.1655006 1.3813384 2.7901609
-1.2471297 1.3812007 2.792146
-1.4454572 1.3925872 2.7968192
-1.7649932 1.4054778 2.8044181
-1.8454525 1.3761475 2.8067472
-1.9658077 1.3663363 2.8097963
-2.0207613 1.3660493 2.8111353
-2.0460129 1.3663625 2.8117447
-2.068244 1.3658375 2.8122916
-2.0851381 1.3647823 2.8127155
-2.1123934 1.3642776 2.8133841
-2.284797 1.3560102 2.8176782
-2.3250034 1.3586705 2.8186212
-2.4053106 1.3638225 2.8205066
-2.4455311 1.3640263 2.8214812
-2.5001714 1.3632294 2.822819
-2.5648611 1.3624725 2.8244002
-2.7450325 1.362052 2.828783
-2.8016412 1.3536865 2.830265
-2.8873248 1.3611618 2.8322515
-2.921629 1.3608632 2.8330889
-2.9481378 1.3622534 2.8337152
-2.9540248 1.3624008 2.8338563
-2.9810433 1.3627882 2.8345077
-3.0817814 1.3839396 2.8366854
-3.161727 1.3784974 2.8386972
-3.2292891 1.3630438 2.8405359
-3.2363689 1.3623307 2.8407168
-3.266741 1.3553784 2.8415434
-3.3066463 1.3377041 2.8427386
-3.3469803 1.3232089 2.8439035
-3.5067391 1.2825049 2.8483043
-3.5467248 1.2823266 2.849278
-3.666708 1.2818339 2.8521993
-3.7467051 1.2815198 2.854147
-3.9065037 1.2607261 2.8582947
-4.0767183 1.319954 2.8616745
-4.1063933 1.3416355 2.862119
-4.2273726 1.4792053 2.8633032
-4.2674365 1.4791543 2.8642774
-4.3052835 1.4754931 2.8652437
-4.3457127 1.4760368 2.8662188
-4.3618731 1.4729822 2.8666506
-4.5569129 1.3977951 2.8723483
-4.5848274 1.3967628 2.8730397
-4.619803 1.3941073 2.8739233
-4.6710372 1.3959233 2.875145
-4.6843667 1.3972267 2.8754523
-4.7843728 1.4026898 2.8778121
-4.8247867 1.4056904 2.8787558
-4.8643551 1.4048326 2.8797281
-4.944315 1.4019763 2.8817072
-4.9859467 1.3995175 2.88275
-5.0658603 1.3866638 2.8848557
-5.1062517 1.3846656 2.8858626
-5.216732 1.3561072 2.888911
-5.2568755 1.3512739 2.8899479
-5.2967844 1.349151 2.8909447
-5.3366537 1.3420293 2.8920043
-5.4564176 1.3243078 2.8951402
-5.5762024 1.3172616 2.8981402
-5.6561561 1.3141599 2.9001224
-5.69628 1.3150028 2.9010863
-5.7361884 1.3128798 2.9020832
-5.8161235 1.3154545 2.9039924
-5.89643 1.3164629 2.9059305
-5.9362211 1.3238709 2.9068029
-6.0773511 1.3424237 2.9099951
-6.157568 1.3819571 2.9114397
-6.2175269 1.3817979 2.9128985
-6.2966924 1.3716143 2.9149518
-6.3366003 1.3694912 2.9159484
-6.4572968 1.363333 2.9189594
-6.4971981 1.3611956 2.9199562
-6.5761948 1.3469263 2.9220574
-6.608717 1.3463005 2.9228556
-6.6513205 1.3446254 2.923912
-6.6613169 1.3445499 2.924156
-6.753787 1.3438535 2.9264114
-6.7762647 1.3438535 2.9269576
-6.8168917 1.3400683 2.9279931
-6.8269019 1.3399003 2.9282384
-6.8870239 1.3383743 2.9297185
-6.897109 1.3375779 2.9299736
-6.9944196 1.3383495 2.932328
-7.0162487 1.3413266 2.9328206
-7.0768228 1.3384681 2.9343286
-7.1211076 1.3417641 2.9353626
-7.1360807 1.3419052 2.9357245
-7.168592 1.3414066 2.9365208
-7.2161207 1.3405406 2.9376864
-7.281055 1.3405594 2.9392638
-7.3060465 1.3403713 2.9398735
-7.4559975 1.3310661 2.9436355
-7.4966326 1.336542 2.9445529
-7.6359649 1.3735206 2.9474664
-7.6834497 1.3732136 2.9486239
-7.7257285 1.3742734 2.9496377
-7.750617 1.3747792 2.9502358
-7.7556086 1.3747886 2.950357
-7.7783155 1.3732669 2.950928
-7.8259039 1.3722928 2.9520967
-7.8358812 1.3723532 2.9523382
-7.8482928 1.3728147 2.9526341
-7.9957123 1.351199 2.9564915
-8.0356302 1.3566066 2.9573922
-8.1957836 1.3699017 2.9611137
-8.3558626 1.4097755 2.9644942
-8.3958559 1.4094753 2.9654698
-8.7554674 1.3671585 2.9747467
-8.7628927 1.367569 2.9749219
-8.835885 1.3532565 2.9768779
-8.9679308 1.3655767 2.979929
-8.9953508 1.3658577 2.9805915
-9.0179157 1.3652536 2.9811475
-9.1157141 1.3411536 2.9838309
-9.1950836 1.3397801 2.9857769
-9.2356949 1.3427509 2.9867258
-9.3152695 1.3401693 2.988692
-9.395381 1.3281205 2.990792
-9.515152 1.3470423 2.9934607
-9.5627384 1.3617316 2.9944293
-9.595645 1.3664464 2.9951687
-9.6280861 1.3667251 2.9959533
-9.6356173 1.3663067 2.9961417
-9.6532545 1.364606 2.9965918
-9.7551441 1.3606963 2.9991174
-9.8073483 1.3621503 3.0003672
-9.8355999 1.3642799 3.0010262
-9.8605099 1.3649771 3.0016227
-9.9154263 1.3652877 3.0029528
-9.9279289 1.3651133 3.0032589
-10.079348 1.396439 3.0065382
-10.236012 1.3587921 3.0108247
-10.261082 1.3581469 3.0114419
-10.288494 1.358475 3.0121038
-10.42417 1.3896397 3.0150025
-10.429146 1.3902913 3.0151153
-10.481611 1.3946661 3.0163341
-10.52378 1.3963863 3.0173366
-10.581318 1.3541124 3.0192738
-10.700981 1.3058572 3.0227969
-10.820081 1.2221295 3.0267584
-10.81996 1.2202891 3.0267792
-10.809546 1.1498249 3.0274251
-10.786432 1.0697145 3.0278854
-10.745813 0.99003834 3.027915
-11.05634 0.59634912 3.0404818
-11.056454 0.59044409 3.0405598
-11.015816 0.52976584 3.0403466
-10.973383 0.11120574 3.0446553
-10.977608 0.096032463 3.0449514
-10.977604 0.088331945 3.0450497
-10.937084 0.016412102 3.0449827
-10.912164 0.01623836 3.0443795
-10.776795 -0.0016533146 3.0413189
-10.568136 -0.1832464 3.0385659
-10.522385 -0.28855857 3.0387976
-10.453848 -0.38705602 3.0383892
-10.428411 -0.45688996 3.038662
-10.410662 -0.49677584 3.0387397
-10.37351 -0.58037537 3.0389035
-10.397861 -0.86204332 3.0430884
-10.410442 -0.93705314 3.0443509
-10.410315 -0.94418734 3.0444388
-10.377363 -1.0164758 3.0445604
-10.356306 -1.0617338 3.0446262
-10.316022 -1.1043453 3.0441909
-10.169815 -1.1484377 3.0412014
-10.129875 -1.1638418 3.0404274
-9.7780399 -1.1192247 3.0313101
-9.7380199 -1.1239595 3.0303981
-9.6579247 -1.1253138 3.0284693
-9.6177635 -1.1188164 3.0274107
-9.5761728 -1.1169417 3.0263765
-9.5378933 -1.1189055 3.0254714
-9.4962177 -1.1220157 3.0244985
-9.456193 -1.1185375 3.0234818
-9.3378201 -1.1219672 3.0206494
-9.2978497 -1.1192038 3.0196431
-9.217823 -1.126174 3.0177877
-9.1762657 -1.1271045 3.0167899
-9.1386013 -1.1329651 3.0159497
-9.1344328 -1.1338092 3.0158591
-9.0979309 -1.1153842 3.0147371
-9.0214539 -1.0920905 3.0125821
-8.856493 -1.0906788 3.0085561
-8.8232117 -1.0860753 3.0076888
-8.6979561 -1.0954348 3.004765
-8.6585245 -1.1099499 3.0039921
-8.6163893 -1.1303862 3.0032291
-8.4183073 -1.1664702 2.9988768
-8.3387012 -1.1264911 2.9964328
-8.2966118 -1.1129807 2.9952378
-8.2167759 -1.1030585 2.9931715
-8.1365471 -1.1104208 2.9913163
-8.0567694 -1.1093519 2.9893644
-8.0165672 -1.1120167 2.9884217
-7.9786067 -1.1098434 2.9874716
-7.9367886 -1.1109477 2.9864697
-7.8166523 -1.1161872 2.9836175
-7.7768021 -1.1147418 2.982631
-7.7367954 -1.11694 2.9816871
-7.6983509 -1.1111425 2.980679
-7.6166587 -1.1140037 2.9787307
-7.5568814 -1.1132288 2.9772685
-7.5169535 -1.1136261 2.9763036
-7.4968743 -1.115133 2.9758348
-7.4567499 -1.1159761 2.9748709
-7.4368229 -1.1166452 2.9743953
-7.3969536 -1.1177361 2.9734404
-7.3169994 -1.1146443 2.9714584
-7.2769933 -1.1168475 2.9705145
-7.2368889 -1.115164 2.9695187
-7.1970191 -1.1162549 2.968564
-7.1170645 -1.1131632 2.9665821
-7.0770779 -1.1128669 2.9656067
-6.9970651 -1.1172732 2.9637189
-6.957078 -1.116977 2.9627435
-6.9170723 -1.1191801 2.9617996
-6.8370981 -1.1185876 2.9598491
-6.797111 -1.1182915 2.9588737
-6.6771502 -1.1174028 2.9559479
-6.6370268 -1.1182187 2.9549835
-6.596981 -1.1172287 2.9539979
-6.5569754 -1.1194319 2.953054
-6.5171056 -1.1205229 2.9520993
-6.4771771 -1.1209203 2.9511342
-6.4372096 -1.1181247 2.9501276
-6.3972034 -1.1203278 2.9491837
-6.3572168 -1.1200315 2.9482083
-6.3172297 -1.1197354 2.9472332
-6.2772818 -1.1144403 2.9461949
-6.1973076 -1.113848 2.9442444
-6.157321 -1.1135517 2.943269
-6.117353 -1.1107562 2.9422624
-6.0773659 -1.1104598 2.941287
-5.9974308 -1.1048687 2.9392736
-5.9574437 -1.1045727 2.9382985
-5.9173985 -1.1035826 2.9373128
-5.8774896 -1.1014806 2.9363163
-5.8374438 -1.1004908 2.9353309
-5.7172689 -1.1025201 2.9324369
-5.6373925 -1.0976225 2.9304338
-5.5174513 -1.0942345 2.9274764
-5.4777174 -1.0860218 2.9264064
-5.3976259 -1.0840421 2.9244351
-5.3175745 -1.0852553 2.9225056
-5.277607 -1.0824596 2.921499
-5.2375417 -1.0839692 2.9205449
-5.1176977 -1.0762759 2.9175351
-5.0378284 -1.0632735 2.9154286
-4.9866424 -1.062253 2.9141719
-4.8666501 -1.0665721 2.9113119
-4.7867503 -1.0536218 2.9092054
-4.7467628 -1.0533953 2.908231
-4.6266432 -1.0858786 2.9057269
-4.5867386 -1.0788249 2.9046674
-4.4266686 -1.0840746 2.9008453
-4.3866591 -1.0945166 2.9000065
-4.2668839 -1.0695139 2.8967774
-4.2269568 -1.0592897 2.8956769
-4.1476636 -0.95203334 2.8923821
-3.6277103 -0.98296386 2.8801441
-3.5874286 -1.0245141 2.8796954
-3.5121522 -1.060238 2.8783221
-3.3521273 -1.0579894 2.8744056
-3.3070664 -1.0702314 2.873467
-3.2669892 -1.0850013 2.8726816
-3.2269797 -1.0954434 2.8718429
-3.1869397 -1.0970449 2.8708904
-3.1070104 -1.1029329 2.8690236
-3.0270734 -1.11699 2.8672609
-2.906991 -1.1224662 2.8644133
-2.8270988 -1.1151859 2.8623793
-2.7869759 -1.1097754 2.8613353
-2.7470334 -1.1020507 2.8602664
-2.7072041 -1.0963391 2.8592257
-2.6273043 -1.0972282 2.857296
-2.5138309 -1.0756325 2.8542635
-2.473834 -1.0779582 2.8533216
-2.4335492 -1.0802402 2.8523717
-2.3551514 -1.0703516 2.8503408
-2.313925 -1.0697657 2.8493319
-2.236007 -1.0734383 2.8474855
-2.1955926 -1.0764598 2.8465421
-2.1141086 -1.0959997 2.8448117
-2.0755019 -1.1059316 2.8440003
-2.0355051 -1.1082574 2.8430583
-1.8757784 -1.1518564 2.8397338
-1.7953897 -1.152205 2.8377852
-1.6756716 -1.1909789 2.8353713
-1.4333937 -1.1882777 2.8294504
-1.3936851 -1.193242 2.8285489
-1.313714 -1.1928947 2.8266015
-1.2737284 -1.1927211 2.8256278
-1.1328592 -1.2093152 2.822417
-1.0753019 -1.2265614 2.8212385
-0.99490213 -1.2294093 2.8193216
-0.87452769 -1.2295841 2.8163991
-0.71500254 -1.228194 2.8125057
-0.67501736 -1.2280205 2.811532
-0.63461399 -1.2285426 2.8105569
-0.59490061 -1.2080694 2.8093309
-0.39527702 -1.1273077 2.8034506
-0.30763149 -1.1369392 2.8014441
-0.28923464 -1.1385044 2.801017
-0.26692867 -1.138026 2.8004689
-0.22652578 -1.1385559 2.799494
-0.12423086 -1.1474699 2.7971225
-0.10717535 -1.145925 2.7966883
-0.067799568 -1.1436023 2.7957022
0.09287405 -1.0910259 2.7911277
0.21265364 -1.0951408 2.78827
0.27568674 -1.0957921 2.786747
0.41136408 -1.0687305 2.7831054
0.49117994 -1.0785563 2.7812915
0.5718565 -1.0590203 2.7790821
0.65274286 -1.0138776 2.776541
0.69250441 -0.97368914 2.7750623
0.76806116 -0.81518584 2.7712045
0.80908537 -0.77789128 2.769732
0.82122707 -0.7380634 2.768929
0.82047462 -0.6971401 2.7684252
0.83426857 -0.61606759 2.7670557
0.82368088 -0.53715175 2.7663062
0.81543112 -0.49631146 2.7659857
0.81157064 -0.45353583 2.7655339
0.79612827 -0.41371861 2.7654011
0.76569176 -0.37406731 2.7656348
0.66719055 -0.25613654 2.7665234
0.57533693 0.19135121 2.7630465
0.81504726 0.35214487 2.7551713
0.85271502 0.43147969 2.7532439
0.86936092 0.47213265 2.752321
0.8719511 0.51164925 2.7517538
0.87610197 0.55218607 2.7511358
0.88034391 0.63221633 2.7500119
0.87996626 0.67220825 2.7495108
0.88124037 0.75271386 2.7484529
0.88180113 0.79170871 2.7479417
0.88251448 0.83321947 2.7473948
0.88213682 0.87321138 2.7468939
-1.2798629 -0.28941664 2.8142533
-1.269423 -0.29011241 2.8140085
-1.2393222 -0.31497613 2.8135943
-1.2390726 -0.33027688 2.8137836
-1.278583 -0.33831781 2.814846
-1.3970864 -0.88987952 2.8247616
-1.0743182 -1.1035526 2.8196454
-0.99475288 -1.1050513 2.8177314
-0.9143641 -1.105342 2.8157821
-0.87425184 -1.1060057 2.814816
-0.83522749 -1.1036956 2.8138385
-0.75363302 -1.0959256 2.8117568
-0.71434212 -1.097813 2.8108263
-0.63439369 -1.092467 2.8088157
-0.59373617 -1.0852178 2.8077354
-0.47503138 -1.0827482 2.8048198
-0.43423414 -1.078863 2.8037791
-0.35386848 -1.0741549 2.8017664
-0.27346849 -1.0769449 2.7998486
-0.15366077 -1.0439197 2.7965164
-0.067903996 -1.0178279 2.7941
-0.028031349 -1.0055791 2.7929752
0.0076265335 -0.41979972 2.784636
-0.04058218 -0.38582402 2.7853737
-0.078820229 -0.34531578 2.7857862
-0.08737421 -0.30353552 2.7854609
-0.077489853 -0.29342902 2.7850919
0.13131285 0.057836398 2.7755377
0.11786556 0.14266253 2.7747822
0.10497904 0.17750953 2.7746508
0.089691162 0.26692584 2.7738814
0.13462305 0.32183397 2.7720895
0.17505217 0.32420623 2.7710769
0.21503592 0.3245776 2.7701006
0.25501919 0.32494897 2.7691245
0.33442354 0.33618823 2.7670519
0.49555302 0.35867342 2.7628503
0.79013968 0.69344831 2.7514224
0.79287434 0.73283565 2.7508533
0.79219246 0.81343269 2.7498417
0.7949276 0.85281998 2.7492728
0.80097294 0.93467045 2.7480819
0.79433298 1.0127873 2.7472465
0.79841328 1.0540237 2.7466214
0.79941893 1.0921754 2.7461102
0.52512836 1.3923724 2.7489448
0.44438696 1.3933146 2.7508945
0.40518904 1.3869468 2.7519281
0.36556959 1.3911902 2.7528365
0.28482723 1.3921325 2.7547863
0.20555067 1.4106174 2.7564764
0.13096189 1.4097375 2.7582998
0.11846638 1.409693 2.758604
0.085573673 1.4151899 2.7593331
0.0059680939 1.4192911 2.7612147
-0.075122356 1.4108489 2.7632928
-0.15423155 1.3843429 2.7655528
-0.24562168 1.3851011 2.7677636
-0.27380514 1.3833029 2.7684712
-0.36512995 1.3714319 2.7708416
-0.48582649 1.3572172 2.7739553
-0.56536913 1.3536814 2.775933
-0.60657167 1.3480437 2.7770059
-0.68642855 1.3226928 2.7792695
-0.8078351 1.3220363 2.7822275
-0.89452648 1.3327841 2.7841966
-1.007323 1.3154663 2.7871583
-1.0864599 1.3137504 2.7891028
-1.1268854 1.3192505 2.7900147
-1.2076914 1.320253 2.7919652
-1.2876396 1.3148974 2.7939758
-1.3272197 1.3165389 2.7949166
-1.3661726 1.3171616 2.795855
-1.405741 1.3163035 2.7968273
-1.7247932 1.0898139 2.8074684
-1.8461416 1.029967 2.8111801
-2.005048 0.80926269 2.8178566
-2.0818419 0.65240681 2.8217232
-2.0993252 0.6051802 2.8227506
-2.0820565 0.51879764 2.8234329
-2.0809093 0.49460447 2.8237138
-2.4364362 0.18634498 2.8362839
-2.8226714 0.52685553 2.8413241
-2.4788332 0.16221893 2.8376219
-2.4812369 0.14615414 2.8378851
-2.4787109 0.1064162 2.8383307
-2.4784658 0.082237713 2.8386333
-2.7827981 -0.25128919 2.8502822
-2.8227587 -0.25648144 2.8513193
-2.942944 -0.2892867 2.8546576
-3.2863073 0.083745286 2.8582413
-3.2943559 0.20368367 2.8569067
-7.3364277 1.2975777 2.9411576
-7.2958727 1.2934251 2.9402251
-7.256649 1.2937632 2.9392679
-7.2558856 1.2937263 2.93925
-7.2016821 1.2965779 2.9378965
-7.1859484 1.299252 2.9374802
-7.0564709 1.2916836 2.9344311
-7.0164833 1.2919127 2.9334564
-6.9766521 1.2934592 2.9324691
-6.9352894 1.2973772 2.9314141
-6.8967381 1.3039154 2.9303942
-6.7769628 1.3109189 2.9273946
-6.7369041 1.3117393 2.9264109
-6.6958742 1.3138274 2.9253874
-6.617074 1.3218335 2.9233708
-6.5768046 1.3244272 2.9223592
-6.4960575 1.3303295 2.9203222
-6.3765087 1.3428413 2.917258
-6.3020687 1.342908 2.9154487
-6.2169337 1.3289893 2.9135578
-6.1370144 1.326357 2.9116497
-6.0968957 1.3171794 2.9107919
-6.0569086 1.3174086 2.9098175
-6.0169764 1.3145471 2.9088838
-5.9769182 1.3153675 2.9079001
-5.9369311 1.3155965 2.9069257
-5.8969135 1.3108267 2.9060142
-5.8568959 1.3060569 2.905103
-5.8171606 1.2989224 2.9042284
-5.7771177 1.3022423 2.9032133
-5.7363644 1.3026714 2.9022176
-5.6971278 1.3002012 2.9012959
-5.6571808 1.2948402 2.9003937
-5.5771809 1.3033881 2.8983409
-5.5372491 1.3005267 2.8974073
-5.4172869 1.3012141 2.894484
-5.3373685 1.3064498 2.8924754
-5.1202583 1.2282279 2.8881984
-5.1118579 1.2285682 2.88799
-5.0893655 1.2286972 2.8874419
-5.0237675 1.2717776 2.8852985
-4.5847979 1.0295681 2.8777232
-4.4972353 0.67055601 2.8801758
-4.476368 0.528889 2.8814762
-4.476265 0.51139325 2.8816967
-4.468101 0.39077717 2.8830371
-4.4451385 0.31092152 2.883498
-4.8232789 -0.075959466 2.8976207
-4.9436255 -0.10118137 2.9008665
-5.1040497 -0.084185205 2.9045472
-5.214705 -0.050315648 2.9068036
-5.2494826 -0.08302778 2.9080658
-5.2991104 -0.12313793 2.9097834
-5.3136835 -0.20341498 2.9111614
-5.310925 -0.24339505 2.9116044
-5.3054075 -0.32335511 2.9124906
-5.292253 -0.40299064 2.9131868
-5.2921171 -0.43057224 2.9135354
-5.2918735 -0.48325992 2.9142015
-5.2785025 -0.60297561 2.9154041
-5.2724657 -0.76292658 2.9172978
-5.5678115 -1.0518413 2.9281592
-5.6479311 -1.060221 2.9302127
-5.7274199 -1.0749381 2.9323316
-5.8073945 -1.0754312 2.9342811
-5.8473973 -1.0731782 2.9352243
-5.8874979 -1.0711188 2.9361722
-5.9278903 -1.0696403 2.9371347
-5.9673433 -1.076418 2.9381797
-6.0073137 -1.0791643 2.9391859
-6.0472846 -1.0819107 2.940192
-6.087256 -1.0846571 2.9411981
-6.1277452 -1.0833721 2.9421656
-6.1672297 -1.0851504 2.9431474
-6.2072172 -1.085397 2.9441223
-6.2871914 -1.0858903 2.9460716
-6.3271627 -1.0886368 2.9470778
-6.3396583 -1.0887138 2.9473822
-6.3921418 -1.0890374 2.9486616
-6.4071369 -1.0891299 2.9490271
-6.447124 -1.0893766 2.9500017
-6.4870949 -1.0921229 2.9510078
-6.527082 -1.0923696 2.9519825
-6.5671825 -1.0903102 2.9529305
-6.6071863 -1.0880572 2.9538736
-6.6871767 -1.0860506 2.9557915
-6.7270665 -1.0861038 2.9567614
-6.7670374 -1.0888501 2.9577675
-6.8071222 -1.0892904 2.9587471
-6.8470283 -1.0868436 2.9596853
-6.8870153 -1.0870903 2.9606602
-6.9273911 -1.0881115 2.9616542
-6.96699 -1.0875837 2.9626095
-7.0070744 -1.0880238 2.963589
-7.0469799 -1.0855772 2.9645274
-7.0869837 -1.0833242 2.9654706
-7.1269546 -1.0860704 2.9664767
-7.1669579 -1.0838174 2.9674199
-7.4616756 -0.73584574 2.9701412
-7.4617105 -0.71523303 2.9698789
-7.455142 -0.65659177 2.9689713
-7.4017506 -0.46513069 2.9652317
-7.4191294 -0.48025638 2.9658468
-7.5700889 -0.64460862 2.9716113
-7.6219368 -0.67629796 2.9732752
-7.9400535 -0.67152596 2.9809432
-8.0865431 -0.68313169 2.9846504
-8.1401634 -0.67506462 2.9858503
-8.1861992 -0.6819402 2.9870565
-8.3413048 -0.67608213 2.9907501
-8.6480637 -0.48872405 2.9958129
-8.6633186 -0.45133141 2.9957066
-8.7568855 -0.24763559 2.9953814
-8.7851 -0.12718809 2.9945302
-8.7855062 -0.085353315 2.9940064
-8.8656187 -0.081499644 2.9959037
-8.9055195 -0.07864704 2.9968367
-8.9454889 -0.08141049 2.997843
-9.0254803 -0.079439081 2.9997613
-9.105298 -0.086848259 3.0017951
-9.1852722 -0.087376282 3.0037448
-9.2253799 -0.085758045 3.0046988
-9.3054581 -0.086903259 3.0066588
-9.3453722 -0.091934718 3.0076928
-9.4253159 -0.087078124 3.0095732
-9.4655628 -0.081078179 3.0104744
-9.5055151 -0.086341068 3.0115123
-9.585247 -0.090633631 3.0135043
-9.6655321 -0.077399373 3.015286
-9.7053986 -0.079545647 3.0162818
-9.8244104 -0.053341359 3.0188391
-9.9247236 -0.0034344532 3.0206397
-10.455296 -0.1596086 3.0355227
-10.565136 0.055459864 3.0354476
-10.564892 0.23087212 3.0332041
-10.55521 0.2709375 3.0324578
-10.53056 0.43390146 3.0297799
-10.605713 0.65616715 3.0287702
-10.6059 0.66909504 3.02861
-10.608691 0.70975512 3.0281591
-10.613983 0.75039625 3.0277691
-10.609594 0.83110285 3.026633
-10.620223 0.91100633 3.0258718
-10.628081 0.94956034 3.0255709
-10.633441 0.98813313 3.025209
-10.300669 1.3084112 3.0130382
-10.250978 1.3145009 3.0117533
-10.131261 1.3421277 3.0084922
-10.05131 1.3420444 3.0065508
-10.011219 1.3362283 3.005651
-9.8426437 1.3257619 3.0016887
-9.6764202 1.2048613 2.9991925
-9.4751854 1.3103855 2.9929571
-9.3551846 1.3144307 2.98999
-9.2749043 1.3167685 2.9880097
-9.1552114 1.3109356 2.9851761
-9.1146097 1.3148055 2.9841404
-9.0746403 1.3175634 2.983134
-9.0352898 1.3168366 2.9821873
-8.9147091 1.3210968 2.9792032
-8.8347511 1.3241131 2.9772222
-8.675211 1.2945491 2.9737232
-8.6202297 1.2949626 2.9723821
-8.5153265 1.2950681 2.9698319
-8.4750481 1.2887579 2.9689338
-8.4351444 1.2858707 2.9680011
-8.3553162 1.296955 2.9659204
-8.2747116 1.2952398 2.9639838
-8.2278585 1.2979137 2.9628115
-8.1728764 1.2983272 2.9614704
-8.07512 1.3151929 2.9588799
-7.9952836 1.3200413 2.9568784
-7.9149981 1.3225602 2.9548957
-7.7550325 1.3210948 2.9510279
-7.6750774 1.3084475 2.9492466
-7.5950689 1.3039657 2.94736
-7.5763817 1.3012018 2.9469411
-7.5155725 1.3007711 2.9454694
-7.4875526 1.2971623 2.9448347
-7.4563589 1.2918913 2.944144
-7.4164424 1.2915294 2.9431787
-1.2886367 -0.32586497 2.8149314
-1.59606 -0.64674222 2.826494
-1.9177327 -0.33505425 2.8303332
-1.9549603 -0.17144533 2.8291504
-1.9207053 -0.011325363 2.8262756
-1.9187222 0.064910762 2.8252549
-1.9170082 0.087354578 2.8249269
-2.0427687 0.40599927 2.8239174
-2.001493 0.52563375 2.8213882
-2.0020938 0.56630391 2.8208842
-2.2469809 1.3324323 2.8170602
-2.4871056 1.2870524 2.8234732
-2.5868173 1.2316198 2.8266029
-2.7447946 1.1652476 2.8312879
-2.8872576 0.80537087 2.8393402
-2.8198402 0.64329809 2.8397698
-1.9409657 1.0888495 2.8127327
0 0 0 1 0 0 0 1 0 0 0 1 0 0 0 0 0 673 1 0 0
