ply
format ascii 1.0
comment PCL generated
element vertex 344
property float x
property float y
property float z
element camera 1
property float view_px
property float view_py
property float view_pz
property float x_axisx
property float x_axisy
property float x_axisz
property float y_axisx
property float y_axisy
property float y_axisz
property float z_axisx
property float z_axisy
property float z_axisz
property float focal
property float scalex
property float scaley
property float centerx
property float centery
property int viewportx
property int viewporty
property float k1
property float k2
end_header
-10.625355 1.3340176 -4.9030547
-10.780944 1.3580052 -4.8883028
-10.789082 1.3579845 -4.8875351
-10.981302 1.3569298 -4.8694067
-10.984579 1.3570328 -4.8690972
-10.995441 1.3569134 -4.868073
-11.104799 1.3238937 -4.8578625
-11.181391 1.3033557 -4.8507028
-11.303265 1.2902648 -4.8392482
-11.382655 1.2773135 -4.8318009
-11.50161 1.2328868 -4.8207211
-11.461682 1.1943635 -4.8246093
-11.40044 0.8747099 -4.8313999
-11.699015 0.59308726 -4.8041296
-11.778374 0.11052028 -4.7981739
-11.617413 0.071902618 -4.8134794
-11.465313 -0.28680325 -4.8289642
-11.49445 -0.3670553 -4.8264704
-11.371659 -0.46849972 -4.8383746
-11.273739 -0.56515729 -4.8479176
-11.000113 -0.84280241 -4.8746085
-10.947472 -0.88235188 -4.8796992
-10.881718 -0.921772 -4.8860269
-10.838667 -0.96141863 -4.8902135
-10.732307 -1.080513 -4.9006238
-10.685196 -1.0801196 -4.9050665
-10.656212 -1.0798782 -4.9077997
-10.648243 -1.0798087 -4.9085512
-10.567233 -1.079111 -4.9161901
-10.482062 -1.078369 -4.924222
-10.442684 -1.078032 -4.9279351
-10.248431 -1.1138777 -4.946372
-10.165693 -1.1756644 -4.9543724
-10.088096 -1.2154201 -4.9618182
-9.7994881 -1.2132663 -4.9890347
-9.7858124 -1.2129304 -4.990324
-9.7048388 -1.2127107 -4.997961
-9.6681852 -1.2139479 -5.0014224
-9.5854511 -1.2111001 -5.0092177
-9.5490141 -1.2126961 -5.0126595
-9.5064554 -1.2176877 -5.0166898
-9.46945 -1.2243601 -5.0202017
-9.428297 -1.2091749 -5.0240355
-9.3933983 -1.1581234 -5.0271654
-8.9735527 -0.88415551 -5.0658994
-8.7062035 -1.0828804 -5.0917478
-8.6723537 -1.1614811 -5.09519
-8.593255 -1.1605955 -5.1026483
-8.5507421 -1.1605878 -5.1066585
-8.4684839 -1.1626625 -5.1144242
-8.4176321 -1.1613836 -5.1192169
-8.3521013 -1.1610011 -5.1253972
-8.2723284 -1.1577179 -5.1329112
-8.0703354 -1.2559786 -5.1522765
-7.9940972 -1.2097396 -5.1593208
-7.9522486 -1.1946567 -5.1632209
-7.9920568 -1.1301582 -5.1592612
-8.05056 -0.91665351 -5.1530657
-8.0537901 -0.83668864 -5.1525073
-7.5360188 -0.57391083 -5.2005138
-7.2245998 -0.77091455 -5.230514
-7.2033424 -0.77071381 -5.2325182
-7.182086 -0.770513 -5.2345228
-7.1608295 -0.77031225 -5.2365274
-7.1030383 -0.60973501 -5.2414694
-7.146163 -0.5301494 -5.2371492
-7.0528164 -0.16922034 -5.2448096
-6.6323709 -0.22515614 -5.2846465
-6.5462284 -0.34434682 -5.2931499
-6.472012 -0.38110703 -5.3002672
-6.4266853 -0.38318908 -5.3045492
-6.3841724 -0.38278753 -5.308558
-6.3500514 -0.37993509 -5.3117676
-6.1160941 -0.44016868 -5.3340273
-6.2140732 -0.98618257 -5.3265166
-6.2617249 -1.0341144 -5.3221736
-6.2625041 -1.081619 -5.3222508
-6.2257652 -1.081256 -5.3257151
-6.2069702 -1.0810745 -5.3274875
-6.144856 -1.0854723 -5.3333607
-6.0597825 -1.089669 -5.3413987
-6.0201054 -1.0842841 -5.3451242
-5.9010735 -0.7681284 -5.3553495
-5.6585121 -0.6757921 -5.3779368
-5.6412239 -0.67560494 -5.3795671
-5.5843072 -0.6550523 -5.3848705
-5.5106955 -0.62681592 -5.3917246
-4.9542055 -0.62633133 -5.4442153
-4.9355597 -0.62667269 -5.4459748
-4.5122271 -0.74333459 -5.4862766
-4.1879983 -0.78085625 -5.5169792
-3.8754668 -0.61771661 -5.5459423
-3.8744605 -0.33746988 -5.5451484
-4.115941 0.10076278 -5.5209804
-4.4746399 -0.023192734 -5.4875383
-4.5086188 -0.56080794 -5.4860382
-4.4910822 -0.58317947 -5.4877634
-0.050846577 -0.090501055 -5.9050355
-0.013308525 -0.21555449 -5.9089732
0.026527405 -0.28299934 -5.9129448
0.026572704 -0.32049888 -5.9130678
0.025407791 -0.33555341 -5.9130058
0.024291515 -0.39060742 -5.913075
0.024495602 -0.55810577 -5.9136252
0.026981831 -0.65549564 -5.9141688
0.029632568 -0.69559759 -5.914546
0.037183762 -0.77558661 -5.9155121
0.019840717 -0.81561005 -5.9140029
0.0074663162 -0.8556267 -5.9129624
-0.0073914528 -0.89564681 -5.9116879
-0.042293072 -0.89558864 -5.9083958
-0.20793867 -0.93566978 -5.8928981
-0.36626005 -1.0158598 -5.8782182
-0.45904684 -1.2100652 -5.8700819
-0.49145174 -1.2463076 -5.8671398
-0.53178358 -1.2563893 -5.8633676
-0.65769577 -1.2290754 -5.8514042
-0.77688837 -1.2399819 -5.8401957
-0.85917568 -1.2333988 -5.8324127
-0.93593216 -1.2386909 -5.8251896
-1.0575471 -1.232361 -5.8136978
-1.1735244 -1.1953592 -5.8026404
-1.3359733 -1.2169777 -5.7873859
-1.4575305 -1.2181473 -5.7759233
-1.5371947 -1.198753 -5.7683473
-1.6566725 -1.1721612 -5.7569928
-1.7362604 -1.1627662 -5.7494559
-1.776093 -1.1530691 -5.7456679
-1.8557763 -1.1311749 -5.7380819
-1.9745488 -1.1220164 -5.7268496
-2.0546713 -1.117687 -5.7192783
-2.1364722 -1.1185544 -5.711565
-2.2138481 -1.0988971 -5.7042041
-2.2926164 -1.0844039 -5.6967278
-2.3282614 -1.084767 -5.693367
-2.3765178 -1.0853794 -5.688817
-2.4549015 -1.0709751 -5.6813774
-2.5322585 -1.0538177 -5.674026
-2.6240554 -1.0472611 -5.6653466
-2.6554458 -1.0476686 -5.6623869
-2.8128216 -1.0586963 -5.6475768
-2.8249738 -1.0600262 -5.6464348
-2.8548472 -1.0617613 -5.6436224
-2.8673661 -1.0493563 -5.6424022
-3.2102509 -0.89260769 -5.6095619
-3.2255735 -0.89313817 -5.6081181
-3.2660472 -0.89349413 -5.6043015
-3.2778513 -0.89334154 -5.6031876
-3.5016234 -0.83497989 -5.5818949
-3.5816753 -0.85581994 -5.57441
-3.6236293 -0.86111212 -5.5704694
-3.7001357 -0.83643317 -5.5631742
-3.7573564 -0.81685209 -5.5577145
-0.053234577 -0.073110417 -5.9047551
-0.052909374 0.024409115 -5.9044766
-0.053402424 0.06438823 -5.9043036
-0.055818558 0.10427865 -5.9039488
-0.11582851 0.22440727 -5.8979073
-0.13375711 0.33632627 -5.8958611
-0.12913656 0.41634595 -5.8960433
-0.12185812 0.45637763 -5.8966031
-0.053236485 0.69647998 -5.9023142
0.055404663 0.85195708 -5.9120693
0.060351849 0.85697877 -5.9125199
0.085021496 0.8970871 -5.9147196
0.089816093 0.9371078 -5.9150448
0.054869652 0.97445363 -5.9116302
-0.18497562 1.2560927 -5.888113
-0.19011879 1.2960697 -5.8875012
-0.21545935 1.3390507 -5.8849745
-0.22023201 1.3411344 -5.8845177
-0.25766802 1.356167 -5.880939
-0.30212021 1.3755882 -5.8766842
-0.38426304 1.4000162 -5.8688583
-0.44128513 1.4090102 -5.863451
-0.50352812 1.4019911 -5.8576021
-0.5161643 1.4014733 -5.8564119
-0.5980401 1.4105988 -5.84866
-0.67984104 1.4097246 -5.8409467
-0.81397152 1.428459 -5.8282351
-0.84044647 1.4283592 -5.825738
-0.91368389 1.4282446 -5.81883
-0.91872501 1.4281986 -5.8183546
-0.9928751 1.4271201 -5.8113637
-1.0010443 1.4269772 -5.8105936
-1.0389414 1.4269062 -5.8070192
-1.050221 1.4269527 -5.8059549
-1.1591291 1.3958758 -5.7957807
-1.3178072 1.4247537 -5.7807217
-1.3308034 1.4245909 -5.7794962
-1.4275126 1.4236053 -5.7703772
-1.4422784 1.4235113 -5.7689843
-1.5596209 1.3825349 -5.7580457
-1.6383805 1.3770273 -5.7506342
-1.7973309 1.3658376 -5.7356763
-1.8370304 1.3580406 -5.731956
-1.9119101 1.3505037 -5.7249169
-2.0356998 1.3415536 -5.7132688
-2.1573877 1.3578812 -5.7017384
-2.2742372 1.3397683 -5.6907735
-2.3117242 1.3422496 -5.6872296
-2.3561134 1.3488939 -5.6830215
-2.4731121 1.35078 -5.6719794
-2.5549879 1.3599054 -5.6642275
-2.6765146 1.3737503 -5.6527205
-2.7514997 1.3611965 -5.6456871
-2.7889299 1.3561779 -5.6421723
-2.8729446 1.3450258 -5.6342826
-2.9150081 1.3469491 -5.6303086
-2.9523821 1.3344312 -5.6268229
-2.9750116 1.3284705 -5.6247072
-3.1115348 1.3280132 -5.6118312
-3.1404474 1.3283439 -5.6091027
-3.1851106 1.3231945 -5.6049061
-3.3042753 1.3277953 -5.5936513
-3.3090191 1.3274319 -5.593205
-3.4233971 1.3198965 -5.5824399
-3.4631383 1.3272631 -5.5786676
-3.5445771 1.3268434 -5.5709872
-3.5524993 1.3269639 -5.5702395
-3.6278832 1.3387835 -5.5630913
-3.7818758 1.3657674 -5.54848
-3.7972069 1.3655024 -5.5470347
-3.8680968 1.3653449 -5.5403485
-3.8840852 1.3652114 -5.5388408
-3.9852748 1.3225868 -5.5294309
-4.1073074 1.3119644 -5.5179534
-4.2293401 1.3013419 -5.5064764
-4.3058953 1.3137991 -5.4992156
-4.4279528 1.3106766 -5.4877119
-4.5897532 1.3149207 -5.4724364
-4.6294608 1.3122878 -5.4686995
-4.7059813 1.3147453 -5.4614735
-4.7486248 1.3168886 -5.4574442
-4.7883406 1.3167557 -5.4536986
-4.9074798 1.3138565 -5.4424696
-4.9869199 1.3160905 -5.4349689
-5.0266275 1.3134575 -5.431232
-5.0692625 1.3131008 -5.4272118
-5.1854734 1.3079256 -5.416266
-5.2914252 1.3001914 -5.4062967
-5.3075237 1.302303 -5.4047713
-5.344337 1.3073934 -5.4012828
-5.4928112 1.2956778 -5.3873148
-5.6491799 1.3040848 -5.3725381
-5.6915236 1.3036741 -5.3685455
-5.7272291 1.3032889 -5.3651786
-5.7324696 1.3032688 -5.3646841
-5.8135843 1.312461 -5.3570037
-5.8883553 1.3417082 -5.3498583
-5.8929715 1.3416595 -5.3494229
-5.9672737 1.3508779 -5.3423848
-6.052165 1.3350559 -5.3344274
-6.1685147 1.3313652 -5.3234644
-6.2507076 1.3255534 -5.3157296
-6.3302503 1.3347517 -5.3081975
-6.4464316 1.3135617 -5.2973056
-6.5287452 1.3202493 -5.2895203
-6.6478419 1.3115479 -5.2783136
-6.7669868 1.3078463 -5.2670865
-6.8095298 1.3099347 -5.2630672
-6.9286985 1.3087329 -5.2518301
-7.0080967 1.302932 -5.244359
-7.0876393 1.3121303 -5.2368269
-7.1670613 1.3088292 -5.2293458
-7.2067847 1.3084286 -5.2256002
-7.286231 1.3076274 -5.2181087
-7.3656282 1.3018265 -5.2106376
-7.445075 1.3010253 -5.2031465
-7.5273647 1.3052131 -5.1953707
-7.5670633 1.3023126 -5.1916351
-7.7260761 1.3132094 -5.1766014
-7.7685461 1.3077984 -5.1726127
-7.8082695 1.3073977 -5.1688671
-7.8983393 1.2908489 -5.1604233
-8.062912 1.3043144 -5.1448569
-8.2189531 1.2926552 -5.1301751
-8.2615147 1.2997924 -5.1261377
-8.3012161 1.2968882 -5.1224022
-8.4175797 1.2906333 -5.1114454
-8.5385036 1.3094425 -5.0999794
-8.5793896 1.3040568 -5.0961399
-8.6615305 1.2957903 -5.088418
-8.6985168 1.2978438 -5.0849228
-8.7807789 1.3020768 -5.0771499
-8.820529 1.3041722 -5.0733938
-8.8999071 1.2958637 -5.0659323
-8.9766188 1.2975129 -5.058691
-9.0559969 1.2892045 -5.05123
-9.1392403 1.3034294 -5.0433331
-9.2177095 1.2926286 -5.0359654
-9.2972326 1.2993195 -5.0284429
-9.3794708 1.3010525 -5.02068
-9.4192686 1.3081475 -5.0169034
-9.5384445 1.3069345 -5.0056658
-9.5754309 1.3089879 -5.0021706
-9.660408 1.3082631 -4.9941573
-9.724865 1.2976065 -4.988111
-9.7692757 1.2970842 -4.9839234
-9.7781048 1.2970295 -4.9830909
-9.816473 1.2991039 -4.979465
-9.8952093 1.2957847 -4.9720488
-9.9383402 1.290433 -4.9679971
-9.9725389 1.2899446 -4.9647732
-10.015076 1.294582 -4.9607458
-10.103257 1.3117816 -4.9523735
-10.185484 1.3139166 -4.9446106
-10.221973 1.3210875 -4.9411459
-10.223352 1.3211308 -4.9410157
-10.242353 1.3209908 -4.9392238
-10.344456 1.3255125 -4.9295783
-10.423909 1.3250607 -4.9220853
-10.466408 1.3274214 -4.9180689
-10.50611 1.3221956 -4.9143405
-1.6821108 -0.43985271 -5.7522712
-1.5871692 -0.079313949 -5.7600832
-1.5902929 0.34245381 -5.758451
-1.6296787 0.38209352 -5.7546101
-1.6513987 0.46193087 -5.7523084
-1.67172 0.50176245 -5.7502651
-1.6322703 0.56207389 -5.7537947
-1.8746505 1.0727592 -5.7293124
-1.993938 1.0743665 -5.7180552
-2.0336752 1.0715691 -5.7143159
-2.3831253 0.73712498 -5.6824136
-2.3873882 0.65653682 -5.6822672
-2.4002132 0.57632643 -5.6813121
-2.3971286 0.49634963 -5.6818566
-2.3891783 0.45614737 -5.682734
-2.387434 0.37629139 -5.6831517
-2.384131 0.33665973 -5.683589
-2.3879786 0.29615653 -5.6833544
-2.3802137 0.17700012 -5.6844649
-2.3966117 0.11422575 -5.6831169
-2.4060326 -0.0053553879 -5.6826077
-2.4106984 -0.045390934 -5.6822944
-2.421968 -0.16571726 -5.681613
-2.4061956 -0.28560275 -5.6834812
-2.4009218 -0.32556272 -5.6841054
-2.4031034 -0.36557949 -5.6840262
-2.4052849 -0.40559614 -5.6839476
-2.399404 -0.52555174 -5.6848826
-2.0586104 -0.90046179 -5.7182178
-1.702651 -0.56017792 -5.7507153
0 0 0 1 0 0 0 1 0 0 0 1 0 0 0 0 0 344 1 0 0
