ply
format ascii 1.0
comment PCL generated
element vertex 615
property float x
property float y
property float z
element camera 1
property float view_px
property float view_py
property float view_pz
property float x_axisx
property float x_axisy
property float x_axisz
property float y_axisx
property float y_axisy
property float y_axisz
property float z_axisx
property float z_axisy
property float z_axisz
property float focal
property float scalex
property float scaley
property float centerx
property float centery
property int viewportx
property int viewporty
property float k1
property float k2
end_header
-0.42159843 -1.245735 -4.0209827
-0.40230703 -1.2433263 -4.0239115
-0.033465862 -1.1248224 -4.0733662
-0.0040345192 -1.127534 -4.0784116
0.022948265 -1.1302885 -4.0830612
0.04258728 -1.13317 -4.0865245
0.081487179 -1.1163825 -4.0913529
0.14637995 -0.92135143 -4.084322
0.14894867 -0.91022944 -4.0837364
0.15485001 -0.82697082 -4.077179
0.15252209 -0.80554628 -4.0748644
0.15012455 -0.75137925 -4.069581
0.15041828 -0.7116667 -4.0660419
0.14752674 -0.43054217 -4.0401793
0.18728495 -0.35043731 -4.0394287
0.18757915 -0.31072474 -4.0358896
0.18787241 -0.27101219 -4.032351
0.18875456 -0.1518745 -4.0217342
0.1745615 -0.095782101 -4.0143533
0.1672678 -0.031312346 -4.0073404
0.18586302 0.12925005 -3.9958715
0.19110727 0.16582602 -3.9934235
0.19169521 0.24525115 -3.9863458
0.18489695 0.27117577 -3.9828954
0.1805048 0.39339015 -3.9711406
0.19059896 0.46668801 -3.9661667
0.19076204 0.5064038 -3.9626062
0.19092607 0.54611969 -3.9590459
0.18099594 0.51253748 -3.9604595
0.17580032 0.44088218 -3.966084
0.17076349 0.40671548 -3.9683483
0.1606698 0.33341756 -3.9733224
0.15564823 0.30396017 -3.9751639
0.13822222 0.23367932 -3.9786694
0.15164328 0.12543371 -3.9906349
0.14831305 0.0062535107 -4.0008564
0.14772511 -0.073171601 -4.0079341
0.067969322 -0.27631548 -4.0132737
0.062430859 -0.35260403 -4.0192609
0.059689045 -0.39235905 -4.0224042
0.058806419 -0.51149678 -4.0330205
0.058914185 -0.51793987 -4.0336204
0.058674335 -0.56087399 -4.0374589
0.035705566 -0.67717242 -4.0442166
0.025672913 -0.72027653 -4.0464735
0.027826786 -0.75994658 -4.0504079
0.029981136 -0.79961669 -4.0543423
-0.38611794 -1.0949761 -4.0131531
-0.46447611 -1.0988176 -4.00072
-0.6539197 -1.1219202 -3.9719081
-0.73224068 -1.1161127 -3.9586093
-0.84491873 -1.1269881 -3.9412138
-0.92811108 -1.1152345 -3.9265835
-1.0113149 -1.1059611 -3.9121754
-1.163136 -1.1102124 -3.8877974
-1.2511983 -1.0925128 -3.8718357
-1.3590307 -1.1142948 -3.8562155
-1.4373646 -1.1109673 -3.8431387
-1.5989385 -1.1058069 -3.8163199
-1.7653584 -1.0897402 -3.7877254
-1.9269323 -1.0845798 -3.7609067
-2.0444574 -1.084549 -3.7417355
-2.1130745 -1.0980737 -3.7317657
-2.2305627 -1.0906025 -3.7119284
-2.3505187 -1.0859671 -3.6919451
-2.4313524 -1.0936991 -3.6794593
-2.4735706 -1.0898691 -3.6722276
-2.5096982 -1.0928519 -3.6666045
-2.5500975 -1.0928018 -3.6600108
-2.5962954 -1.088636 -3.6520996
-2.8018436 -0.63945621 -3.5780048
-2.6793938 -0.37013379 -3.5736513
-2.6807251 -0.32936811 -3.5697525
-2.6868663 -0.27025563 -3.5634117
-2.8078742 -0.23922543 -3.5408726
-2.8615646 -0.22270302 -3.5306234
-2.900877 -0.23820484 -3.5256116
-3.1321402 -0.29740235 -3.4932394
-3.4976692 -0.17378885 -3.4224567
-3.8815322 0.091441125 -3.3358929
-3.8995092 0.11389574 -3.3309329
-3.926343 0.12339392 -3.3256984
-4.0488243 0.12239468 -3.3058119
-4.1285415 0.13576171 -3.2916026
-4.1661153 0.13907003 -3.2851756
-4.469244 0.10160565 -3.2391191
-4.5089283 0.11075807 -3.2318196
-4.5432396 0.093172163 -3.2278121
-4.5605736 0.081417888 -3.2260463
-4.7027507 -0.042230412 -3.2140253
-5.1384211 -0.19309664 -3.1565933
-5.1533918 -0.19552785 -3.1543713
-5.5916195 -0.39022651 -3.1004813
-5.7012868 -0.35854477 -3.0797329
-5.758091 -0.34380841 -3.0691373
-5.8167405 -0.34507856 -3.0596862
-5.8425474 -0.34466976 -3.0554402
-5.9138856 -0.34857488 -3.0441575
-5.9975138 -0.33908087 -3.0296602
-6.0421548 -0.34608954 -3.0230124
-6.1038756 -0.35160381 -3.0134437
-6.1820598 -0.35081884 -3.0006208
-6.27669 -0.34125617 -2.984323
-6.4385662 -0.34089115 -2.9578879
-6.5058289 -0.35256732 -2.9479721
-6.5449286 -0.35341406 -2.9416714
-6.6340661 -0.34512496 -2.9263842
-6.712266 -0.34681851 -2.9137828
-6.7513652 -0.34766528 -2.9074821
-6.835042 -0.34560674 -2.8936486
-6.8741584 -0.348932 -2.887569
-6.9077492 -0.34857383 -2.8820579
-6.9468651 -0.35189909 -2.8759785
-7.0751023 -0.34445676 -2.8543909
-7.1196952 -0.34402993 -2.847079
-7.1587954 -0.34487671 -2.8407784
-7.3597879 -0.34783697 -2.8082638
-7.6558056 -0.32213929 -2.7576621
-7.6391249 -0.3747972 -2.7651389
-7.6159563 -0.41645402 -2.77268
-7.5994005 -0.43661624 -2.7772014
-7.3831334 -0.46403664 -2.8149512
-7.2435799 -0.61001003 -2.8508968
-7.3651242 -1.0788403 -2.8734174
-7.4716783 -1.1582003 -2.8632061
-7.843852 -1.1380014 -2.8006802
-7.8901296 -1.1141459 -2.7909777
-7.9966621 -1.1333476 -2.7753365
-8.1084423 -1.1218224 -2.7560639
-8.2170153 -1.1094887 -2.7372417
-8.2310925 -1.1058903 -2.7346208
-8.2512341 -1.1101868 -2.7317238
-8.3821106 -1.1150054 -2.710813
-8.3954411 -1.1131285 -2.7084694
-8.4211855 -1.1108425 -2.7040639
-8.5721054 -1.1050757 -2.6789279
-8.616622 -1.0999496 -2.6712043
-8.6611557 -1.0973036 -2.6637018
-8.7111483 -1.096175 -2.6554461
-8.7666159 -1.0990434 -2.6466584
-8.8393383 -1.0941614 -2.6343565
-8.9512491 -1.1024786 -2.6168549
-9.2133503 -0.73190719 -2.5406363
-9.0509605 -0.49340475 -2.5455804
-9.0532379 -0.42471471 -2.539005
-9.0610275 -0.40891945 -2.5363078
-9.1547985 -0.17275475 -2.4996836
-9.1739321 -0.10866572 -2.4907744
-9.2757092 -0.12021382 -2.4752176
-9.2886791 -0.12158909 -2.4732263
-9.5945015 -0.0016804636 -2.4125166
-9.6048164 0.0016634166 -2.410532
-9.6416569 -0.026367843 -2.4070551
-9.6515741 -0.032527849 -2.4059939
-9.6620884 -0.075309828 -2.4081433
-9.6775618 -0.16920188 -2.4140997
-9.9286022 -0.38470927 -2.3926194
-10.10248 -0.48836589 -2.3736222
-10.29977 -0.57223606 -2.3490193
-10.321766 -0.57265234 -2.3454692
-10.592131 -0.45871425 -2.2910819
-10.589996 -0.49835873 -2.2950108
-10.576773 -0.67776662 -2.3133717
-10.61705 -0.91707468 -2.3284163
-10.967545 -1.0442899 -2.2827408
-10.983777 -1.040451 -2.2797465
-11.284891 -0.79563868 -2.2085233
-11.295912 -0.62378991 -2.1912045
-11.300838 -0.62884372 -2.1908576
-11.408957 -0.70529908 -2.1801288
-11.438724 -0.85412765 -2.1887159
-11.515263 -0.95478845 -2.1853242
-11.512699 -0.97632813 -2.1876879
-11.314783 -1.0164934 -2.2235956
-10.991743 -1.1041735 -2.2842026
-10.947279 -1.1167448 -2.2925904
-10.902756 -1.1218737 -2.3003151
-10.798956 -1.156008 -2.3203282
-10.776344 -1.157544 -2.3241549
-10.752518 -1.1551292 -2.3278227
-10.67321 -1.1606112 -2.341253
-10.642717 -1.1654894 -2.3466668
-10.58832 -1.1742795 -2.356333
-10.42264 -1.1222508 -2.3786564
-10.310762 -1.1166421 -2.3963971
-10.23797 -1.1092929 -2.4076056
-10.187971 -1.1128492 -2.4160817
-10.107088 -1.1168003 -2.4296308
-10.046209 -1.1198558 -2.439836
-10.007119 -1.1215383 -2.4463634
-9.9506435 -1.1111289 -2.4546347
-9.8723974 -1.1045728 -2.4668045
-9.7779036 -1.113308 -2.4830053
-9.7388458 -1.1199511 -2.4899757
-9.6149483 -1.1321379 -2.5112841
-9.4542923 -1.1286949 -2.5371761
-9.4207411 -1.1268619 -2.5424829
-9.3434324 -1.1246926 -2.5548959
-9.2978497 -1.1230234 -2.5621798
-9.253315 -1.1256691 -2.5696824
-9.1359463 -1.115835 -2.5879371
-9.0631599 -1.1107959 -2.5993536
-9.0186424 -1.115922 -2.6070771
-9.00774 -1.1153682 -2.6088054
-8.8903866 -1.1080142 -2.6272814
-8.8339443 -1.1025655 -2.6359951
-8.8175993 -1.102975 -2.6386981
-8.7339754 -1.1073035 -2.6527281
-8.6330795 -1.1169021 -2.6700511
-8.4309845 -1.2867893 -2.7183571
-8.3016529 -1.239362 -2.7351675
-8.2411556 -1.2361286 -2.7447424
-7.9707737 -1.341549 -2.7983634
-7.7697806 -1.3360432 -2.8306482
-7.5945363 -1.3438959 -2.8599401
-7.4608135 -1.2851411 -2.8764434
-7.3884325 -1.279461 -2.8877358
-7.2882934 -1.2878188 -2.9048233
-7.2492576 -1.296886 -2.912009
-7.2015676 -1.2969449 -2.9197927
-7.0818725 -1.2960461 -2.9392338
-6.9589186 -1.2699944 -2.9569347
-6.9197702 -1.2617122 -2.9625716
-6.7795978 -1.2179406 -2.9814804
-6.6061983 -1.1359702 -3.0023584
-6.5725746 -1.1313715 -3.007427
-6.4888983 -1.13343 -3.0212607
-6.4497662 -1.1276263 -3.0271189
-6.410634 -1.1218225 -3.0329773
-6.3434196 -1.1175818 -3.0435569
-6.2436633 -1.1319013 -3.0611205
-6.1987362 -1.1338018 -3.0686197
-6.1816301 -1.1334314 -3.0713763
-6.1523051 -1.1327963 -3.0761018
-6.120472 -1.1221944 -3.0803363
-6.0330167 -1.1091661 -3.0934236
-5.9942589 -1.1080849 -3.0996473
-5.9493399 -1.1112248 -3.1072574
-5.7544403 -1.1464123 -3.1422236
-5.6930518 -1.1470182 -3.1522908
-5.6704216 -1.1487054 -3.1561341
-5.5534639 -1.1459305 -3.1749594
-5.5342088 -1.1435782 -3.1778874
-5.3329163 -1.0966187 -3.2064769
-5.2656703 -1.0874211 -3.216614
-5.1874542 -1.083249 -3.2289944
-5.1685309 -1.0812757 -3.2319024
-5.0291424 -1.0472459 -3.2515633
-4.9557552 -1.042691 -3.2631214
-4.9116354 -1.045401 -3.2705619
-4.8146343 -1.0488055 -3.2866905
-4.7350607 -1.0463159 -3.299444
-4.7076502 -1.0378044 -3.3031459
-4.1760302 -0.96495938 -3.3832741
-4.1931562 -0.44582602 -3.3335929
-4.3936248 -0.40247607 -3.2969809
-4.5631957 -0.42781782 -3.2716126
-4.7502351 -0.78798509 -3.2736368
-4.7288017 -0.87724078 -3.2851939
-0.44393444 -1.2441937 -4.0172005
-0.6248064 -1.1799177 -3.9818947
-0.74722528 -1.1789012 -3.9618363
-0.83039331 -1.1621872 -3.9467621
-0.86955976 -1.1605235 -3.9402237
-0.90873909 -1.16134 -3.9339075
-0.94518375 -1.1665862 -3.928437
-0.98466778 -1.167186 -3.9220514
-1.0532379 -1.1703987 -3.9111576
-1.0605845 -1.1705518 -3.9099731
-1.1829553 -1.1596147 -3.8890266
-1.2613249 -1.1637278 -3.876616
-1.3396711 -1.1628804 -3.8637614
-1.5747452 -1.1677791 -3.8258631
-1.741128 -1.1442719 -3.7966027
-1.8538065 -1.1551473 -3.7792072
-1.971283 -1.145196 -3.7591479
-2.0593209 -1.1225359 -3.7427423
-2.2502604 -1.1152029 -3.7109377
-2.4118342 -1.1100427 -3.6841187
-2.4510133 -1.110859 -3.6778026
-2.5293591 -1.1100118 -3.6649477
-2.5685382 -1.1108283 -3.6586313
-2.6958277 -1.1038657 -3.6372414
-2.8133526 -1.103835 -3.6180704
-2.8574016 -1.0987053 -3.6104226
-3.065376 -1.0544795 -3.5725074
-3.0995944 -1.0584191 -3.5672822
-3.1387634 -1.0590341 -3.5609493
-3.1878338 -1.0529995 -3.5524011
-3.2269311 -1.0461709 -3.5454073
-3.5012813 -1.0678438 -3.5026183
-3.5796669 -1.074036 -3.4903929
-3.7021487 -1.0750371 -3.4705064
-3.7803674 -1.0638614 -3.4567394
-3.8195364 -1.0644764 -3.4504066
-3.937067 -1.0688025 -3.431628
-4.0154529 -1.0749947 -3.4194026
-4.1354585 -1.0451957 -3.3971381
-0.016503811 1.3081594 -3.8563869
-0.011507034 1.330425 -3.8551908
-0.12903404 1.3305142 -3.836014
-0.20739174 1.3289188 -3.8233778
-0.32488775 1.3364547 -3.8035336
-0.38852215 1.3432903 -3.7925375
-0.57425022 1.4295461 -3.7544546
-0.58405924 1.4261801 -3.7531588
-0.6675458 1.368078 -3.7447898
-0.78031254 1.3353136 -3.7293568
-0.89786959 1.3279558 -3.7108479
-0.98600483 1.330012 -3.6962872
-1.1280408 1.3250674 -3.6735678
-1.2945538 1.3205637 -3.6468163
-1.2994471 1.3211483 -3.6459651
-1.4218264 1.331751 -3.6250474
-1.4536285 1.3385496 -3.6192465
-1.500164 1.3351202 -3.6119661
-1.5833955 1.3390739 -3.5980341
-1.6216583 1.3377012 -3.5919175
-1.6617532 1.3374786 -3.585398
-1.7352281 1.3328164 -3.5738354
-1.8135552 1.3386676 -3.5605316
-1.8527446 1.3353878 -3.5544362
-1.8919134 1.3370723 -3.5478954
-1.9261889 1.3381722 -3.5422058
-1.9531331 1.3347123 -3.5381236
-1.9702816 1.3329947 -3.5354819
-2.1221147 1.326737 -3.5112832
-2.127008 1.3273218 -3.5104322
-2.166187 1.326524 -3.5041142
-2.2543216 1.32858 -3.4895537
-2.2739255 1.3250146 -3.4866781
-2.384131 1.3196048 -3.4691923
-2.4012613 1.3217379 -3.4662056
-2.5334275 1.3335099 -3.4435861
-2.616394 1.3273431 -3.4306111
-2.6950574 1.3259393 -3.417908
-2.7342157 1.3301061 -3.411145
-2.7734153 1.324344 -3.4052718
-2.8183348 1.3217268 -3.3981819
-2.8713489 1.3255162 -3.3891931
-2.8958356 1.3250178 -3.3852441
-2.9650388 1.3200096 -3.3744094
-3.0533016 1.3229709 -3.3597465
-3.1367085 1.312667 -3.3470733
-3.2835214 1.3177863 -3.3226657
-3.2932899 1.3201125 -3.3208623
-3.3275323 1.313671 -3.3158591
-3.3959692 1.3057501 -3.3054125
-3.4109159 1.3058482 -3.3029659
-3.4301405 1.3067517 -3.2997487
-3.471832 1.3028405 -3.2933021
-3.5333736 1.30733 -3.2828591
-3.6559021 1.3013687 -3.263413
-3.7143197 1.2991713 -3.2540836
-3.8075094 1.3079544 -3.238091
-3.83673 1.3056152 -3.2335365
-3.9151769 1.3112124 -3.2202363
-3.9252787 1.3112664 -3.2185838
-3.9670503 1.3107125 -3.2118208
-3.9933114 1.3130609 -3.2073255
-4.0325046 1.3099601 -3.2012131
-4.108129 1.2993984 -3.1898327
-4.1451082 1.2997981 -3.1837652
-4.1650524 1.298275 -3.1806498
-4.1892748 1.2975572 -3.176764
-4.2277079 1.2995011 -3.17032
-4.2663522 1.2979637 -3.164156
-4.3267269 1.2941751 -3.1546512
-4.3658957 1.2935554 -3.1483185
-4.4221001 1.2948586 -3.139034
-4.4783578 1.2982798 -3.1295493
-4.5469418 1.311475 -3.1171715
-4.5906773 1.3178905 -3.1094587
-4.6788931 1.3258138 -3.0943551
-4.7622051 1.3254342 -3.080801
-4.8797836 1.3161321 -3.0624642
-5.0074525 1.293663 -3.0436707
-5.0807452 1.2990069 -3.031234
-5.1652007 1.309387 -3.0165217
-5.2774477 1.3039783 -2.9987028
-5.3655615 1.3031681 -2.9844046
-5.4115143 1.3016109 -2.9770503
-5.489706 1.3024275 -2.9642234
-5.5178518 1.3022597 -2.9596479
-5.6069732 1.3073732 -2.9446504
-5.7297668 1.3033048 -2.9249902
-5.8079448 1.306602 -2.9119415
-5.8511686 1.3033503 -2.9051855
-5.9307251 1.305014 -2.8920593
-5.969841 1.3017014 -2.8859787
-6.0871081 1.3066472 -2.8664057
-6.2631121 1.2954614 -2.8387098
-6.3107953 1.2973582 -2.8307614
-6.3608141 1.3033036 -2.8220663
-6.3717575 1.3051201 -2.8201175
-6.4503245 1.299947 -2.8077703
-6.4793177 1.2978709 -2.8032291
-6.5227103 1.2984033 -2.7961035
-6.6399636 1.3058294 -2.7763088
-6.6790528 1.3074781 -2.7697845
-6.7463841 1.2915947 -2.7602372
-6.7597427 1.2899326 -2.7582085
-6.8636646 1.29406 -2.740886
-6.941884 1.2899153 -2.7285028
-6.9755011 1.2906556 -2.7229528
-7.0928097 1.2881597 -2.7040453
-7.1984558 1.2761534 -2.6878986
-7.2527285 1.2695857 -2.6796401
-7.2766891 1.2695283 -2.6757374
-7.360311 1.2786946 -2.6612706
-7.3994274 1.2753822 -2.65519
-7.511292 1.2670168 -2.6377003
-7.6055002 1.2713463 -2.621944
-7.6162939 1.2717861 -2.6201437
-7.7456093 1.273309 -2.5989149
-7.862946 1.2684338 -2.5802174
-7.9020367 1.2701162 -2.5736897
-8.0193729 1.2652409 -2.5549924
-8.0584326 1.2718842 -2.5480218
-8.1029825 1.2720156 -2.5407438
-8.1610565 1.2747498 -2.5310249
-8.2422543 1.2766135 -2.5176134
-8.2613974 1.2775428 -2.5144072
-8.3430033 1.2780776 -2.501049
-8.3712082 1.2779011 -2.4964645
-8.4212017 1.2789617 -2.488215
-8.5330629 1.2781181 -2.4700465
-8.650383 1.2757235 -2.4511278
-8.7231226 1.2781585 -2.439044
-8.7785263 1.2851098 -2.4293797
-8.8566933 1.2909547 -2.4161029
-8.9403334 1.2927682 -2.4022975
-9.0130568 1.2976838 -2.3899922
-9.0966816 1.3019779 -2.3759651
-9.1357727 1.30366 -2.3694375
-9.1803541 1.2988305 -2.3626022
-9.2902622 1.308988 -2.3437588
-9.3758564 1.2998003 -2.3306282
-9.4917727 1.3039947 -2.3113434
-9.6043453 1.2986163 -2.2934685
-9.655323 1.3052773 -2.2845523
-9.7038679 1.3040665 -2.2767441
-9.737608 1.3062384 -2.271045
-9.7948418 1.3057303 -2.2617559
-9.8700714 1.3006741 -2.2499425
-9.8909826 1.3011274 -2.246491
-10.017689 1.3220637 -2.2239342
-10.095871 1.3254281 -2.2108788
-10.249071 1.2840303 -2.189631
-10.297949 1.2830889 -2.1817441
-10.382633 1.2756236 -2.1686063
-10.411675 1.2731194 -2.1640956
-10.5136 1.2803472 -2.1468189
-10.591783 1.2813196 -2.1339793
-10.664619 1.2661153 -2.1234732
-10.72639 1.2606907 -2.1138883
-10.752682 1.2587726 -2.1097732
-10.760014 1.2586315 -2.1085901
-10.799357 1.2306157 -2.1047034
-10.754667 1.2424548 -2.1109231
-10.642774 1.2534554 -2.1281796
-10.598171 1.2553807 -2.1352801
-10.514555 1.2481456 -2.1495714
-10.439013 1.2589791 -2.1609139
-10.42219 1.2612479 -2.1634529
-10.404684 1.2630439 -2.1661458
-10.274531 1.2439225 -2.189101
-10.19635 1.2429503 -2.2019401
-10.123579 1.2507195 -2.2131076
-10.084476 1.2514726 -2.2194169
-10.000839 1.2467157 -2.2334881
-9.8180513 1.2657304 -2.2615833
-9.722455 1.2792845 -2.2759509
-9.6669874 1.2822552 -2.2847292
-9.5551729 1.2756575 -2.3035622
-9.4606476 1.2719849 -2.3193111
-9.4215403 1.2727833 -2.3256173
-9.3042669 1.2677362 -2.3452005
-9.1923409 1.2785019 -2.3624833
-8.9805422 1.2697825 -2.3978152
-8.9523849 1.2625178 -2.403064
-8.8687754 1.2557433 -2.4173126
-8.824194 1.260573 -2.4241476
-8.790514 1.2647811 -2.4292607
-8.7177429 1.267307 -2.4409015
-8.6232491 1.2586737 -2.4570932
-8.4722633 1.2627958 -2.4813468
-8.4223194 1.2542938 -2.4902606
-8.3441219 1.2534096 -2.5030947
-8.2767611 1.261826 -2.5133209
-8.1986113 1.2535005 -2.526819
-8.1877251 1.2516415 -2.5287623
-8.0650253 1.2431847 -2.5495389
-8.0259342 1.2415025 -2.5560665
-7.914072 1.242346 -2.574235
-7.8749332 1.2481053 -2.5800984
-7.7912769 1.2487723 -2.5936825
-7.6904597 1.2477293 -2.61022
-7.6122403 1.2518739 -2.6226034
-7.5286183 1.2427074 -2.6370699
-7.4503989 1.2468519 -2.6494532
-7.4112825 1.2501645 -2.655534
-7.3330355 1.2592703 -2.6674738
-7.2157273 1.2617663 -2.6863813
-7.1540055 1.2537522 -2.6971719
-7.0929623 1.2451301 -2.7079067
-7.0704107 1.2396246 -2.7120824
-6.991168 1.2431338 -2.7246897
-6.8804379 1.23229 -2.7437294
-6.8749523 1.2338624 -2.744482
-6.7629499 1.2670333 -2.7597537
-6.6901751 1.2770473 -2.7707188
-6.6291995 1.2717658 -2.781141
-6.5510216 1.2684687 -2.7941897
-6.4617901 1.2831995 -2.8074129
-6.4171882 1.2880846 -2.8142462
-6.3335662 1.2789181 -2.8287129
-6.2999487 1.2781777 -2.8342628
-6.2211595 1.2788296 -2.8470545
-6.1154056 1.2791932 -2.8642702
-6.0599155 1.2723393 -2.8739395
-5.8976417 1.2390192 -2.9034159
-5.8805342 1.2393832 -2.9061732
-5.8144107 1.2655927 -2.9145908
-5.6572347 1.2833806 -2.9386199
-5.6188416 1.2796751 -2.9452164
-5.5742259 1.2870405 -2.951828
-5.5045195 1.2905731 -2.962878
-5.4287996 1.2847433 -2.9757545
-5.3451495 1.280538 -2.9897776
-5.2930269 1.2815505 -2.9981875
-5.2132049 1.2862568 -3.0107813
-5.1777954 1.2820497 -3.0169368
-5.0659175 1.2865036 -3.0347817
-5.026772 1.2846423 -3.0413344
-4.9926243 1.2811595 -3.0472186
-4.9192605 1.2832586 -3.0589945
-4.8602657 1.2729962 -3.0695436
-4.7427349 1.2773364 -3.088321
-4.6935935 1.2787174 -3.0962112
-4.6743684 1.277814 -3.0994284
-4.6302729 1.2726117 -3.1070902
-4.5811791 1.2690309 -3.1154208
-4.4685512 1.281674 -3.1326485
-4.4585791 1.2824354 -3.1342063
-4.3852625 1.2795725 -3.1464226
-4.3802886 1.2787127 -3.1473117
-4.2776566 1.2881131 -3.163202
-4.2435093 1.2846304 -3.169086
-4.2335372 1.285392 -3.1706436
-4.0570111 1.2794696 -3.19997
-4.008471 1.2908295 -3.2068608
-3.9816489 1.2952021 -3.2108407
-3.9300857 1.297031 -3.2190855
-3.8909166 1.2976507 -3.2254179
-3.8417754 1.2990319 -3.2333081
-3.7827332 1.2937315 -3.2434168
-3.7386608 1.2860483 -3.2512989
-3.6702476 1.2914883 -3.2619658
-3.6261041 1.2912481 -3.2691872
-3.5819137 1.2959701 -3.2759683
-3.5035517 1.2996906 -3.288413
-3.4401836 1.298547 -3.2988517
-3.3851399 1.298442 -3.3078389
-3.3419013 1.3013095 -3.3146319
-3.2636106 1.2975867 -3.3277376
-3.2213473 1.2961184 -3.3347633
-3.107029 1.2901411 -3.3539486
-3.0678599 1.2907609 -3.360281
-2.9261537 1.2908567 -3.3833847
-2.8665879 1.2942054 -3.3927975
-2.8225255 1.2919363 -3.4001889
-2.8029099 1.2975547 -3.4028809
-2.7489996 1.3090097 -3.410639
-2.6902311 1.3102062 -3.4201162
-2.6143503 1.3054186 -3.4329247
-2.5433073 1.3143111 -3.4437087
-2.4429417 1.3089085 -3.4605663
-2.3915358 1.3056753 -3.4692426
-2.3049068 1.3095421 -3.4830227
-2.2960346 1.3087332 -3.4845428
-2.1858335 1.313459 -3.5020897
-2.0682862 1.3183342 -3.5208216
-1.989918 1.3224119 -3.5332351
-1.9458659 1.3176605 -3.5408492
-1.8674979 1.3217381 -3.5532627
-1.7060108 1.2945575 -3.5820563
-1.6276731 1.2911882 -3.5951374
-1.5493155 1.2927836 -3.6077735
-1.4709573 1.294379 -3.6204095
-1.3680491 1.310937 -3.6356986
-1.2701278 1.3077116 -3.6519608
-1.1133909 1.3158669 -3.6767881
-1.0105243 1.3224959 -3.6929669
-0.95669556 1.3140931 -3.7025054
-0.91264343 1.3093417 -3.7101195
-0.83916855 1.3140039 -3.7216821
-0.79510641 1.3117348 -3.7290735
-0.71673822 1.3158125 -3.741487
-0.63832903 1.329819 -3.7530107
-0.55508757 1.3283474 -3.7667203
-0.52570534 1.3278321 -3.771559
-0.47676039 1.3224961 -3.7800241
-0.45716763 1.3228942 -3.7831836
-0.41310596 1.3206251 -3.790575
-0.37394714 1.3164582 -3.797338
-0.3543601 1.3168579 -3.8004966
-0.19276285 1.3147539 -3.8270433
-0.1389246 1.3088331 -3.836359
-0.060555935 1.3129108 -3.8487728
-11.240805 -0.15488541 -2.1578412
-11.234645 -0.1394289 -2.15745
-11.237573 -0.13446538 -2.1565242
-11.264784 -0.14261782 -2.152822
-11.274473 -0.15901397 -2.1527228
0 0 0 1 0 0 0 1 0 0 0 1 0 0 0 0 0 615 1 0 0
