ply
format ascii 1.0
comment PCL generated
element vertex 528
property float x
property float y
property float z
element camera 1
property float view_px
property float view_py
property float view_pz
property float x_axisx
property float x_axisy
property float x_axisz
property float y_axisx
property float y_axisy
property float y_axisz
property float z_axisx
property float z_axisy
property float z_axisz
property float focal
property float scalex
property float scaley
property float centerx
property float centery
property int viewportx
property int viewporty
property float k1
property float k2
end_header
0.50121355 -0.073616967 -0.75772846
0.55951309 0.25276476 -0.73767579
0.26118994 0.036418438 -0.65374875
0.18781567 0.033875555 -0.62660515
-0.10596323 -0.16128851 -0.54166138
-0.36056185 0.039162666 -0.42062366
-0.36723471 0.03884837 -0.4181658
-0.54589653 -0.20823947 -0.38298249
-0.64977217 -0.30914173 -0.35704029
-0.72297335 -0.34947777 -0.3348105
-0.72545147 -0.41603076 -0.34242237
-0.63249874 -0.76564175 -0.42208171
-0.83097315 -1.0189683 -0.38028145
-1.033875 -1.0629628 -0.30996346
-0.92715883 -1.0628269 -0.34989882
-0.86779976 -1.0575808 -0.37144864
-0.82030344 -1.0553336 -0.388942
-0.73731136 -1.0538752 -0.41982567
-0.68990707 -1.0540926 -0.43760097
-0.64250278 -1.0543103 -0.45537627
-0.40598631 -1.0652957 -0.54533339
-0.36534595 -1.0693521 -0.56106889
-0.32340717 -1.0712695 -0.57701612
-0.16096497 -1.1088507 -0.64265382
-0.13435078 -1.1103404 -0.65280879
0.00026607513 -1.1355736 -0.70644486
0.078033447 -1.1146612 -0.73287618
0.050813198 -1.0471494 -0.71402276
0.10733652 -0.61610126 -0.67987525
0.11923361 -0.57403284 -0.67893147
0.15595579 -0.46393675 -0.67855287
0.16942167 -0.36469209 -0.67085993
0.21054649 -0.25205946 -0.67180407
0.4220953 1.2636503 -0.55651975
0.41427565 1.2903111 -0.55017138
0.39181423 1.3103901 -0.53918588
0.35396194 1.3426218 -0.52087879
0.34161949 1.3526084 -0.51497662
0.31143761 1.359763 -0.50275898
0.26011944 1.3683885 -0.48243976
0.18895388 1.3710315 -0.45545733
0.13030434 1.3826126 -0.43201399
0.023263931 1.3761748 -0.39276612
-0.072286129 1.3880847 -0.35546553
-0.14095879 1.4182514 -0.32588482
-0.2184763 1.4049166 -0.29857469
-0.25769997 1.4056927 -0.28379059
-0.29477167 1.4035972 -0.27018023
-0.3513422 1.3843485 -0.25147128
-0.41525221 1.3715305 -0.22918904
-0.57850742 1.326844 -0.17380297
-0.73276663 1.3195312 -0.11698937
-0.78017092 1.3197143 -0.099218488
-0.8868432 1.3171488 -0.05961144
-1.064646 1.3160212 0.0068100691
-1.0884163 1.3124844 0.015255451
-1.1181407 1.3086447 0.025891066
-1.1596825 1.3066652 0.041189671
-1.2091043 1.3125896 0.060452461
-1.2306759 1.3082416 0.067970514
-1.3187988 1.3086401 0.10101342
-1.4171932 1.3116254 0.13823354
-1.5146947 1.3168744 0.17541003
-1.6563632 1.3322147 0.23041654
-1.7688987 1.3318113 0.2724961
-1.8162124 1.3344594 0.2905494
-1.8517091 1.3352478 0.30393982
-1.9761522 1.3342401 0.35039985
-2.011831 1.330098 0.36322594
-2.0830061 1.3267442 0.38944232
-2.1185939 1.3250673 0.40255058
-2.1482277 1.3236923 0.41346854
-2.2076766 1.3160132 0.43473983
-2.2671261 1.3083341 0.4560113
-2.3028045 1.3041919 0.4688372
-2.3740709 1.298373 0.49477154
-2.4037952 1.294534 0.50540715
-2.4452462 1.2950191 0.52098793
-2.5164218 1.2916653 0.54720455
-2.4568813 1.3018095 0.52621526
-2.421294 1.3034865 0.51310706
-2.3145308 1.3085172 0.47378242
0.3830142 1.2419037 -0.54467893
0.43247843 1.1338942 -0.57705641
0.4267602 1.1782299 -0.56922674
-5.2855287 1.2630591 1.5802395
-5.2577868 1.2620276 1.569721
-5.2020602 1.2747887 1.5504954
-5.1188431 1.2791241 1.5198966
-5.0833092 1.2834463 1.5071479
-5.060008 1.2896128 1.4992156
-4.9149981 1.3007627 1.446357
-4.8124499 1.3123457 1.4094511
-4.7924829 1.3114575 1.4018618
-4.7132893 1.3126844 1.3723706
-4.6424317 1.3038507 1.3447093
-4.5593038 1.3126017 1.3147104
-4.4883547 1.3062333 1.2873311
-4.4646759 1.3073051 1.2786037
-4.3583217 1.2976831 1.2375519
-4.2517409 1.2977836 1.1976629
-4.1691127 1.2894169 1.1656547
-4.1572952 1.2875568 1.1609918
-4.0384884 1.30045 1.1181669
-3.9674041 1.3013386 1.0916682
-3.9318163 1.3030156 1.07856
-3.8021011 1.2822779 1.0273359
-3.6834297 1.2879139 0.9836306
-3.6358891 1.2949879 0.96673989
-3.5884838 1.2948047 0.94896877
-3.5528963 1.2964816 0.93586051
-3.5173085 1.2981586 0.92275226
-3.6113453 1.3230382 0.96115041
-3.682703 1.3147541 0.98680246
-3.7182903 1.3130771 0.99991059
-3.7893746 1.3121884 1.0264093
-3.8368707 1.3099065 1.0438982
-3.9311342 1.3250637 1.0811337
-4.0024009 1.3192446 1.1070679
-4.0497146 1.321893 1.1251212
-4.1564775 1.3168622 1.164446
-4.203609 1.3244407 1.1830635
-4.2391968 1.3227638 1.1961719
-4.3339601 1.3208033 1.231398
-4.4400411 1.3378205 1.2732964
-4.4638109 1.3342836 1.2817416
-4.5823007 1.333578 1.3260115
-4.6297054 1.3337611 1.3437827
-4.6942081 1.3307217 1.3675413
-4.7437463 1.3332652 1.3864138
-4.7548676 1.3327411 1.3905102
-4.866684 1.33235 1.4323221
-4.9377685 1.3314614 1.4588208
-5.0563483 1.3282907 1.5028083
-5.1036625 1.3309389 1.5208616
-5.1394324 1.3243316 1.5334055
-5.1632028 1.3207946 1.5418509
-5.2866826 1.3172754 1.587628
-5.3221321 1.3154181 1.6006615
-5.3576665 1.3110958 1.6134102
-5.4408836 1.3067604 1.644009
-5.5704508 1.2974867 1.6913269
-5.6894426 1.3257962 1.7395077
-5.7248926 1.323939 1.7525413
-5.8254151 1.3309985 1.791081
-5.8783383 1.3356067 1.8114858
-5.9259377 1.3380582 1.8296206
-5.9491549 1.3343567 1.8378379
-6.0281081 1.3253239 1.8662376
-6.1158404 1.3182917 1.8981807
-6.163691 1.313349 1.9154611
-6.234591 1.3096341 1.9415281
-6.3177242 1.3077635 1.9724116
-6.3763919 1.3022044 1.9936624
-6.482574 1.3015617 2.0333328
-6.671627 1.3508041 2.1104293
-6.7193937 1.348326 2.1279943
-6.9573989 1.3162225 2.21298
-7.0956707 1.3188441 2.2650831
-7.1149769 1.3193779 2.2723794
-7.2176142 1.3099943 2.3096011
-7.3250198 1.3072908 2.3494649
-7.4185753 1.3265784 2.3869653
-7.5135212 1.338876 2.4240894
-7.6197872 1.3357685 2.4634748
-7.6321039 1.3351479 2.4680061
-7.7079806 1.329522 2.4956913
-7.7557478 1.3270785 2.5132608
-7.8269019 1.315971 2.5384746
-7.8408213 1.3134626 2.543364
-8.0278549 1.3326226 2.6158445
-8.0400028 1.3369651 2.6209497
-8.0872612 1.3493086 2.6402264
-8.2357264 1.3492523 2.6958017
-8.3390398 1.3425959 2.7336264
-8.3782864 1.342096 2.7482555
-8.4315853 1.341171 2.7680912
-8.5490437 1.2980584 2.8065338
-8.6672888 1.3042234 2.8515935
-8.7024002 1.3122246 2.8657651
-8.7610683 1.3066328 2.887012
-8.844286 1.3023323 2.9176154
-8.713809 1.2942892 2.8677351
-8.6700878 1.2793587 2.8494511
-8.6559868 1.2752359 2.8436427
-8.6034956 1.28098 2.824728
-8.5094938 1.2827923 2.789768
-8.4762974 1.2795525 2.7769241
-8.4242306 1.28228 2.757781
-8.3117332 1.2659148 2.7135642
-8.1934042 1.2622143 2.6687889
-8.1224194 1.2683928 2.6430063
-8.0397091 1.2579062 2.6106956
-7.8375721 1.2757578 2.5373096
-7.7311373 1.2837932 2.4984932
-7.6832013 1.2911659 2.4814928
-7.5477333 1.285267 2.4300191
-7.5004706 1.2729564 2.4107451
-7.4591141 1.2757844 2.3956246
-7.3465214 1.276077 2.3535097
-7.2879381 1.2791713 2.331974
-7.1805911 1.2699593 2.2906032
-7.0620918 1.2712225 2.2464013
-6.9202919 1.2786521 2.194267
-6.8372426 1.2780581 2.1630986
-6.743041 1.2879392 2.1290991
-6.5880957 1.2762755 2.0695937
-6.4697642 1.2726092 2.024822
-6.3868837 1.2670857 1.9930842
-6.2804489 1.2751226 1.9542682
-6.2571478 1.2812891 1.9463358
-6.1140156 1.2837934 1.8930709
-6.0431151 1.2875082 1.8670037
-5.9122996 1.289392 1.8182703
-5.7854333 1.3096023 1.773367
-5.6522517 1.2906908 1.7210797
-5.5927553 1.2765359 1.6969891
-5.5090008 1.2834839 1.6665242
-5.4389744 1.2747271 1.639184
-5.4282417 1.2728788 1.6349287
-5.3206429 1.2710608 1.5944123
-5.2943077 1.2650596 1.5837828
-4.8762155 -1.051511 1.1300114
-4.8879466 -1.0467825 1.1350101
-4.9477682 -1.0707788 1.1543272
-5.1252871 -1.0633692 1.2217379
-5.1605768 -1.0516455 1.2364541
-5.2826591 -0.94926298 1.2952964
-5.3220587 -0.69047415 1.3432528
-5.3382735 -0.64703268 1.3548975
-5.3852015 -0.62487304 1.3753099
-5.4561853 -0.63104308 1.4010932
-5.551384 -0.62616181 1.4373603
-5.7053328 -0.62927878 1.494596
-5.8358974 -0.62378526 1.5441821
-6.0534582 -0.408768 1.6532226
-6.1432896 -0.36460316 1.6925206
-6.3567271 -0.38032034 1.7704114
-6.3766675 -0.38136241 1.777743
-6.3953691 -0.38234684 1.7846181
-6.4298425 -0.38414121 1.7972941
-6.4454141 -0.38403097 1.803138
-6.5137844 -0.3811464 1.8291048
-6.5750647 -0.39573437 1.8501751
-6.5959187 -0.39775532 1.8577235
-7.1319017 -0.38140503 2.0604839
-7.1652737 -0.35855114 2.0759101
-7.1775064 -0.35672286 2.0807247
-7.2007232 -0.36040372 2.0889444
-7.2838564 -0.36228055 2.1198273
-7.3425226 -0.36781397 2.1410809
-7.4022717 -0.36108011 2.1643138
-7.485321 -0.36049205 2.1954813
-7.515265 -0.35902181 2.2068806
-7.5452371 -0.358688 2.2181444
-7.6039038 -0.36422145 2.2393982
-7.681447 -0.36029828 2.2689323
-7.7877131 -0.36340579 2.3083181
-7.9184456 -0.36282486 2.3573363
-8.0014944 -0.36223066 2.3885045
-8.0712299 -0.37580037 2.4128714
-8.0958633 -0.3770414 2.4219344
-8.2485638 -0.3875522 2.4777541
-8.297327 -0.37524575 2.4975893
-8.3437624 -0.38264906 2.5140238
-8.4037619 -0.38328278 2.5364056
-8.5345774 -0.38516659 2.5851388
-8.5592108 -0.38640761 2.5942016
-8.614769 -0.39423937 2.613997
-8.6234455 -0.39747578 2.6168299
-8.6292076 -0.39994141 2.6186709
-8.637001 -0.40529522 2.6209013
-8.6525841 -0.41600278 2.6253617
-8.9802189 -0.54941201 2.7309043
-9.024437 -0.58308285 2.7431386
-9.3005781 -0.69591606 2.8320432
-9.3433657 -0.7101382 2.8462369
-9.4209242 -0.75140393 2.8699787
-9.5047283 -0.77299261 2.8985834
-9.5208244 -0.79105848 2.9022918
-9.7684984 -0.91224164 2.9794669
-9.7928696 -0.91351855 2.9884274
-10.161281 -0.52270848 3.1764998
-10.168089 -0.44401836 3.1891458
-10.321106 -0.29468003 3.2655942
-10.335108 -0.2659491 3.2745228
-10.34184 -0.25637409 3.2782719
-10.356365 -0.24223751 3.2855239
-10.498892 0.077489197 3.3799081
-10.494853 0.17248142 3.3905849
-10.453056 0.33176261 3.3953748
-10.375309 0.57253295 3.3971615
-10.371746 0.6511361 3.4059134
-10.374647 0.85183418 3.4327517
-10.335898 1.0121967 3.4388213
-10.218661 1.1734653 3.4156222
-10.060247 1.3245165 3.3756967
-10.034052 1.3358626 3.3673453
-9.9742241 1.3515018 3.3469539
-9.6665249 1.3749582 3.234766
-9.6103954 1.3775334 3.2140827
-9.5838184 1.3788991 3.204308
-9.528986 1.3693575 3.1825557
-9.5118189 1.3677679 3.1759243
-9.429121 1.3671198 3.1448808
-9.3935146 1.3738704 3.1324162
-9.2399321 1.3669775 3.0740333
-8.9861708 1.2924398 2.9694653
-9.2906189 1.3348254 3.0888839
-9.3706064 1.323334 3.1173556
-9.4759617 1.3449839 3.1595764
-9.5945406 1.3413738 3.2035072
-5.0309105 -1.1059095 1.1809465
-4.8059287 -1.0823448 1.099741
-4.6986971 -1.0589206 1.0626009
-4.5925369 -1.0746429 1.020839
-4.4765086 -1.1298137 0.97032094
-4.393712 -1.1336164 0.93883538
-4.3108182 -1.1349571 0.90762931
-4.2635059 -1.1379917 0.88952708
-4.1848412 -1.1486198 0.85871267
-4.1285605 -1.1482534 0.83768916
-4.1019473 -1.1499603 0.82750654
-3.9925382 -1.174986 0.78333461
-3.9569564 -1.1732919 0.77023077
-3.9154603 -1.153969 0.75717473
-3.7422915 -1.1396122 0.69418544
-3.6945896 -1.1267669 0.67797494
-3.2629123 -1.1564425 0.51255476
-3.0908701 -1.1456082 0.44953531
-2.905921 -1.1159866 0.3840943
-2.5415201 -1.1512969 0.24313831
-2.48207 -1.1435859 0.22187054
-2.4346657 -1.1438036 0.20409524
-2.3635821 -1.1429163 0.17759669
-2.3045447 -1.1499577 0.15459061
-2.257232 -1.1526401 0.13653338
-2.1387441 -1.1519704 0.092259526
-2.0792937 -1.1442597 0.070991755
-1.9963937 -1.1452661 0.039826274
-1.8779058 -1.1445963 -0.0044476986
-1.8305931 -1.147279 -0.022504807
-1.759418 -1.1439269 -0.048721433
-1.5664511 -1.0511677 -0.10906279
-1.4955511 -1.0552104 -0.13612521
-1.3890636 -1.0575768 -0.176296
-1.3772469 -1.0594704 -0.18096292
-1.2710805 -1.0741241 -0.22258997
-1.1525927 -1.0734545 -0.26686382
-1.0813255 -1.0676374 -0.29279864
-6.946579 -1.2550659 1.8790009
-7.2798753 -1.3290676 1.9942857
-7.31845 -1.3098595 2.0111923
-7.4628229 -1.1885521 2.0808079
-7.5576954 -1.1730404 2.1183171
-7.7511396 -1.0948005 2.2007785
-7.7884607 -1.0943451 2.2148089
-7.8806238 -1.1016096 2.2483811
-8.0115232 -1.1059582 2.2968297
-8.0701904 -1.1115173 2.3180804
-8.153492 -1.1183174 2.3483946
-8.2367077 -1.1226528 2.378993
-8.3201771 -1.1343825 2.4087372
-8.4155331 -1.1418388 2.44348
-8.521306 -1.1227278 2.4855318
-8.5582561 -1.1245892 2.4991264
-8.6635256 -1.1424811 2.5362418
-8.7351704 -1.1240172 2.5654335
-8.8291206 -1.1265043 2.6002874
-8.9155054 -1.1357775 2.6314387
-8.983489 -1.1419489 2.6560988
-9.0315914 -1.1542858 2.6725245
-9.1460199 -1.1724961 2.713028
-9.1698189 -1.1712704 2.7220953
-9.2692928 -1.1334012 2.7641954
-9.4459133 -1.1242027 2.8314996
-9.4816151 -1.1334543 2.8436785
-9.5526829 -1.1420987 2.8691759
-9.6475449 -1.1273365 2.9065847
-9.7530556 -1.1082612 2.9485338
-9.756094 -1.1071839 2.9498091
-10.212669 -1.046978 3.1284685
-10.233403 -1.008672 3.1411459
-10.245281 -0.96991426 3.1505661
-10.265488 -0.91681999 3.1649437
-10.286119 -0.84460789 3.1819336
-10.299079 -0.81754786 3.1902575
-10.304671 -0.77612543 3.1976662
-10.313364 -0.72232741 3.2078238
-10.329056 -0.66654259 3.2208557
-10.354235 -0.56695753 3.2430611
-10.369402 -0.52433819 3.2542074
-10.371517 -0.5185957 3.2557364
-10.385784 -0.48488039 3.265404
-10.40209 -0.44634855 3.2764525
-10.516382 -0.26762319 3.3421741
-10.528165 -0.25096396 3.3487229
-10.533135 -0.21685171 3.3549609
-10.536947 -0.19982462 3.358573
-10.672152 0.024655819 3.4379945
-10.683177 0.031512707 3.4430022
-10.706783 0.045031041 3.4535747
-10.703936 0.08363077 3.4574614
-10.689383 0.14585483 3.4599972
-10.801273 0.45510495 3.5415678
-10.854645 0.5188669 3.5697303
-10.890144 0.59835225 3.5932198
-10.86377 0.65628326 3.5907788
-10.822002 0.67560732 3.5776215
-10.556893 1.023613 3.5230227
-10.56155 1.1414722 3.5398889
-10.572287 1.1815209 3.549047
-10.494492 1.3490955 3.5414238
-10.33181 1.3813276 3.4846544
-10.311613 1.3885391 3.4780188
-10.274088 1.3824126 3.4631839
-10.102184 1.3936026 3.4002614
-10.054472 1.3935467 3.3823924
-10.019127 1.3928865 3.3690743
-9.9938602 1.3908111 3.3593488
-9.9482975 1.3881897 3.3419547
-1.6934974 1.2815112 0.23781312
-1.7288117 1.2872298 0.25176787
-1.8347106 1.3091773 0.2942307
-1.9297473 1.2998213 0.3286103
-1.9652436 1.3006095 0.34200066
-2.0481453 1.3015809 0.37316227
-2.0837331 1.2999039 0.38627052
-2.1959503 1.3116879 0.42979473
-1.6044376 1.2881687 0.20532477
-1.5396941 1.2764983 0.17958856
-1.4565191 1.2829223 0.14927363
-1.3379388 1.286093 0.105286
-1.3025336 1.2828397 0.091613412
-1.1718183 1.2963378 0.044407845
-1.1600003 1.2944776 0.039744735
-1.1481833 1.2926176 0.035081983
-1.1031594 1.2883151 0.017673731
-1.0652819 1.2916461 0.0039204359
-0.94661045 1.2972821 -0.039784908
-0.83993864 1.2998478 -0.079391718
-0.61960125 0.92777514 -0.20962369
-0.34662771 1.2988391 -0.2642082
-0.22349358 1.309516 -0.30893755
-0.1560111 1.3272028 -0.33193231
-0.098800182 1.3291825 -0.35309696
-0.038047314 1.3292454 -0.37583375
0.15327692 1.3608443 -0.44340765
-1.5303586 -1.0322745 -0.12015092
-1.4239628 -1.037106 -0.16060364
-1.3059337 -1.0487611 -0.20628715
-1.2823925 -1.0550134 -0.21590281
-1.1878591 -1.0628436 -0.25229919
-1.1043625 -1.044168 -0.28116262
-1.6841588 -1.0272255 -0.061922908
-1.7792888 -1.0390774 -0.027828693
-1.8383262 -1.0320362 -0.0048226118
-2.091475 -0.65762371 0.13799369
-2.1084044 -0.61414045 0.14991117
-2.1305549 -0.61272311 0.15838575
-2.2483087 -0.59367335 0.20491505
-2.4689877 -0.30859646 0.32411242
-2.5105937 -0.31329718 0.33908576
-2.5521629 -0.31502742 0.35442656
-2.5573025 -0.31549707 0.35629046
-2.623338 -0.31837192 0.38064408
-2.6791246 -0.31463984 0.40200853
-2.7502878 -0.31802785 0.4282161
-2.7858694 -0.31972191 0.44131988
-2.8214512 -0.32141596 0.45442367
-2.9245298 -0.32797569 0.4921729
-2.9875305 -0.33215249 0.51522326
-3.0232098 -0.33630872 0.52804768
-3.0877013 -0.33937916 0.55179828
-3.1356239 -0.33410195 0.57041675
-3.3047636 -0.26297373 0.64286625
-3.5303431 0.025901437 0.76438564
-3.5366235 0.035432667 0.76795983
-3.6394844 0.0017888546 0.8021524
-3.8988771 -0.29906428 0.86066127
-3.9346542 -0.30568272 0.87320638
-3.9464808 -0.30944735 0.87715095
-4.2105069 -0.25074843 0.98352945
-4.2200136 -0.24591392 0.98770893
-4.2501469 -0.23677433 1.0001631
-4.2867537 -0.22905895 1.014858
-4.3140268 -0.24510276 1.02301
-4.6027379 -0.24298687 1.1313699
-4.6070881 -0.2407364 1.1332872
-4.6329579 -0.27333748 1.1387893
-4.5692854 -0.30946174 1.1103163
-4.4525456 -0.44251925 1.049538
-4.3959999 -0.59109044 1.0093048
-4.4001527 -0.70779645 0.99588454
-4.4037457 -0.74237329 0.99279308
-5.3165064 -1.0912657 1.2897476
-5.5091686 -1.1480548 1.3545902
-5.5324693 -1.1542006 1.362525
-5.7911739 -1.1160427 1.4642757
-6.0287681 -1.1801364 1.5450027
-6.0642176 -1.181989 1.5580368
-6.1643205 -1.1626081 1.5980003
-6.3737764 -1.1488994 1.678176
-6.465426 -1.1752067 1.7091124
-6.6072984 -1.1660452 1.7634026
-2.8651869 1.319088 0.68129474
-2.9834025 1.3257778 0.72641104
-3.0549421 1.3125633 0.75149864
-3.0076287 1.3099151 0.73344547
-2.9365442 1.3108037 0.70694667
-9.7895298 -0.077423826 3.0944581
-9.630661 -0.043812051 3.0392935
-9.6140766 -0.074936733 3.0290904
-9.7095184 -0.07704623 3.0645518
-3.2449248 1.2963163 0.82054013
-3.1383438 1.2964168 0.78065097
-3.2326984 1.309109 0.8176043
-3.2561507 1.3177594 0.82749438
-3.2917385 1.3160825 0.84060264
-3.3511877 1.3084035 0.86187398
-5.1737084 -1.0985875 1.235347
-5.2092423 -1.102905 1.2480962
-5.2569256 -1.1029294 1.265945
-2.5638268 1.2918484 0.56497562
-2.6173 1.2868685 0.58435607
-2.635093 1.2860293 0.59090978
-2.6764524 1.2889807 0.60677272
-2.6213212 1.2906259 0.58634365
0 0 0 1 0 0 0 1 0 0 0 1 0 0 0 0 0 528 1 0 0
