ply
format ascii 1.0
comment PCL generated
element vertex 603
property float x
property float y
property float z
element camera 1
property float view_px
property float view_py
property float view_pz
property float x_axisx
property float x_axisy
property float x_axisz
property float y_axisx
property float y_axisy
property float y_axisz
property float z_axisx
property float z_axisy
property float z_axisz
property float focal
property float scalex
property float scaley
property float centerx
property float centery
property int viewportx
property int viewporty
property float k1
property float k2
end_header
-1.6799724 1.313333 -1.7206389
-1.7198761 1.3179394 -1.7176509
-1.800606 1.3300031 -1.7112223
-1.8795455 1.3216428 -1.7077526
-1.9194763 1.3188881 -1.7057915
-2.0792084 1.3054159 -1.6982892
-2.1191392 1.3026612 -1.696328
-2.1990008 1.2971518 -1.6924058
-2.3187661 1.2962489 -1.6854955
-2.4013498 1.311561 -1.6785042
-2.4421937 1.314111 -1.6757482
-2.5220735 1.3036945 -1.6725105
-2.6028757 1.2961287 -1.6688204
-2.7416787 1.2844762 -1.6622934
-2.7849228 1.2894309 -1.6590605
-2.8251359 1.2908957 -1.6564933
-2.8633287 1.2900338 -1.6543698
-2.9032414 1.2921654 -1.651727
-2.9061055 1.2921352 -1.6515629
-2.9460182 1.2942668 -1.6489202
-3.0220709 1.2855029 -1.6456764
-3.0629354 1.2884411 -1.6428651
-3.1456332 1.290224 -1.6377573
-3.2625329 1.2892984 -1.6310185
-3.143712 1.2935108 -1.6374109
-3.0657821 1.293311 -1.6420174
-3.026804 1.2968864 -1.6438079
-2.9868653 1.3021052 -1.6454252
-2.8444912 1.3615652 -1.6454823
-2.8240736 1.3590633 -1.6470314
-2.7832384 1.3540596 -1.6501297
-2.5645189 1.3781954 -1.6596076
-2.5236928 1.370738 -1.6630481
-2.4411001 1.3578796 -1.6696972
-2.4011784 1.3581805 -1.6720006
-2.2832396 1.3696929 -1.6773213
-2.2043097 1.3755996 -1.6811333
-2.1653104 1.3787516 -1.6829842
-2.0845442 1.3765025 -1.6880436
-1.9342663 1.3678485 -1.6980819
-1.8031297 1.4048049 -1.7006228
-1.7214503 1.3972512 -1.706477
-1.6815469 1.392645 -1.709465
-1.6064053 1.3829654 -1.7152321
-1.4868205 1.334795 -1.7289883
-1.3262203 1.3306943 -1.7389969
-1.2463765 1.3312963 -1.7436037
-1.1665239 1.334352 -1.7478683
-1.0449049 1.3320066 -1.7553413
-0.92603493 1.3431214 -1.7607722
-0.84619141 1.3437234 -1.7653791
-0.8044343 1.3358688 -1.7689298
-0.76452112 1.3337162 -1.7715756
-0.68744469 1.3428711 -1.7748249
-0.60760117 1.3434731 -1.7794317
-0.4850688 1.3358231 -1.7876996
-0.40704298 1.349488 -1.7903745
-0.32812214 1.352941 -1.7945287
-0.19028568 1.374243 -1.7996507
-0.15128136 1.3851687 -1.8004156
-0.11040831 1.3846806 -1.8028853
0.011425972 1.3805029 -1.810627
0.08915472 1.3740228 -1.816099
0.12905884 1.369441 -1.8190837
0.20885801 1.3578277 -1.8253946
0.24870062 1.336095 -1.8307719
0.2595458 1.3108668 -1.834934
0.25236893 1.2936665 -1.8369155
0.051802635 1.2904302 -1.8255839
-0.18319654 1.3236774 -1.8071321
-0.22608042 1.3261924 -1.8042612
-0.32170057 1.3231692 -1.7990657
-0.38535023 1.3073639 -1.7975345
-0.42528009 1.3045952 -1.7955754
-0.60209322 1.319006 -1.7831738
-0.84638977 1.044145 -1.8072242
-1.123853 1.3211925 -1.7522138
-1.2417827 1.3121339 -1.7465509
-1.3234797 1.3147804 -1.7413813
-1.4804089 1.3025696 -1.7338675
-1.5602524 1.3019676 -1.7292607
-1.6001558 1.306574 -1.7262727
-11.131617 0.87122941 -1.2271067
-11.011822 0.67572773 -1.2614601
-11.13454 0.35187855 -1.299498
-11.171576 0.28086969 -1.3072433
-11.189747 0.24404314 -1.311321
-11.194757 0.20472363 -1.3165203
-11.216967 0.13494816 -1.3249644
-11.221963 0.11526501 -1.3274209
-11.216988 0.095689207 -1.3304484
-11.253187 -0.16563408 -1.3648334
-11.271187 -0.20312177 -1.3690135
-11.269804 -0.20841044 -1.3698337
-11.252354 -0.22782785 -1.3735719
-11.213255 -0.28325671 -1.3836136
-11.187534 -0.2859287 -1.385498
-11.089976 -0.27817929 -1.390147
-10.76793 -0.25788915 -1.4062328
-10.694099 -0.27827877 -1.4134195
-10.656351 -0.26953059 -1.4144149
-10.572863 -0.20392631 -1.4101539
-10.010824 -0.33742541 -1.461827
-9.9684877 -0.29732108 -1.458711
-9.930562 -0.27461326 -1.4577665
-9.88978 -0.2823776 -1.4612473
-9.881773 -0.28429973 -1.4619863
-9.8451471 -0.29266331 -1.4653068
-9.6312542 -0.27575433 -1.4755108
-9.6112976 -0.26569164 -1.4752774
-9.3426685 -0.09207432 -1.4668024
-9.3291006 -0.074244767 -1.4651084
-9.293395 -0.069877177 -1.4665959
-9.290596 -0.08063066 -1.4682628
-9.1972485 -0.23104866 -1.4947634
-9.1958561 -0.27567211 -1.5010798
-9.189476 -0.32023284 -1.5076807
-9.2238026 -0.42073515 -1.519706
-9.2513475 -0.70605999 -1.5579529
-9.2507343 -0.70841229 -1.5583175
-8.9288406 -1.0901109 -1.6305598
-8.8861332 -1.1028153 -1.6348439
-8.8764658 -1.1066225 -1.6359439
-8.8423347 -1.1223761 -1.6401502
-8.5757647 -1.1474811 -1.6593194
-8.5583048 -1.1472615 -1.6603144
-8.4535465 -1.1459439 -1.6662852
-8.4108381 -1.136978 -1.6675416
-8.0425177 -0.93192863 -1.660532
-7.822114 -0.75632393 -1.6489458
-7.8057384 -0.71245396 -1.6437786
-7.7658224 -0.67515826 -1.6409128
-7.6538463 -0.47408676 -1.6193981
-7.6128855 -0.44005665 -1.6170501
-7.5879488 -0.4323613 -1.61744
-7.5779672 -0.43958727 -1.619036
-7.1165938 -0.35487735 -1.634307
-7.069212 -0.34197354 -1.6352879
-6.9601979 -0.33140782 -1.6402164
-6.9167361 -0.32302845 -1.6415992
-6.878438 -0.31895748 -1.6432804
-6.7955799 -0.33410174 -1.6502644
-6.7528162 -0.33439696 -1.6528181
-6.6799221 -0.3217977 -1.6553404
-6.3901539 -0.073339105 -1.6376506
-6.3503609 -0.033216357 -1.6343826
-6.289712 -0.15283394 -1.6546587
-5.9931626 -0.31971371 -1.6953977
-5.9119096 -0.33623013 -1.7024791
-5.8655815 -0.34340256 -1.7062031
-5.7494202 -0.34472948 -1.7132132
-5.6710439 -0.32852066 -1.7155533
-5.5926576 -0.32948527 -1.7202934
-5.5288687 -0.33887631 -1.7253532
-5.5313387 -0.37816352 -1.7306973
-5.55128 -0.39805856 -1.7323054
-5.7094755 -0.40552688 -1.7240546
-5.749382 -0.40606332 -1.7217849
-5.9089847 -0.44746274 -1.7181922
-6.0657153 -0.94992638 -1.7791876
-5.8345113 -1.0507048 -1.8068519
-5.7946 -1.0575285 -1.8101501
-5.7546902 -1.0618987 -1.8131055
-5.6691599 -1.0673959 -1.8188987
-5.5936289 -1.0699823 -1.8236976
-5.5494413 -1.0633333 -1.8253647
-5.4753413 -1.0605971 -1.8293359
-5.4297199 -1.0641774 -1.8325166
-5.3499031 -1.0680112 -1.8377415
-5.2593431 -1.0620375 -1.8422275
-5.2194209 -1.0617412 -1.8445315
-5.1794901 -1.058991 -1.8464934
-5.1395683 -1.0586946 -1.8487974
-5.0597248 -1.0581019 -1.8534056
-5.019803 -1.0578055 -1.8557097
-4.9798813 -1.0575092 -1.8580137
-4.93995 -1.0547591 -1.8599756
-4.8601069 -1.0541664 -1.8645836
-4.8201947 -1.0563239 -1.8672301
-4.739428 -1.0585662 -1.8722885
-4.6205764 -1.0523884 -1.8784081
-4.5806456 -1.0496383 -1.8803699
-4.5407147 -1.0468881 -1.8823316
-4.4608898 -1.051203 -1.8876244
-4.2229156 -0.9724046 -1.8905962
-4.1801805 -0.96362698 -1.8918806
-3.9419258 -1.052258 -1.9182619
-3.8621008 -1.056573 -1.9235547
-3.8221791 -1.0562767 -1.9258587
-3.7423358 -1.055684 -1.9304669
-3.702414 -1.0553876 -1.932771
-3.662483 -1.0526375 -1.9347328
-3.5826397 -1.0520449 -1.9393408
-3.5427179 -1.0517484 -1.9416449
-3.4628744 -1.0511558 -1.9462531
-3.4229527 -1.0508595 -1.9485571
-3.3031874 -1.0499704 -1.9554694
-3.2233438 -1.0493777 -1.9600775
-3.1834316 -1.0515351 -1.962724
-3.1035881 -1.0509425 -1.9673321
-3.0636663 -1.0506462 -1.9696362
-3.0237355 -1.047896 -1.9715979
-2.9838138 -1.0475997 -1.973902
-2.9439011 -1.0497571 -1.9765484
-2.8454242 -1.0415816 -1.9811919
-2.8045893 -1.0466194 -1.9842949
-2.7442925 -1.0482755 -1.9880687
-2.6421628 -1.0614326 -1.9959074
-2.5260594 -1.0416337 -1.9999624
-2.4026322 -1.0596317 -2.0097287
-2.3627105 -1.0593315 -2.0120323
-2.2066851 -1.0392325 -2.0183907
-2.0832672 -1.0596839 -2.0284991
-2.0433362 -1.0569303 -2.0304606
-1.9634929 -1.05633 -2.0350676
-1.8863978 -1.0421693 -2.0376186
-1.8473709 -1.0316244 -2.0384381
-1.6876841 -1.0304238 -2.0476522
-1.566083 -1.0377458 -2.0558197
-1.5280242 -1.0365833 -2.0578933
-1.3674059 -1.0358139 -2.0672224
-1.2485809 -1.0369357 -2.0743604
-1.08799 -1.0435264 -2.0847163
-0.8536973 -0.60665202 -2.0374417
-0.90583992 -0.28767514 -1.9898114
-0.984478 -0.21510515 -1.9750519
-0.98040104 -0.20972967 -1.9745404
-0.92600393 -0.17339736 -1.9726599
-0.80709982 0.24617735 -1.9210234
-0.80743599 0.26567379 -1.9182796
-0.76982737 0.23284754 -1.9250757
-0.69098997 0.17893097 -1.9372406
-0.6817708 0.17466751 -1.938378
-0.64184141 0.15461326 -1.9435259
-0.3623724 0.10426137 -1.9669803
-0.34686327 0.10621449 -1.9676186
-0.32242203 0.10926774 -1.9686279
-0.26255798 0.10746568 -1.9723969
-0.2226181 0.11267397 -1.9740157
0.040824413 0.36750004 -1.9538896
0.073022366 0.56947589 -1.9275614
0.093148232 0.61618757 -1.9222174
0.12497663 0.63986325 -1.9207795
0.12753296 0.63221085 -1.9219987
0.13306046 0.61405599 -1.9248601
0.13376904 0.54464591 -1.9345996
0.13352394 0.52611482 -1.9371743
0.13034773 0.50546026 -1.9398736
0.12606716 0.46997753 -1.9445797
0.12519407 0.45567903 -1.9465262
0.11176062 0.40155271 -1.9532994
0.088231564 0.36787841 -1.9566219
0.055667877 0.051382959 -1.998929
0.054495335 -0.025182247 -2.0095577
0.027232647 -0.10591327 -2.0192356
0.010213375 -0.18493667 -2.0292768
-0.024549484 -0.25880715 -2.0375555
-0.12818193 -0.33155102 -2.0416305
-0.44070625 -0.73398864 -2.0794971
-0.18282127 -0.9311229 -2.1221917
-0.14199686 -0.94077587 -2.1259389
0.21151876 -1.0616012 -2.1635902
-0.22452879 -1.1027477 -2.1437206
-0.26165771 -1.1187348 -2.1437728
-0.34866142 -1.1198211 -2.138813
-0.53064394 -1.0682087 -2.1209099
-0.7305398 -1.0591633 -2.1079018
-0.81038284 -1.0626001 -2.1036911
-0.92591906 -1.0985731 -2.1019292
-1.0465341 -1.0946218 -2.0942907
-1.0864575 -1.0951139 -2.0920138
-1.2070799 -1.0862576 -2.0836897
-1.3650875 -1.0966294 -2.0758557
-1.5646129 -1.1628548 -2.0733862
-1.6444564 -1.1662916 -2.0691752
-1.7259967 -1.1539679 -2.0626628
-1.8457634 -1.1578968 -2.0561752
-1.9264553 -1.1534532 -2.0508137
-2.0453806 -1.1603575 -2.0447912
-2.1252275 -1.1613418 -2.0402374
-2.1643064 -1.1672617 -2.0387688
-2.2050745 -1.1623262 -2.0356839
-2.2449982 -1.1628183 -2.033407
-2.2857661 -1.1578827 -2.0303223
-2.3256898 -1.1583748 -2.0280454
-2.4038472 -1.1702148 -2.0251079
-2.4836943 -1.1711991 -2.0205541
-2.5244622 -1.1662633 -2.0174694
-2.5660753 -1.1558999 -2.0135765
-2.645185 -1.1214737 -2.0041187
-2.7632718 -1.0961645 -1.9936447
-2.80404 -1.0912288 -1.9905598
-2.9040265 -1.0811114 -1.9832718
-2.9439392 -1.0789797 -1.9806291
-3.0237818 -1.0796169 -1.9760273
-3.0637031 -1.0799354 -1.9737263
-3.1036246 -1.0802541 -1.9714253
-3.1435459 -1.0805726 -1.9691243
-3.2233882 -1.0812097 -1.9645225
-3.2633097 -1.0815283 -1.9622215
-3.4669323 -1.1386976 -1.958246
-3.5841627 -1.2327279 -1.9644963
-3.6182375 -1.2607646 -1.9664115
-3.7050085 -1.2696289 -1.9625521
-3.7430525 -1.278911 -1.9616138
-3.8030126 -1.30144 -1.9612387
-3.8234403 -1.2987459 -1.9596621
-3.8810434 -1.2807794 -1.9537675
-4.0631661 -1.2218499 -1.934834
-4.1030955 -1.2246186 -1.9328749
-4.2228165 -1.2133236 -1.9242629
-4.3427019 -1.2485809 -1.9221455
-4.4584122 -1.2134964 -1.9104453
-4.6189556 -1.2097236 -1.900486
-4.7046576 -1.1951255 -1.8934112
-4.7825704 -1.1900254 -1.8881211
-4.9422469 -1.1888496 -1.8785756
-5.0230846 -1.2009306 -1.875514
-5.1428576 -1.2043364 -1.8689531
-5.2227697 -1.2245747 -1.8670857
-5.3087754 -1.2246478 -1.8620429
-5.4663262 -1.2301937 -1.8535614
-5.4837856 -1.2304285 -1.8525684
-5.590663 -1.2474554 -1.8486681
-5.6990023 -1.2100929 -1.8370827
-5.8689904 -1.0943757 -1.8109277
-6.1069603 -1.1254559 -1.8012891
-6.1625981 -1.1485003 -1.80124
-6.1842408 -1.151796 -1.8004289
-6.3064523 -1.191916 -1.7988542
-6.3877172 -1.1873059 -1.7934357
-6.4860411 -1.1748039 -1.7859122
-6.6639423 -1.1307057 -1.7692988
-6.8258147 -1.109815 -1.7568697
-7.0302825 -1.0721207 -1.7395902
-7.0716181 -1.0722413 -1.7371786
-7.1899061 -1.0791732 -1.7311974
-7.3039074 -1.0922593 -1.7263279
-7.3854094 -1.1300752 -1.7268232
-7.4253139 -1.1330779 -1.7248982
-7.7392864 -1.2085724 -1.7169997
-7.8608665 -1.3306336 -1.7269108
-7.8814869 -1.3428181 -1.7274017
-7.9207373 -1.3657228 -1.7282959
-7.9606524 -1.395656 -1.7301331
-8.2903471 -1.2317075 -1.6878562
-8.44911 -1.261605 -1.6827059
-8.4610548 -1.2637781 -1.6823076
-8.62677 -1.2712568 -1.6736165
-8.7408943 -1.2942697 -1.6701268
-8.8057423 -1.2758681 -1.6637458
-8.8442421 -1.2425001 -1.6568217
-9.1804667 -1.1604816 -1.6256084
-9.2046223 -1.1638197 -1.6246556
-9.2446165 -1.1639856 -1.622329
-9.3012838 -1.1673956 -1.6194762
-9.4434509 -1.1446545 -1.6079463
-9.5803337 -1.1816943 -1.6050792
-9.6395836 -1.1847994 -1.6020321
-9.6794043 -1.1856376 -1.5998096
-9.7193117 -1.1861395 -1.5975351
-9.8172874 -1.1846746 -1.5915742
-9.8405228 -1.1819327 -1.5898259
-9.8817425 -1.1773939 -1.5867701
-9.9048901 -1.1749879 -1.5850739
-10.079174 -1.1487222 -1.5711646
-10.164227 -1.1354703 -1.564316
-10.195543 -1.1354525 -1.5624737
-10.251528 -1.1414378 -1.5600207
-10.326628 -1.1317389 -1.5542533
-10.363766 -1.1329861 -1.5522456
-10.406443 -1.1302544 -1.5493566
-10.523405 -1.147193 -1.5448514
-10.580772 -1.1454359 -1.5412356
-10.603219 -1.1408012 -1.5392692
-10.771164 -1.1379981 -1.5290105
-10.806901 -1.1126363 -1.5233674
-10.808285 -1.1098012 -1.5228899
-10.828478 -1.0380939 -1.5116847
-10.813245 -0.99002886 -1.5058641
-10.572985 -1.0934812 -1.5344341
-10.531692 -1.0958315 -1.5371885
-10.44911 -1.1078932 -1.5437255
-10.37068 -1.1089964 -1.5484877
-10.332156 -1.1056768 -1.5502871
-10.252338 -1.1022538 -1.5544983
-10.092703 -1.0978618 -1.5632637
-10.049063 -1.1007713 -1.566234
-9.9715977 -1.1066039 -1.5716002
-9.9265385 -1.1026602 -1.5736965
-9.8181944 -1.1130733 -1.5815169
-9.7655067 -1.1060289 -1.5836281
-9.7269974 -1.0952444 -1.5843838
-9.6485806 -1.083958 -1.587414
-9.5644379 -0.51283616 -1.5125612
-9.8823872 -0.50717509 -1.4930902
-9.9627266 -0.50616276 -1.4882286
-9.9746046 -0.49932569 -1.4865755
-10.006218 -0.4732635 -1.4810767
-10.031383 -0.43422917 -1.4741445
-10.031633 -0.38436264 -1.4671624
-10.337813 1.3082055 -1.2126905
-10.290974 1.3128204 -1.2147976
-10.260765 1.3123909 -1.2166324
-10.182333 1.3137416 -1.2210517
-10.083181 1.312363 -1.2270697
-10.062609 1.3151954 -1.2278826
-10.002752 1.3232868 -1.2302687
-9.8431196 1.3227717 -1.2397195
-9.7233944 1.3242255 -1.2465504
-9.6435852 1.3104726 -1.253161
-9.6036768 1.3109573 -1.2554379
-9.5627289 1.3123827 -1.2576445
-9.4961491 1.3065594 -1.2623699
-9.402751 1.3105453 -1.2673002
-9.3243237 1.304535 -1.2727478
-9.2032108 1.3105148 -1.2790279
-9.0834885 1.3046077 -1.2868872
-9.0421963 1.2998036 -1.2899843
-8.963769 1.2962469 -1.2950891
-8.9224758 1.2938966 -1.2978435
-8.8041363 1.2932779 -1.3048825
-8.7243204 1.2942473 -1.3094366
-8.6417379 1.2846391 -1.3156309
-8.6018314 1.28267 -1.3182505
-8.5247841 1.2868556 -1.3221924
-8.4821043 1.2865776 -1.3247387
-8.4435797 1.2898973 -1.3265383
-8.3224707 1.2885162 -1.3338467
-8.2440414 1.2849593 -1.3389516
-8.0857897 1.2946402 -1.3468965
-8.0381298 1.2797008 -1.351784
-8.0032139 1.2727637 -1.3548045
-7.884871 1.2795062 -1.3608154
-7.7252321 1.2912594 -1.3685523
-7.6865282 1.2921509 -1.3707018
-7.5656033 1.2833833 -1.3790313
-7.5254569 1.2767391 -1.3823183
-7.4442096 1.2749665 -1.3873394
-7.2860203 1.2848911 -1.3952466
-7.2047691 1.2782116 -1.4009535
-7.0850477 1.2773807 -1.4081035
-7.0465784 1.2856828 -1.4092038
-6.9653301 1.2814568 -1.4145677
-6.9254227 1.2819977 -1.4168367
-6.8470421 1.2834802 -1.4212346
-6.767231 1.2870152 -1.4254298
-6.6460733 1.2808765 -1.4334056
-6.6061664 1.2814175 -1.4356747
-6.5277929 1.2927138 -1.438701
-6.4080729 1.2943363 -1.4455081
-6.2883492 1.2910519 -1.453001
-6.127285 1.285454 -1.4632459
-6.0873766 1.2835414 -1.4658579
-6.047472 1.2865357 -1.4677839
-6.0075655 1.2870766 -1.470053
-5.9277501 1.2857047 -1.474934
-5.7681236 1.2878683 -1.48401
-5.6883106 1.2889498 -1.488548
-5.6084971 1.2900316 -1.4930861
-5.4488726 1.2946484 -1.5018194
-5.3690572 1.2932765 -1.5067003
-5.2493377 1.2948992 -1.5135074
-5.1695209 1.2910739 -1.5187312
-4.9437432 1.3485554 -1.5239649
-4.9019532 1.3374603 -1.5279703
-4.6644769 1.2993327 -1.5472496
-4.6245642 1.2972012 -1.5498924
-4.5447044 1.3027387 -1.5538106
-4.4258657 1.3118514 -1.5595194
-4.3060589 1.3250576 -1.5647131
-4.1055522 1.3111429 -1.5784374
-4.0646882 1.3082048 -1.5812488
-3.9838848 1.3104855 -1.5856775
-3.9448893 1.3189609 -1.5867844
-3.7862256 1.301441 -1.598554
-3.6655011 1.30404 -1.6052837
-3.5846806 1.3112209 -1.6090287
-3.5029778 1.2979943 -1.615677
-3.4668899 1.2941889 -1.6183288
-3.3851175 1.300563 -1.6222426
-3.3442531 1.2976249 -1.6250539
-3.3071961 1.2979132 -1.6271908
-10.496075 1.2813487 -1.2071447
-10.538757 1.2742659 -1.2056267
-10.574518 1.2554616 -1.2061529
-10.611143 1.17524 -1.2152096
-11.08099 0.99658358 -1.2125669
-11.132484 1.031901 -1.2046069
-11.174294 1.0386883 -1.2012022
-11.174651 1.0179273 -1.2040819
-11.172068 0.99083531 -1.2080189
-11.172435 0.95289874 -1.2132978
-11.171926 0.92883229 -1.2166902
-10.641486 0.38969859 -1.3231816
-10.643688 0.41831967 -1.3190533
-10.641445 0.46821651 -1.3122137
-10.640021 0.54144561 -1.3020658
-10.640001 0.58070445 -1.2965817
-10.638326 0.60406709 -1.293416
-10.635262 0.63063157 -1.2898844
-10.63386 0.6646018 -1.2852206
-10.631344 0.70389104 -1.279879
-10.629649 0.76651263 -1.2712291
-10.622105 0.8843801 -1.2552041
-10.614082 0.92174661 -1.2504547
-10.605986 0.96839857 -1.2444122
-10.599865 1.013037 -1.2385349
-10.377745 1.2635546 -1.216583
-10.215336 1.2720915 -1.2249321
-10.095604 1.2858138 -1.2300493
-10.076959 1.2873372 -1.2309319
-10.015789 1.2843294 -1.234946
-9.9160271 1.2855443 -1.2406373
-9.7963028 1.2869983 -1.2474682
-9.7724714 1.2819822 -1.2495693
-9.7151089 1.2728641 -1.2542135
-9.6352959 1.2664723 -1.2597957
-9.5554733 1.2772563 -1.2629787
-9.435751 1.2738028 -1.2704951
-9.398612 1.2775036 -1.2721601
-9.3201714 1.2960299 -1.2741801
-9.1619244 1.2958961 -1.2834961
-9.1178665 1.2829684 -1.2878908
-8.9953766 1.2713913 -1.2967049
-8.8811884 1.2817314 -1.3019689
-8.7972202 1.2741957 -1.3079551
-8.6761122 1.2703609 -1.3156062
-8.5963001 1.2615154 -1.3215313
-8.4765778 1.2580619 -1.3290477
-8.393158 1.2594731 -1.3337516
-8.3582344 1.2648044 -1.3350585
-8.1986027 1.2642894 -1.3445091
-8.1593866 1.2649646 -1.3467188
-8.1187878 1.2603512 -1.3497486
-8.0362043 1.2531967 -1.3556001
-7.9563837 1.2615269 -1.3591259
-7.8779559 1.2555166 -1.3645735
-7.6779089 1.2553977 -1.3763433
-7.6380005 1.253485 -1.3789551
-7.5972166 1.2487129 -1.3820181
-7.558692 1.2520324 -1.3838177
-7.4783688 1.248288 -1.3890599
-7.4370317 1.2508816 -1.3911262
-7.357213 1.2446028 -1.396693
-7.2389307 1.2539865 -1.4023312
-7.0778613 1.2410283 -1.4136049
-6.9994855 1.2498711 -1.4169741
-6.9182329 1.2407382 -1.4230238
-6.8398595 1.2520345 -1.4260502
-6.6788006 1.2537972 -1.4352664
-6.600421 1.2577331 -1.4393214
-6.4778295 1.2487401 -1.4477804
-6.3994503 1.2526761 -1.4518354
-6.3196335 1.2488509 -1.4570593
-6.2412596 1.2601472 -1.4600855
-6.1186695 1.2536079 -1.4682016
-6.0003843 1.2580845 -1.4745257
-5.8821001 1.2650148 -1.4805068
-5.8407574 1.2602479 -1.4836018
-5.7595086 1.2560219 -1.4889657
-5.6397901 1.260098 -1.4954299
-5.4787259 1.2545002 -1.5056748
-5.4003468 1.2584361 -1.5097299
-5.3604403 1.2589769 -1.5119989
-5.2587109 1.2415186 -1.5204149
-5.138947 1.2424743 -1.5273178
-5.0191655 1.2483302 -1.5335369
-4.9402575 1.2546742 -1.5372866
-4.8594627 1.2545048 -1.5420572
-4.7796206 1.2551419 -1.546659
-4.619935 1.2564162 -1.5558628
-4.5001974 1.2500215 -1.563791
-4.4602847 1.2478899 -1.5664338
-4.4203634 1.2482084 -1.5687348
-4.380425 1.2534273 -1.5703521
-4.3414464 1.2570026 -1.5721426
-4.2606525 1.2568331 -1.5769131
-4.1808095 1.2574701 -1.581515
-4.1418319 1.2610455 -1.5833055
-4.0211072 1.2636448 -1.5900351
-3.9802687 1.2533562 -1.593872
-3.9403648 1.2487744 -1.5968566
-3.8614306 1.2624689 -1.5995808
-3.8215008 1.2652375 -1.6015399
-3.7814951 1.2725497 -1.6028686
-3.7091961 1.2734839 -1.6069858
-3.6617808 1.2763124 -1.6093763
-3.6209164 1.2733741 -1.6121877
-3.5819206 1.2818496 -1.6132946
-3.4621744 1.277905 -1.6208811
-3.3832574 1.2866992 -1.6242889
-3.3024802 1.2816296 -1.629743
-6.4720011 -0.39484492 -1.6777623
-6.273798 -0.91616559 -1.7622453
-6.752573 -0.57983232 -1.6871243
-10.642639 0.30586186 -1.3348274
-10.642409 0.21673647 -1.3472934
-10.637455 0.15790173 -1.3558048
-10.642464 0.11858228 -1.3610042
-10.646369 0.064959198 -1.3682668
-10.64748 0.059640259 -1.3689448
-10.653614 -0.0046345592 -1.3775648
0 0 0 1 0 0 0 1 0 0 0 1 0 0 0 0 0 603 1 0 0
