ply
format ascii 1.0
comment PCL generated
element vertex 564
property float x
property float y
property float z
element camera 1
property float view_px
property float view_py
property float view_pz
property float x_axisx
property float x_axisy
property float x_axisz
property float y_axisx
property float y_axisy
property float y_axisz
property float z_axisx
property float z_axisy
property float z_axisz
property float focal
property float scalex
property float scaley
property float centerx
property float centery
property int viewportx
property int viewporty
property float k1
property float k2
end_header
-11.440277 -0.42939508 -4.6753225
-11.465431 -0.40709788 -4.6742234
-11.431122 -0.20895885 -4.6788764
-11.759611 0.10908362 -4.6648951
-11.778312 0.10963273 -4.663857
-11.747091 0.15128474 -4.6661777
-11.768427 0.57301575 -4.670804
-11.766437 0.59150773 -4.6711707
-11.688856 0.61590642 -4.6758461
-11.687582 0.61149758 -4.6758566
-11.689074 0.55062544 -4.674933
-11.724672 0.15079491 -4.6674247
-11.421719 -0.0082305223 -4.6821723
-11.404471 -0.0068325773 -4.683156
-11.205311 -0.34715134 -4.6895971
-10.844534 -0.37360781 -4.7094078
-10.806128 -0.34650758 -4.7119298
-10.766025 -0.32347894 -4.7144904
-10.686608 -0.32057172 -4.7189717
-10.451973 0.080781266 -4.7376318
-10.457019 0.11892185 -4.7378759
-10.449783 0.15895067 -4.738833
-10.446379 0.23844202 -4.7401199
-10.44655 0.24086772 -4.7401438
-10.383417 0.31925344 -4.7447562
-10.357475 0.35995984 -4.746769
-10.325291 0.60074252 -4.7518911
-10.608615 0.82553136 -4.7391491
-10.688465 0.82763094 -4.7347126
-10.728398 0.82993048 -4.732511
-10.808201 0.82453161 -4.7279739
-10.84773 0.83705026 -4.7259359
-10.888441 0.88911766 -4.7243776
-10.898591 0.91656172 -4.7241888
-10.89884 0.95655298 -4.7247267
-11.214013 1.2881607 -4.7116776
-11.251444 1.2891411 -4.7095976
-11.293879 1.2927598 -4.7072744
-11.252766 1.3010482 -4.7096882
-11.173055 1.3214438 -4.7144275
-11.094572 1.3387498 -4.7190552
-10.933364 1.3553208 -4.7282991
-10.813721 1.310746 -4.7343745
-10.692724 1.3119359 -4.7411575
-10.491925 1.3185246 -4.7524776
-10.45207 1.3287225 -4.7548475
-10.412169 1.3314219 -4.7571158
-10.294918 1.3333409 -4.7636995
-10.21499 1.3187439 -4.7679677
-10.09404 1.3274324 -4.7748518
-9.9647732 1.3037374 -4.7817535
-9.8861637 1.3013601 -4.7861171
-9.80758 1.301482 -4.790513
-9.7664433 1.3049943 -4.7928624
-9.684062 1.3020217 -4.7974281
-9.5917034 1.2978979 -4.8025365
-9.5829706 1.2986035 -4.8030343
-9.5629215 1.2975827 -4.8041415
-9.4444599 1.2942944 -4.8107209
-9.4033499 1.3003061 -4.8131027
-9.3372412 1.299064 -4.8167825
-9.3260136 1.2997934 -4.8174205
-9.2874002 1.3045356 -4.8196454
-9.2449884 1.3061833 -4.8220401
-9.2068129 1.3006506 -4.8240986
-9.0450439 1.3032351 -4.8331809
-8.9630289 1.3051026 -4.8377929
-8.9243612 1.3048462 -4.839952
-8.832056 1.305721 -4.8451262
-8.8050041 1.3057827 -4.8466396
-8.7658386 1.2957274 -4.848691
-8.684679 1.2896208 -4.8531456
-8.6062012 1.29974 -4.8576741
-8.5662327 1.2951196 -4.8598452
-8.4888439 1.2896081 -4.8640971
-8.6084576 1.2759765 -4.8572197
-8.6484261 1.2805969 -4.8550482
-8.6859264 1.288986 -4.8530669
-8.8068953 1.284717 -4.8462434
-8.8854256 1.2795963 -4.8417811
-8.9253407 1.2792181 -4.8395433
-8.964035 1.2819737 -4.8374176
-9.0463896 1.282447 -4.8328185
-9.1250544 1.2898231 -4.8285213
-9.1662169 1.28881 -4.8262053
-9.207408 1.2902962 -4.8239222
-9.2436066 1.2943215 -4.8219533
-9.3658228 1.2894176 -4.8150511
-9.4481773 1.2898909 -4.810452
-9.4855175 1.2832839 -4.8082728
-9.52668 1.282271 -4.8059568
-9.5678978 1.2862566 -4.8037071
-9.64534 1.2967666 -4.799521
-9.7641516 1.2961078 -4.7928677
-9.7800579 1.2942441 -4.7919526
-9.8848352 1.2944968 -4.7860966
-9.8960609 1.2950132 -4.7854757
-9.9229565 1.2950308 -4.7839723
-9.9272738 1.2953483 -4.7837348
-9.9833775 1.2941856 -4.7805815
-10.045666 1.2848507 -4.7769694
-10.083005 1.2782438 -4.7747898
-10.328027 0.84001839 -4.7550402
-10.247414 0.71544534 -4.7578292
-10.15194 0.4902283 -4.7600608
-10.236959 0.43879706 -4.7545962
-10.324793 0.32013094 -4.7480469
-10.363715 0.15996562 -4.74366
-10.363606 0.14246941 -4.7434244
-10.36342 0.11247592 -4.743021
-10.364384 0.079429731 -4.7425113
-10.365504 0.039667398 -4.7419
-10.651293 -0.36278468 -4.7203641
-10.618128 -0.44250673 -4.7211185
-10.321092 -0.58804721 -4.7357211
-10.288568 -0.59778905 -4.7374058
-9.8889151 -0.49223351 -4.7612119
-9.8639202 -0.45189571 -4.7631664
-9.3023119 -0.56608653 -4.7929974
-9.2646713 -0.40583915 -4.7973137
-9.1059809 -0.2842288 -4.8078666
-9.0667343 -0.24389473 -4.8106179
-8.9115257 -0.082432374 -4.8215256
-8.8882151 -0.16219923 -4.8217287
-8.5849495 -0.40395993 -4.8353519
-8.3052635 -0.31598765 -4.8522067
-8.0400515 0.086600944 -4.8725939
-8.0346127 0.11534594 -4.8732948
-8.0303993 0.18787391 -4.8745313
-8.0076361 0.27495235 -4.8770056
-7.9963946 0.38879412 -4.8792052
-7.9965262 0.39375311 -4.8792663
-7.995976 0.63527596 -4.8826303
-8.0156622 0.67294163 -4.8820491
-8.0593576 0.79250765 -4.8812556
-8.0980616 0.91336679 -4.8807588
-8.0984907 0.95335615 -4.8812866
-8.098918 0.9933455 -4.8818145
-8.4088516 1.2753688 -4.8683739
-0.23565245 1.3712854 -5.3267674
-0.19746494 1.37217 -5.3289151
-0.2401247 1.3968499 -5.32687
-0.27768755 1.4116791 -5.3249741
-0.35651827 1.4124191 -5.3205757
-0.45111275 1.4292899 -5.3155189
-0.48698902 1.426896 -5.3134794
-0.57032156 1.429168 -5.3088503
-0.68981886 1.4286878 -5.3021612
-0.7303462 1.4301904 -5.2999153
-0.80989408 1.4274907 -5.2954297
-0.69498014 1.3818939 -5.3012266
-0.65514755 1.3820541 -5.3034568
-0.62731123 1.382724 -5.3050227
-0.51969385 1.3680496 -5.3108382
-0.47951174 1.360929 -5.3129873
-0.45497465 1.3664367 -5.3144355
-0.55269384 -1.2164161 -5.2733283
-0.59435081 -1.1960887 -5.2712789
-0.63430071 -1.193874 -5.2690754
-0.67502022 -1.1925989 -5.2668161
-0.71490812 -1.1978812 -5.2645125
-0.72237349 -1.2004335 -5.2640595
-0.8737483 -1.2105737 -5.2554545
-0.91361618 -1.2006856 -5.2533612
-0.99443007 -1.197372 -5.2488875
-1.0344005 -1.1926582 -5.2467175
-1.1127167 -1.1913474 -5.2423558
-1.1917834 -1.1934752 -5.237905
-1.2340446 -1.1940795 -5.2355332
-1.314003 -1.2018428 -5.2309546
-1.3914275 -1.1948965 -5.2267208
-1.4729295 -1.1848494 -5.2223015
-1.5529327 -1.1679248 -5.218061
-1.7094412 -1.1802971 -5.2091379
-1.7899261 -1.1639599 -5.2048621
-1.8294353 -1.1561598 -5.2027602
-1.9085436 -1.1532896 -5.1983762
-1.9500756 -1.1479563 -5.1961269
-1.9892755 -1.1423028 -5.1940131
-2.0292459 -1.1375891 -5.1918426
-1.9523249 -1.1582723 -5.195859
-1.8731542 -1.1686397 -5.2001433
-1.8331213 -1.1808505 -5.2022138
-1.7132106 -1.1949917 -5.208724
-1.6724491 -1.2012646 -5.210917
-1.6391945 -1.2050921 -5.2127242
-1.5250216 -1.2423972 -5.2185941
-1.4684949 -1.250123 -5.2216487
-1.428545 -1.2523378 -5.2238522
-1.3505406 -1.2161635 -5.2287135
-1.2473936 -1.2023027 -5.234673
-1.2316499 -1.2012564 -5.235568
-1.1116967 -1.2203958 -5.242012
-0.78804064 -1.3518083 -5.2582984
-0.62940836 -1.3141258 -5.2676897
-0.58966684 -1.2913505 -5.2702265
-0.54738808 -1.2735555 -5.2728362
-0.22632551 -1.2461575 -5.2911692
-0.18385363 -1.2412647 -5.293612
-0.10240221 -1.2169853 -5.298502
-0.064202785 -1.1761777 -5.3012013
-0.064497948 -1.1363858 -5.301734
-0.064311504 -1.1236929 -5.3019195
-0.064049721 -1.095906 -5.3023176
-0.064079285 -1.0558685 -5.3028684
-0.079777718 -0.94097233 -5.303576
-0.077365398 -0.90098172 -5.3042626
-0.084084988 -0.86021376 -5.3044496
-0.086663723 -0.8202275 -5.3048573
-0.085843563 -0.77709687 -5.3054981
-0.07687664 -0.69789726 -5.3070927
-0.066977024 -0.65790004 -5.308198
-0.07043457 -0.57635528 -5.3091302
-0.075697422 -0.501095 -5.3098745
-0.070735455 -0.45874602 -5.3107362
-0.066706181 -0.3771947 -5.3120871
-0.061881065 -0.29721344 -5.3134604
-0.067886829 -0.218027 -5.3142176
-0.067110062 -0.18225104 -5.3147545
-0.067120075 -0.17725247 -5.3148232
-0.068026543 -0.15054649 -5.3151407
-0.068984509 -0.098847747 -5.3158007
0.00073289871 0.21596642 -5.3240438
0.010550976 0.25854588 -5.3251805
-0.015719414 0.33498144 -5.3247662
-0.02987957 0.34580469 -5.3241234
-0.030914307 0.20908152 -5.3221788
-0.080559731 -0.095716581 -5.3151965
-0.07800436 -0.18040346 -5.3141708
-0.083679676 -0.26117086 -5.3127389
-0.075178146 -0.34035504 -5.3121214
-0.075042725 -0.37798738 -5.3116097
-0.075095654 -0.3803435 -5.3115745
-0.081484795 -0.49952936 -5.3095722
-0.085596561 -0.54109222 -5.3087687
-0.082168579 -0.58029234 -5.3084197
-0.080440521 -0.62106472 -5.3079538
-0.093465805 -0.73947114 -5.3055911
-0.10665083 -0.8580249 -5.3032179
-0.093848705 -0.93784338 -5.3028321
-10.837813 -1.0029001 -4.7010999
-10.87906 -1.0994236 -4.6974611
-10.837771 -1.1108994 -4.6996117
-10.759151 -1.1159757 -4.7039385
-10.679365 -1.1103485 -4.708478
-10.639448 -1.1100342 -4.7107148
-10.559639 -1.1069063 -4.7152209
-10.494617 -1.1199985 -4.7186766
-10.479984 -1.1214499 -4.7194748
-10.135484 -1.2296033 -4.7372479
-10.096815 -1.2319791 -4.7393775
-9.9207764 -1.2535181 -4.7489247
-9.7821312 -1.272414 -4.7564178
-9.6577511 -1.2276798 -4.7639904
-9.5779476 -1.2243985 -4.7684989
-9.4956522 -1.2155837 -4.7732224
-9.4557371 -1.2151928 -4.7754602
-9.4154253 -1.2072029 -4.7778249
-9.3411922 -1.2050905 -4.7820053
-9.2629032 -1.1795802 -4.7867355
-8.7015228 -1.1610426 -4.8183851
-8.5789614 -1.1993623 -4.8247104
-8.5689831 -1.1992648 -4.8252697
-8.5477524 -1.198802 -4.8264637
-8.5392857 -1.1990217 -4.8269339
-8.5240784 -1.198825 -4.8277874
-8.4556112 -1.1773915 -4.8319116
-8.3758898 -1.1666116 -4.8365188
-8.216176 -1.1700473 -4.8454032
-8.1787539 -1.17519 -4.847425
-8.0989237 -1.1744082 -4.8519001
-8.0163326 -1.1930889 -4.8562608
-7.9789639 -1.1932324 -4.8583488
-7.9178185 -1.1923789 -4.8617802
-7.84303 -1.192156 -4.8659654
-7.8209262 -1.1594415 -4.8676529
-7.8572631 -1.1365346 -4.8659372
-7.7294316 -0.57550335 -4.8808279
-7.5178061 -0.57249409 -4.892704
-7.2872877 -0.73073244 -4.9034119
-7.2666931 -0.73020655 -4.9045706
-6.9773335 -0.48901576 -4.9240808
-6.8532152 -0.427912 -4.9318652
-6.5498357 -0.32384193 -4.9502673
-6.4526892 -0.36325938 -4.9551558
-6.307838 -0.44096243 -4.9621844
-6.2120242 -0.42078686 -4.9678206
-6.0125079 -0.35870737 -4.979835
-5.9326105 -0.31774151 -4.9848685
-5.9315753 -0.31717843 -4.9849343
-5.9228039 -0.27753335 -4.9859719
-5.6153946 0.045891479 -5.0076261
-5.5764356 0.045730397 -5.0098028
-5.535593 0.041566983 -5.0120292
-5.260252 -0.27560216 -5.0230503
-5.253633 -0.47549158 -5.0206618
-5.2574186 -0.62296629 -5.0184155
-5.2744484 -0.6755591 -5.016737
-5.3359752 -0.83374143 -5.0111136
-5.2534227 -1.0979482 -5.012084
-5.1336856 -1.1144964 -5.0185518
-5.0938206 -1.1092391 -5.0208535
-4.9741044 -1.1084619 -5.0275593
-4.9341989 -1.1082027 -5.0297947
-4.8942528 -1.1129415 -5.0319629
-4.8543472 -1.1126825 -5.0341983
-4.4921198 -1.1009773 -5.0546165
-4.4306307 -1.1071478 -5.05797
-4.4117575 -1.1076632 -5.0590186
-4.3857374 -1.1068563 -5.0604849
-4.3093929 -1.0682296 -5.0652871
-4.0933313 -1.0658988 -5.0774021
-4.0533648 -1.0731367 -5.0795374
-4.0150089 -1.0763144 -5.0816383
-3.9750628 -1.0810535 -5.083807
-4.0589743 -0.50644475 -5.0870438
-3.5899196 -0.73995477 -5.1100526
-3.8920915 -1.0811583 -5.0884457
-3.8553059 -1.085274 -5.090446
-3.73404 -1.0810597 -5.0972857
-3.6925442 -1.0823617 -5.0995884
-3.6112044 -1.0759075 -5.1042261
-3.5330043 -1.0713291 -5.1086626
-3.4931192 -1.068571 -5.1109309
-3.4132881 -1.0705516 -5.1153679
-3.2879303 -1.0965384 -5.1220198
-3.1723673 -1.0580629 -5.1290135
-3.1340728 -1.0537436 -5.1312146
-3.0941877 -1.0509855 -5.1334829
-3.0558522 -1.0516642 -5.1356177
-2.8725352 -1.0554912 -5.1458163
-2.8315487 -1.0695636 -5.1479144
-2.8099155 -1.0738471 -5.149065
-2.7523565 -1.0824299 -5.1521654
-2.710887 -1.0802662 -5.1545143
-2.6701674 -1.0815413 -5.156774
-2.5926003 -1.086291 -5.161046
-2.4335518 -1.0985886 -5.1697707
-2.3520699 -1.1061367 -5.1742234
-2.2683597 -1.1008698 -5.1789775
-2.1891689 -1.1137359 -5.1832285
-2.1092072 -1.1256623 -5.1875358
-11.242868 -0.40643346 -4.6866789
-11.22346 -0.40658528 -4.6877623
-11.20421 -0.40682536 -4.6888356
-10.849657 -0.76147717 -4.7037692
-8.9424191 0.54417735 -4.828445
-8.9579239 0.59402221 -4.8282661
-8.9949417 0.55742329 -4.8256907
-9.0081005 0.50418431 -4.8242202
-8.9967146 0.48867184 -4.8246427
-7.683094 1.3059818 -4.9093828
-7.5115218 1.3245178 -4.9192338
-7.4923644 1.3242753 -4.9203014
-7.3925776 1.3252102 -4.9258947
-7.3086696 1.3055271 -4.9303155
-7.2300925 1.3030882 -4.9346762
-7.1489835 1.3045236 -4.9392319
-7.0704331 1.3045841 -4.9436255
-6.9108009 1.3085793 -4.9526076
-6.8297448 1.3150133 -4.9572296
-6.71136 1.3229457 -4.9639592
-6.6303306 1.3318789 -4.9686141
-6.5930023 1.3333772 -4.9707222
-6.5531402 1.3387499 -4.9730258
-6.513279 1.3441224 -4.9753289
-6.4734173 1.3494951 -4.977632
-6.3911085 1.3591157 -4.982368
-6.3112788 1.3598636 -4.9868426
-6.2726169 1.3570509 -4.988966
-6.2313962 1.3556131 -4.991251
-6.1501803 1.3470514 -4.9956751
-5.9895878 1.3817254 -5.0051341
-5.8688574 1.3431597 -5.0113535
-5.7983513 1.3428491 -5.0152922
-5.7906275 1.3430483 -5.015727
-5.6582232 1.3041698 -5.0225949
-5.5821037 1.3055583 -5.0268707
-5.4292622 1.2671245 -5.0348878
-5.3242712 1.2878605 -5.0410452
-5.2688565 1.2966713 -5.0442657
-5.245882 1.2946664 -5.0455232
-5.4436197 1.0662253 -5.0313125
-5.458889 0.74681753 -5.026051
-5.4232979 0.68466276 -5.0271835
-5.3822908 0.58256608 -5.0280681
-5.3594661 0.54778647 -5.0288644
-5.3807468 0.43760765 -5.026154
-5.4959345 0.066918522 -5.0145969
-6.8023677 0.7322033 -4.9507179
-6.7842898 0.89356709 -4.9539557
-6.7841835 0.9061923 -4.9541359
-7.1115479 1.2960249 -4.9412084
-7.1921773 1.2873065 -4.9365788
-7.2724071 1.2863437 -4.9320788
-7.3435373 1.2850018 -4.9280825
-7.3535161 1.2849082 -4.9275231
-7.3572259 1.2855489 -4.9273248
-7.5536499 1.2827375 -4.9163013
-7.5768218 1.2821405 -4.9149971
-7.8669071 0.99679017 -4.8948369
-7.8773561 0.83687335 -4.892046
-7.7069449 0.61604559 -4.8985281
-7.7062254 0.60135067 -4.898366
-7.7037826 0.55654031 -4.8978839
-7.7432356 0.51707518 -4.895133
-7.6980028 0.06363295 -4.8914051
-7.2542863 0.0047628284 -4.9154067
-7.2151856 0.029811189 -4.9179392
-7.1762185 0.052273631 -4.9204283
-6.9009495 0.26319164 -4.9387326
-6.8787899 0.29089409 -4.9403543
-0.92999029 1.4287927 -5.2887316
-1.2112174 1.4474152 -5.2732615
-1.3696899 1.389776 -5.2636037
-1.4526095 1.3828948 -5.2588716
-1.4917026 1.378603 -5.2566261
-1.5729809 1.3586096 -5.2518053
-1.8099923 1.4181722 -5.2393727
-2.0121975 1.3555346 -5.2272005
-2.1319842 1.3546959 -5.22049
-2.292819 1.3951046 -5.2120533
-2.3303518 1.4098663 -5.2101579
-2.4386387 1.4109793 -5.2041178
-2.4918399 1.4096267 -5.2011237
-2.5017982 1.4095867 -5.2005663
-2.5302033 1.4112886 -5.1990013
-2.5707798 1.3950593 -5.1965084
-2.6902161 1.36941 -5.1894751
-2.771009 1.3702151 -5.184968
-2.9297078 1.3400648 -5.1756768
-3.0123396 1.337096 -5.1710148
-3.0935585 1.333488 -5.1664233
-3.1334815 1.3358828 -5.1642237
-3.1747675 1.327381 -5.1617975
-3.4159594 1.4008284 -5.149323
-3.4546432 1.4015117 -5.1471691
-3.4569621 1.4016178 -5.1470408
-3.6137638 1.3162367 -5.1370935
-3.7347705 1.282535 -5.1298614
-3.6151369 1.3078393 -5.1369009
-3.5352912 1.3030497 -5.1413002
-3.3756616 1.3084652 -5.1503019
-3.2958574 1.3136722 -5.1548367
-3.2549229 1.321949 -5.1572399
-3.1754487 1.3219327 -5.161684
-3.0959747 1.3219162 -5.1661282
-3.0551846 1.3225833 -5.1684189
-3.0425363 1.3227283 -5.1691279
-2.9734282 1.3240297 -5.1730108
-2.9613066 1.3238372 -5.173686
-2.8903847 1.3193966 -5.1775908
-2.8665142 1.3240849 -5.1789904
-2.8562794 1.3261825 -5.1795917
-2.8107328 1.3449455 -5.1823978
-2.6503086 1.3545165 -5.1915011
-2.5797858 1.3709555 -5.195672
-2.3702626 1.384918 -5.2075815
-2.3297501 1.3733 -5.2096872
-2.2909904 1.3620304 -5.211699
-2.2502093 1.3532698 -5.2138586
-2.1709785 1.3353802 -5.2180429
-2.1602058 1.3339069 -5.2186251
-2.0495343 1.3357508 -5.2248392
-1.9698348 1.3436874 -5.2294059
-1.9330082 1.3426428 -5.231451
-1.889977 1.3442466 -5.2338796
-1.8500481 1.3445262 -5.2361164
-1.8100786 1.3398077 -5.2382865
-1.7701702 1.3425863 -5.2405567
-1.7302823 1.3478638 -5.2428598
-1.6527362 1.3455554 -5.2471647
-1.6119547 1.3367949 -5.2493243
-1.5720263 1.3370744 -5.2515612
-1.415761 1.3400692 -5.2603416
-1.3333263 1.3502908 -5.2650924
-1.2911196 1.3811655 -5.267879
-1.1698799 1.4241983 -5.2752528
-5.9331269 -0.23634146 -4.9859629
-5.6291933 0.10534154 -5.0076747
-5.6320868 0.20566799 -5.0088973
-5.5843515 0.34571683 -5.0134997
-5.5503397 0.66597563 -5.0198212
-5.5707231 0.70577717 -5.0192304
-5.568655 0.74578905 -5.0198984
-5.6264939 0.98499119 -5.0199647
-5.8717098 1.3164911 -5.0108261
-6.0727234 1.3289294 -4.9997563
-6.2285438 1.3294959 -4.9910502
-6.5851145 1.0158751 -4.9667821
-6.5690851 0.61441153 -4.9621382
-6.5312386 0.57477361 -4.9637079
-6.5415993 0.4934417 -4.9620061
-6.4786625 0.096706912 -4.9600511
-6.0005503 -0.23823974 -4.9821663
-4.2514048 0.40808523 -5.0889025
-4.2417178 0.47808677 -5.0904102
-4.1708307 0.56663865 -5.0955968
-4.1445975 0.518327 -5.0963969
-4.1519146 0.47832155 -5.0954356
-4.0627642 0.07891269 -5.0949097
-4.062438 0.03892833 -5.0943761
-4.0459647 -0.14590216 -5.0927467
-4.0203714 -0.22570895 -5.0930767
-4.0250335 -0.2657257 -5.0922637
-4.0193605 -0.38582224 -5.0909238
-4.0190053 -0.39314342 -5.0908422
-4.017272 -0.41219771 -5.0906763
-3.5057731 -0.65943545 -5.115869
-3.4536014 -0.63410503 -5.1191363
-3.1794426 -0.57762742 -5.1352477
-2.9756949 -0.32017878 -5.1501946
-2.9569182 -0.25693434 -5.1521173
-2.9578969 -0.13698125 -5.153718
-2.9208908 -0.023986883 -5.1573467
-2.9189243 -0.016790755 -5.1575561
-2.8748689 0.14378434 -5.1622353
-2.8642249 0.16653012 -5.1631446
-2.8426676 0.44830626 -5.1682386
-2.8129783 0.52629036 -5.1709752
-2.8089542 0.5256846 -5.1711917
-2.8079343 0.52383244 -5.1712232
-2.8089147 0.41044372 -5.1696038
-2.8087182 0.40555799 -5.1695471
-2.7127666 0.16664006 -5.1716161
-2.7101626 0.14495693 -5.1714625
-2.7998981 -0.16807666 -5.1621246
-2.7792058 -0.25539988 -5.1620765
-2.7835307 -0.33540374 -5.1607308
-2.8402877 -0.37706411 -5.1569819
-2.8600769 -0.39718586 -5.1555977
-2.9637945 -0.97395235 -5.1418381
-2.8941407 -1.0167336 -5.145143
-2.7093673 -1.0758878 -5.1546597
-2.6686258 -1.0796618 -5.1568861
-2.6286969 -1.0793777 -5.1591229
-2.5903096 -1.0809728 -5.1612477
-2.4712524 -1.0860577 -5.1678357
-2.1521764 -1.1347036 -5.185008
-2.1913767 -1.12905 -5.1828938
-2.2721291 -1.1155643 -5.1785641
-4.2631884 0.18757404 -5.0852008
-4.3119688 0.052302912 -5.080606
-4.5395494 -0.17909718 -5.0646858
-4.5834579 -0.1878075 -5.0621099
-4.6595445 -0.23026535 -5.0572691
-5.01899 -0.35331267 -5.03547
-8.2468529 1.2931476 -4.8776789
-8.2830248 1.2946734 -4.8756771
-8.3241892 1.2936603 -4.8733611
-8.3292074 1.2936208 -4.8730798
-8.3666267 1.2945119 -4.8709993
-8.4028263 1.2985371 -4.8690305
-7.8851151 1.297822 -4.8979726
-8.0062981 1.3135476 -4.8914127
-8.1259384 1.3024153 -4.8845687
-8.1683502 1.3007675 -4.882174
-7.8489699 1.2987956 -4.9000077
-7.7889528 1.302851 -4.90342
-7.7629523 1.3077245 -4.9049411
-7.7091765 1.3085974 -4.9079604
-3.8938837 1.279956 -5.1209278
-3.8944104 1.2796186 -5.120894
-3.8550243 1.2793853 -5.1230931
0 0 0 1 0 0 0 1 0 0 0 1 0 0 0 0 0 564 1 0 0
