ply
format ascii 1.0
comment PCL generated
element vertex 657
property float x
property float y
property float z
element camera 1
property float view_px
property float view_py
property float view_pz
property float x_axisx
property float x_axisy
property float x_axisz
property float y_axisx
property float y_axisy
property float y_axisz
property float z_axisx
property float z_axisy
property float z_axisz
property float focal
property float scalex
property float scaley
property float centerx
property float centery
property int viewportx
property int viewporty
property float k1
property float k2
end_header
0.040280342 -0.22436181 -1.6947305
-0.010495186 -0.17854074 -1.6844587
-0.079722881 -0.14434004 -1.6713952
-0.085055828 -0.14321107 -1.670439
-0.096918583 -0.14500916 -1.6684554
-0.35777903 -0.30998752 -1.629009
-0.39417076 -0.31090239 -1.6227705
-0.53249788 -0.28184694 -1.597975
-0.65332794 -0.27210617 -1.5768361
-0.90002251 0.20921299 -1.5183215
-0.88788605 0.22921571 -1.5197465
-0.9042449 0.30884337 -1.5142784
-0.96528959 0.32813531 -1.5031207
-0.99901247 0.32915354 -1.4972775
-1.0096889 0.31892365 -1.4957788
-1.0145741 0.31388474 -1.495105
-0.90490913 0.20417428 -1.5176474
-0.73311663 -0.27993441 -1.5633521
-0.73847055 -0.30124915 -1.5631392
-0.74583864 -0.35126477 -1.5635345
-0.8309288 -0.66686213 -1.5593796
-0.84360075 -0.68324745 -1.557742
-0.87050915 -0.74592537 -1.5551926
-0.88408422 -0.78570396 -1.554178
-0.90186501 -0.82733607 -1.5525005
-1.1563921 -1.0506797 -1.5160878
-1.2007847 -1.0523639 -1.5084965
-1.2238412 -1.0537045 -1.5045693
-1.2451777 -1.0540482 -1.5009053
-1.307292 -1.0557382 -1.4902616
-1.3516803 -1.0524275 -1.4825048
-1.468853 -1.0534761 -1.4623554
-1.49191 -1.0548166 -1.458428
-1.5576339 -1.0518496 -1.4470074
-1.6250811 -1.0523769 -1.4354063
-1.6694739 -1.0540612 -1.4278152
-1.742254 -1.0534256 -1.4152567
-1.8150389 -1.057785 -1.4028635
-1.8807588 -1.0498228 -1.3912776
-1.9765999 -1.0555229 -1.3749573
-2.0209925 -1.0572072 -1.3673661
-2.0316608 -1.0573791 -1.3655341
-2.0884423 -1.0602319 -1.3558476
-2.1541643 -1.0547674 -1.3443444
-2.1932218 -1.055117 -1.3376278
-2.3281209 -1.0611665 -1.3145909
-2.3441217 -1.0601754 -1.3118017
-2.4612901 -1.0562291 -1.2914865
-2.516351 -1.0580852 -1.2820632
-2.6796415 -1.0668101 -1.2542248
-2.7400286 -1.0600109 -1.243596
-2.795085 -1.0568719 -1.2340074
-2.8341427 -1.0572214 -1.2272907
-2.9243188 -1.0660679 -1.2120512
-2.9794323 -1.0593214 -1.2023325
-3.0184827 -1.0571904 -1.1955347
-3.0575373 -1.0575564 -1.1888192
-3.1746969 -1.0561574 -1.1685903
-3.3148608 -1.0672301 -1.1448138
-3.3699746 -1.0604835 -1.1350951
-3.4427247 -1.0602572 -1.1225555
-3.5598886 -1.0613549 -1.102409
-3.6540613 -1.0574709 -1.0860572
-3.6824069 -1.0609139 -1.0812888
-3.7995663 -1.059515 -1.0610601
-3.8776712 -1.05775 -1.0475467
-3.9327984 -1.0584936 -1.0380751
-4.0392442 -1.0576749 -1.0197111
-4.1510673 -1.0678014 -1.0007852
-4.229176 -1.0685331 -0.98735428
-4.26824 -1.0738924 -0.98080337
-4.3180122 -1.0761745 -0.97230536
-4.3907628 -1.0759482 -0.95976555
-4.5132766 -1.0730107 -0.93856323
-4.5967317 -1.0672104 -0.92399395
-4.6748543 -1.0754323 -0.91080993
-4.7866545 -1.0730752 -0.8914724
-4.9198823 -1.0695572 -0.8684051
-4.9482279 -1.0730001 -0.86363673
-5.0209823 -1.0752704 -0.85117942
-5.1044416 -1.071967 -0.83669245
-5.275351 -1.077363 -0.80743068
-5.386466 -1.0801139 -0.78838122
-5.4936171 -1.0804434 -0.769934
-5.5716028 -1.0765178 -0.75636923
-5.7001877 -1.0908122 -0.73469454
-5.7391968 -1.0838547 -0.72774315
-5.9490628 -0.69584966 -0.67867815
-5.8289657 -0.49110365 -0.69255245
-5.830832 -0.47825819 -0.69180346
-5.9030852 -0.44301337 -0.67818397
-6.0421705 -0.24630308 -0.64767814
-6.0502901 -0.21725458 -0.64531267
-6.0814342 -0.16192599 -0.63810635
-6.1205506 -0.12250216 -0.63005602
-6.1713295 -0.085779235 -0.62008655
-6.2883992 -0.052419513 -0.5988096
-6.342351 -0.10306631 -0.59120119
-6.6283102 -0.40559331 -0.55200899
-6.9494753 -0.5684815 -0.502105
-7.2189398 -0.18534559 -0.44293547
-7.3211694 -0.14786097 -0.42407754
-7.3641024 -0.13718922 -0.41632661
-7.3750105 -0.1475257 -0.41479155
-7.330719 -0.20793234 -0.42443171
-7.2573824 -0.57283449 -0.44920886
-7.2864895 -0.63181674 -0.44615769
-7.5575247 -1.0846431 -0.41453838
-7.6065712 -1.0871167 -0.40617177
-7.6513877 -1.0890019 -0.39851427
-7.6572194 -1.0903523 -0.39755467
-7.6280298 -1.0935898 -0.40269068
-7.5832133 -1.0917046 -0.41034815
-7.5168638 -1.0930578 -0.42182282
-7.4662676 -1.0876032 -0.43035716
-7.4506321 -1.0849782 -0.43296313
-7.3336859 -1.0808768 -0.45297223
-7.310328 -1.0854647 -0.45714864
-7.2986569 -1.0852611 -0.45915231
-7.193398 -1.0763686 -0.47698864
-7.1719151 -1.0773878 -0.48072326
-7.121243 -1.0816445 -0.48959389
-7.0315857 -1.0853665 -0.50516236
-6.9926014 -1.0848317 -0.51186019
-6.908792 -1.0849096 -0.52630007
-6.7021885 -1.0845302 -0.56187755
-6.6632118 -1.0814981 -0.56849086
-6.5423098 -1.0724778 -0.58901769
-6.435142 -1.0771433 -0.60763401
-6.3454852 -1.0808654 -0.62320244
-6.1953692 -1.0825747 -0.64911884
-6.1232309 -1.0828558 -0.66155499
-6.0783982 -1.0859655 -0.6693815
-5.8298974 -1.2112448 -0.71635836
-5.810884 -1.2209306 -0.71995598
-5.7387209 -1.228704 -0.73264575
-5.5711355 -1.2188697 -0.76118726
-5.4541149 -1.2372451 -0.78195715
-5.4150891 -1.2491975 -0.78907764
-5.331089 -1.2518082 -0.80363458
-5.2915649 -1.2488837 -0.81034577
-5.2825489 -1.2486067 -0.81188977
-5.1544771 -1.2215545 -0.83305144
-5.0266223 -1.2335207 -0.85547447
-4.9878755 -1.2180786 -0.86163515
-4.8703141 -1.1821232 -0.88068998
-4.7194996 -1.2065849 -0.90748394
-4.5365214 -1.2203043 -0.93946093
-4.360395 -1.2529407 -0.97088712
-4.1594329 -1.2527461 -1.0054991
-4.0759697 -1.2535527 -1.0199037
-3.8692005 -1.2492325 -1.0553784
-3.7861381 -1.2085078 -1.0683317
-3.6949072 -1.1913111 -1.0834751
-3.6143394 -1.1805696 -1.0969965
-3.3754849 -1.1463296 -1.1370029
-3.3310757 -1.1475022 -1.1446919
-3.281312 -1.1502135 -1.1533546
-3.2369027 -1.1513861 -1.1610438
-3.1924937 -1.1525588 -1.1687329
-3.14273 -1.15527 -1.1773956
-3.0753298 -1.1514611 -1.1888794
-3.0202117 -1.1557109 -1.1985157
-2.9811571 -1.1553451 -1.2052312
-2.9528115 -1.1519021 -1.2099994
-2.7858839 -1.1535156 -1.2388086
-2.7805295 -1.1550541 -1.2397822
-2.70242 -1.1543224 -1.2532132
-2.5175259 -1.1566319 -1.2851405
-2.5031047 -1.1558976 -1.2876003
-2.4196568 -1.1563613 -1.3019907
-2.3104649 -1.1335882 -1.3200426
-2.2660742 -1.1344016 -1.3277166
-2.2110178 -1.1375406 -1.3373053
-2.1772935 -1.1360281 -1.3430643
-2.1275699 -1.1380043 -1.3516957
-1.9980037 -1.1307919 -1.3737751
-1.9376147 -1.1350935 -1.3843212
-1.8985572 -1.1347439 -1.3910377
-1.8257744 -1.1328821 -1.4035134
-1.7760515 -1.1348581 -1.4121447
-1.7369938 -1.1345085 -1.4188613
-1.7032688 -1.1329962 -1.4246205
-1.6358194 -1.1299713 -1.4361389
-1.5860958 -1.1319475 -1.4447701
-1.5363722 -1.1339235 -1.4534014
-1.5026484 -1.1324112 -1.4591606
-1.4582572 -1.1332245 -1.4668345
-1.3908081 -1.1301997 -1.478353
-1.3570833 -1.1286873 -1.4841121
-1.2913609 -1.1341518 -1.4956155
-1.2008505 -1.1247914 -1.5108956
-0.97883224 -1.0564302 -1.5468662
-0.79779005 -1.110965 -1.579868
-0.79489803 -1.1121497 -1.5804056
-0.76992846 -1.1126072 -1.5847222
-0.75095797 -1.1117564 -1.5879617
-0.57229614 -1.0988806 -1.6183102
-0.35498619 -1.1493595 -1.6574246
-0.33566427 -1.1497395 -1.6607656
-0.31370306 -1.1500188 -1.6645581
-0.047268867 -1.1061232 -1.708994
-0.042571545 -1.0671499 -1.7085061
-0.050596237 -0.94447112 -1.7030411
-0.055298805 -0.71224129 -1.6945024
-0.053293228 -0.70517194 -1.6946125
-0.041004658 -0.5835613 -1.6926823
0.036766052 -0.34729129 -1.6982162
0.06621933 -0.26497248 -1.7005503
-6.2815051 1.272342 -0.55590904
-6.3380122 1.2727013 -0.54616296
-6.3711696 1.2760258 -0.54034048
-6.4586344 1.2767878 -0.52524817
-6.4881229 1.2744098 -0.52024758
-6.5270982 1.2713737 -0.51363462
-6.6109195 1.2739258 -0.49911034
-6.6557298 1.2695241 -0.49153763
-6.6947145 1.2689855 -0.48483998
-6.76683 1.2642789 -0.4725737
-6.8564868 1.2654653 -0.45708969
-6.9519949 1.2702808 -0.44047689
-7.006588 1.2646761 -0.43125901
-7.0787301 1.267462 -0.4187389
-7.123558 1.2680552 -0.41099694
-7.2015266 1.2669778 -0.39760169
-7.2405105 1.2664392 -0.3909041
-7.2638688 1.2659717 -0.38689587
-7.2911654 1.2631693 -0.38228694
-7.3243141 1.2639964 -0.37654907
-7.3808384 1.2693505 -0.36663383
-7.4417515 1.2685089 -0.35616881
-7.359386 1.2732847 -0.3701984
-7.2587729 1.2699761 -0.38764048
-7.219058 1.2703733 -0.39446867
-7.1527858 1.2762117 -0.40569064
-7.0806527 1.2759235 -0.41812608
-7.0277915 1.2730162 -0.42732885
-6.9578562 1.2764075 -0.43926328
-6.9461684 1.2741439 -0.44135201
-6.8740182 1.2688606 -0.45395666
-6.7629347 1.2791009 -0.47275147
-6.7166462 1.2782247 -0.48075446
-6.6401381 1.2795849 -0.49388868
-6.5953102 1.2789917 -0.50163066
-6.4998102 1.2766736 -0.51815891
-6.4276943 1.2813799 -0.53042519
-6.3224206 1.2827623 -0.54851401
-6.2659049 1.2799053 -0.5583446
-6.1548047 1.2851505 -0.57730854
-6.0875444 1.284795 -0.58890682
-6.0647745 1.2813962 -0.59294236
-6.0261388 1.2770104 -0.5997439
-6.014451 1.2747469 -0.60183257
-5.9306216 1.2696974 -0.61644137
-6.0027633 1.2724831 -0.60392129
-6.0534353 1.2742083 -0.59513497
-6.1703877 1.2725923 -0.57504213
-11.17565 0.79939097 0.27143228
-11.207005 0.92125243 0.28088915
-11.201303 0.9601 0.28119981
-11.195002 1.0013247 0.28148627
-11.192657 1.0413153 0.28241313
-11.170906 1.1215093 0.28133523
-11.139317 1.1618652 0.27723646
-11.076006 1.1851342 0.26710474
-10.959053 1.1965854 0.24733919
-10.844625 1.2467177 0.22929585
-10.803215 1.2559767 0.2224707
-10.660479 1.3193979 0.19999313
-10.309408 1.3267457 0.13976109
-10.303978 1.3257029 0.13879102
-10.206097 1.2908893 0.12077099
-10.04532 1.2839375 0.092843652
-10.029093 1.2848091 0.0900774
-9.9634342 1.2956395 0.079127192
-9.938139 1.2972662 0.074824035
-9.8970394 1.3013363 0.067879438
-9.8580523 1.3043211 0.061262727
-9.824852 1.3059206 0.055596828
-9.7858715 1.3114028 0.049064279
-9.7063255 1.2991076 0.034952223
-9.6183081 1.3061311 0.020023882
-9.5677662 1.3193784 0.011758327
-9.4851627 1.2964914 -0.0032328963
-9.4291058 1.2946942 -0.012949347
-9.3221626 1.2901061 -0.03152442
-9.1503181 1.274514 -0.061645806
-9.0665369 1.2718782 -0.076165974
-8.9885693 1.2803447 -0.089315116
-8.949584 1.2833295 -0.09593153
-8.8325958 1.2797959 -0.11620188
-8.7489586 1.2609611 -0.13123637
-8.6534138 1.2573144 -0.14781642
-8.5538311 1.2696056 -0.16456187
-8.4252777 1.2713394 -0.18664926
-8.386302 1.279319 -0.19309765
-8.2693253 1.2807806 -0.21319985
-8.1523323 1.2747493 -0.2335541
-8.0685511 1.2721136 -0.24807438
-8.0063858 1.2656531 -0.25899813
-7.9284077 1.269125 -0.27231538
-7.8288016 1.2714262 -0.28939721
-7.7840233 1.2732983 -0.29704863
-7.7334414 1.269063 -0.3059029
-7.6712685 1.2714732 -0.31653288
-7.6381283 1.2731435 -0.32218608
-7.6280489 1.2727492 -0.32393545
-7.6206045 1.2722454 -0.32523459
-7.5558567 1.2748358 -0.33630207
-7.5153317 1.2736275 -0.34332326
-11.17556 0.75943083 0.27008677
-11.153475 0.6423409 0.26238561
-11.151833 0.64102852 0.26205909
-11.143603 0.63994652 0.26060551
-10.887905 0.32463622 0.20606446
-10.884276 0.20361316 0.20141178
-10.894808 0.14471763 0.20126581
-10.896297 -0.01825586 0.19609869
-10.899757 -0.087490648 0.19439054
-10.898193 -0.13771883 0.19244975
-10.904334 -0.21742167 0.19085491
-10.899305 -0.28479338 0.18774658
-10.899248 -0.30976838 0.18690544
-10.8981 -0.33744949 0.18578649
-10.898732 -0.37727046 0.18457019
-10.875481 -0.57645595 0.17393601
-10.874655 -0.62155008 0.17229283
-10.793015 -0.67321503 0.15651
-10.790527 -0.65372169 0.15673023
-10.777704 -0.57430553 0.15716422
-10.754486 -0.4704302 0.15662163
-10.404676 -0.25662065 0.10347778
-10.431504 -0.23399302 0.10885221
-10.716816 0.24329671 0.17388511
-10.702744 0.28402609 0.17281646
-10.699888 0.30095237 0.17288786
-10.697134 0.36283374 0.17447293
-10.697226 0.40279377 0.17581862
-10.693085 0.52332145 0.17911655
-10.695058 0.5621472 0.1807484
-10.661913 0.74599493 0.18115723
-10.674229 0.8032853 0.18518555
-10.674412 0.88320535 0.18787682
-10.654781 0.95981854 0.18704492
-10.327986 1.2599275 0.14073759
-10.27317 1.2653515 0.13147527
-10.216806 1.2649989 0.12175435
-10.138812 1.260978 0.10818487
-10.08823 1.2567427 0.099330604
-10.021847 1.2674344 0.088250935
-9.9670467 1.2803509 0.079240859
-9.9362926 1.2849317 0.074095428
-9.9128399 1.2864094 0.070104599
-9.879652 1.293004 0.064606905
-9.7900848 1.2917533 0.049136102
-9.7236786 1.292455 0.037720084
-9.6293983 1.2878027 0.021324396
-9.6034374 1.2907929 0.016951859
-9.4954948 1.2865 -0.0017856359
-9.4116898 1.2738743 -0.016642332
-9.3669014 1.2707515 -0.024461746
-9.2831192 1.2681155 -0.038982034
-9.2614908 1.2669451 -0.042746663
-9.1919975 1.2530837 -0.055179179
-9.1155214 1.2478592 -0.068527043
-9.1097298 1.2467468 -0.069561779
-9.0765123 1.2408535 -0.075480044
-9.0043373 1.250433 -0.08759439
-8.8309708 1.239054 -0.11783767
-8.713994 1.2405152 -0.13793981
-8.6302185 1.2403769 -0.15237582
-8.5522461 1.2463462 -0.16560906
-8.4916315 1.2481604 -0.17599028
-8.4468708 1.257525 -0.18338925
-8.4352989 1.2602952 -0.18529058
-8.357337 1.2712593 -0.19835562
-8.240344 1.2652283 -0.21870989
-8.1681461 1.2648172 -0.23116067
-8.1117783 1.2619672 -0.24096552
-8.0337887 1.2604437 -0.25445104
-7.9558043 1.2614179 -0.26785237
-7.856204 1.2662168 -0.28485015
-7.7940388 1.2597563 -0.29577398
-7.7608442 1.2638535 -0.30135584
-7.6654158 1.2678437 -0.31766179
-7.647893 1.2669456 -0.32071024
-7.6362138 1.2671795 -0.32271436
-7.5757599 1.2666574 -0.33314577
-7.5600924 1.2651765 -0.33589393
-7.5396786 1.2642467 -0.33944145
-7.5153084 1.2645512 -0.34362939
-8.6595993 -1.3212309 -0.23256513
-8.5512161 -1.2865789 -0.25008228
-8.485218 -1.2830935 -0.26133534
-8.3253365 -1.2519405 -0.28784031
-8.1970482 -1.2789774 -0.31083941
-8.0348635 -1.2334948 -0.33726427
-8.0018673 -1.2228504 -0.34259409
-7.8013906 -1.1016662 -0.37309581
-7.7566037 -1.0973706 -0.38066795
-7.7798328 -1.0950596 -0.37658951
-7.8304338 -1.0956557 -0.36789262
-7.8578062 -1.0985627 -0.36327419
-7.9747691 -1.1025689 -0.34325907
-7.9863806 -1.102662 -0.34126192
-8.0137587 -1.1030718 -0.33655933
-8.0369825 -1.1032581 -0.33256498
-8.1091461 -1.1079633 -0.32029036
-8.1929283 -1.1102645 -0.30593431
-8.2260971 -1.1169642 -0.30044353
-8.3918562 -1.1879227 -0.27425095
-8.4872198 -1.2028034 -0.25831848
-8.5532188 -1.2062886 -0.24706522
-8.6705856 -1.1927384 -0.22639638
-8.8731251 -1.1376841 -0.18967408
-8.92978 -1.123487 -0.17944199
-9.1363544 -0.81159222 -0.13347697
-9.1434727 -0.6492961 -0.12684959
-9.14291 -0.49073207 -0.12166947
-9.0944519 -0.37023169 -0.1260066
-9.0784731 -0.33038631 -0.12743324
-9.098012 -0.28908363 -0.12269282
-9.1090679 -0.28162071 -0.1205399
-9.299509 -0.12674084 -0.082579434
-9.3102093 -0.11810963 -0.080448925
-9.382473 -0.080360338 -0.066744328
-9.4337234 -0.048555166 -0.056857347
-9.4879417 -0.034326792 -0.047044039
-9.5775375 -0.032928452 -0.031563342
-9.6281223 -0.041016504 -0.023118734
-9.9577103 -0.27171773 0.025979578
-10.035297 -0.28774649 0.038811564
-10.071677 -0.29062879 0.044982433
-10.073853 -0.29142666 0.045330644
-9.9964848 -0.36710992 0.029484272
-9.9942369 -0.36938715 0.029021263
-9.9581089 -0.40983737 0.021451533
-9.9001446 -0.43162292 0.010741293
-9.6850948 -0.68857896 -0.034855187
-9.6856575 -0.84714299 -0.040035486
-9.988184 -1.0970113 0.0037631989
-10.027174 -1.0975143 0.01046294
-10.100209 -1.1000669 0.022959352
-10.150768 -1.1058216 0.031477213
-10.042898 -1.1153121 0.012579441
-10.031286 -1.1152191 0.010582268
-9.9864941 -1.113421 0.0029260516
-9.8985691 -1.1059017 -0.011969924
-9.8479681 -1.1053056 -0.020666838
-9.7915459 -1.1109062 -0.030572653
-9.7135916 -1.099911 -0.043635488
-9.6804047 -1.1007035 -0.049378753
-9.6687927 -1.1006103 -0.051375926
-9.6297979 -1.1026046 -0.058159709
-9.590807 -1.1021016 -0.064859629
-9.5634289 -1.1016918 -0.069562197
-9.4796295 -1.1068828 -0.084170461
-9.2758179 -1.1711018 -0.12141705
-9.0874882 -1.2870312 -0.15771741
-9.0844288 -1.2865927 -0.15822977
-8.9275131 -1.2958353 -0.18556827
-8.894309 -1.3041196 -0.19156379
-8.8727217 -1.3099997 -0.19547814
-8.8436785 -1.3160102 -0.20068127
-8.749898 -1.3296714 -0.21729088
-8.7440958 -1.3283763 -0.21824735
-0.82067871 1.3250656 -1.494854
-0.70350933 1.3211219 -1.5151691
-0.76389551 1.3302824 -1.5044619
-10.497393 -1.0935574 0.091596067
-10.506203 -1.1362944 0.091691315
-10.475945 -1.1376196 0.086434841
-10.448317 -1.137941 0.08166486
-10.355761 -1.1143066 0.066507578
-10.250374 -1.1081228 0.048559189
-10.199799 -1.1098607 0.039788961
-10.160812 -1.1068761 0.033172309
-10.217186 -1.1015282 0.043061376
-10.228764 -1.1018008 0.045046866
-10.300956 -1.1038874 0.057413399
-10.442331 -1.0931658 0.082123935
-10.490158 -1.0924505 0.090386748
-0.93785477 1.3190193 -1.47487
-1.0159726 1.3158212 -1.4615196
-1.1154218 1.3171384 -1.4443443
-1.014246 1.3240743 -1.4615424
-0.93079424 1.3286412 -1.4757659
-0.88106871 1.3292313 -1.4843123
-0.86506701 1.328342 -1.4870983
0.24455595 1.3859489 -1.6763284
0.27150011 1.3055139 -1.6836467
0.26464987 1.3038609 -1.6825218
0.25244951 1.3062432 -1.6803408
0.16366291 1.3260655 -1.6643864
0.1192627 1.3322315 -1.6565326
0.066534042 1.34354 -1.6470731
-0.014488697 1.3443699 -1.6330884
-0.12043762 1.321588 -1.6155953
-0.29427481 1.3235912 -1.585583
-0.34406567 1.3113222 -1.5774142
-0.37239313 1.3178658 -1.5723166
-0.42215252 1.3230739 -1.5635715
-0.47450113 1.3193581 -1.5546775
-0.6076746 1.3191962 -1.531742
-0.098917007 1.3728578 -1.6175963
-0.23214912 1.3738792 -1.5946114
-0.33425617 1.3416295 -1.5780953
-0.39637184 1.3375418 -1.5675311
-0.49336672 1.3563643 -1.5501961
-0.49547434 1.3562717 -1.549836
-0.57394028 1.3331635 -1.5370883
-4.1858988 1.2987077 -0.91602743
-4.2249575 1.295845 -0.90939432
-4.3084302 1.2916584 -0.89515436
-4.3528485 1.2878377 -0.88762993
-4.4256077 1.2830706 -0.87525481
-4.4718733 1.2809632 -0.86735511
-4.5144348 1.2804227 -0.86004132
-4.5427761 1.2794764 -0.85519063
-4.620894 1.273751 -0.84192431
-4.676012 1.2780008 -0.83228803
-4.6989942 1.2780128 -0.82832867
-4.7397223 1.2781277 -0.82130885
-4.7824626 1.2763228 -0.81400645
-4.9049854 1.274267 -0.79296863
-4.9884806 1.257597 -0.77914029
-5.0666027 1.2493751 -0.76595628
-5.1554303 1.246727 -0.75074273
-5.2174668 1.2463729 -0.7400679
-5.2281804 1.2469532 -0.73820305
-5.3067966 1.2558391 -0.72436464
-5.3574858 1.2625587 -0.71540916
-5.2463593 1.2603118 -0.73462689
-5.1837535 1.2557673 -0.74556285
-5.1625299 1.2552624 -0.74923563
-5.1333365 1.2570953 -0.75420362
-5.088017 1.2580261 -0.76197958
-5.054317 1.2599304 -0.76772147
-4.8926544 1.3097894 -0.79391062
-4.8038363 1.3074441 -0.8092888
-4.7257671 1.2857056 -0.8234607
-4.5978942 1.2837262 -0.84555435
-4.5695486 1.2871692 -0.85032266
-4.4860802 1.2888591 -0.86464494
-4.4133167 1.2961228 -0.87693769
-4.2961302 1.3097041 -0.89667261
-4.2517257 1.3060346 -0.90444398
-4.2073164 1.3048618 -0.91213316
-4.0901613 1.3009663 -0.93244427
-4.0296888 1.2951779 -0.94305414
-3.9906301 1.2980404 -0.94968724
-3.9569254 1.3024416 -0.95534688
-3.8841751 1.3022153 -0.96788663
-3.8344157 1.2970071 -0.97663164
-3.7172699 1.2881181 -0.99710739
-3.672874 1.2794554 -1.0050435
-3.6284781 1.2707925 -1.0129795
-3.5840602 1.2746134 -1.020504
-3.4883275 1.2743752 -1.037003
-3.6161828 1.2863414 -1.01458
-3.660583 1.2925074 -1.0067263
-3.7333288 1.2952304 -0.99410427
-3.8167791 1.3035274 -0.97945273
-3.8895295 1.3037539 -0.96691304
-3.9729934 1.3045604 -0.95250845
-4.0457525 1.2997935 -0.94013333
-6.9073539 -0.62539017 -0.51125497
-6.6417623 -1.0725279 -0.57188737
-6.3136692 -0.6746043 -0.61516279
-6.3196073 -0.64348853 -0.61310434
-0.8987937 1.3243649 -1.4814208
-0.87040234 1.3269734 -1.4862248
-1.2432647 1.3133502 -1.4224477
-1.3320479 1.3124096 -1.4071848
-1.2219329 1.3088343 -1.4262727
-1.1882081 1.3103137 -1.4320331
-1.1775403 1.3105533 -1.4338627
-1.1598163 1.312922 -1.4368371
-2.1912713 1.3621449 -1.2575171
-2.0794334 1.3618276 -1.2767932
-1.9675608 1.4064665 -1.2945793
-1.8450551 1.4063885 -1.315685
-1.6834915 1.4066613 -1.3435075
-1.6391008 1.4058826 -1.3511803
-1.5396862 1.3596089 -1.3698457
-1.4101634 1.3117089 -1.3937519
-3.3267767 1.2618165 -1.0652503
-3.2877264 1.2596858 -1.0720482
-3.2325997 1.2604294 -1.0815197
-3.1705627 1.2607834 -1.0921946
-3.0871124 1.2524865 -1.1068461
-2.9875715 1.2545543 -1.1239245
-2.9538581 1.2639487 -1.1294194
-2.8366899 1.2675431 -1.1494837
-2.7922716 1.271364 -1.1570082
-2.719517 1.2736342 -1.1694655
-2.7087991 1.2755504 -1.171248
-2.5321722 1.2942941 -1.2010505
-2.47069 1.2986641 -1.2114962
-2.4026029 1.3063359 -1.2229698
-2.3124692 1.3012602 -1.2386655
-2.2961559 1.3010387 -1.241483
-2.274766 1.3026314 -1.2451148
-2.2303734 1.3043504 -1.2527047
-2.1906493 1.3045597 -1.2595408
-2.1362572 1.304162 -1.2689238
-2.0918586 1.3133736 -1.2762654
-2.0634673 1.3159819 -1.2810694
-2.0190706 1.3226962 -1.2884939
-1.9960141 1.323936 -1.2924244
-1.9178989 1.3246367 -1.3058574
-1.8521724 1.3243375 -1.3171897
-1.7953932 1.324559 -1.3269633
-1.7403302 1.329015 -1.3363003
-1.701273 1.3293655 -1.3430167
-1.6835492 1.3317342 -1.3459911
-1.5894368 1.3265505 -1.3623757
-1.5557179 1.3205371 -1.3683844
-1.5450521 1.3182793 -1.3702968
-1.4953299 1.3138742 -1.3790088
-1.427887 1.3093402 -1.3907776
-1.3888292 1.3096907 -1.3974941
-2.2587204 1.3591862 -1.2459967
-2.2072725 1.3630342 -1.2547312
0.051897526 1.3483963 -1.6443902
-0.020843506 1.353616 -1.631686
-1.1651478 1.3165486 -1.4357979
-3.4048769 1.2660782 -1.0516547
-3.3711858 1.2629893 -1.0575612
-3.3428271 1.2739224 -1.0620825
-3.3037679 1.2767851 -1.0687157
-3.0976613 1.3454449 -1.1019354
-2.9858429 1.3530746 -1.1209435
-2.8970244 1.3507292 -1.1363218
-2.8428588 1.3621833 -1.1452713
-2.8038011 1.3625336 -1.1519879
-2.7540774 1.3606262 -1.1606169
-2.7203526 1.3621056 -1.1663772
-2.6315715 1.3605485 -1.1817228
-2.6031797 1.3631568 -1.1865268
-2.5250647 1.3638575 -1.1999599
-2.4860089 1.3617103 -1.2067592
-2.4700079 1.360821 -1.2095451
-2.4202843 1.3589134 -1.2181742
-5.384799 1.2647514 -0.71063107
-5.5407705 1.2725866 -0.68350214
-5.5583019 1.2759821 -0.68036914
-5.6421146 1.2760367 -0.6659295
-5.7025514 1.2715638 -0.65566736
-5.7649112 1.2755525 -0.64479232
-5.8311915 1.2722116 -0.63348579
-5.8760366 1.2777996 -0.62557465
-5.8818722 1.2764339 -0.62461489
-5.4023566 1.2756391 -0.70724416
-3.4492774 1.2722442 -1.0438008
-5.6850109 1.2656708 -0.658885
-5.7746587 1.26436 -0.64348561
0 0 0 1 0 0 0 1 0 0 0 1 0 0 0 0 0 657 1 0 0
