ply
format ascii 1.0
comment PCL generated
element vertex 290
property float x
property float y
property float z
element camera 1
property float view_px
property float view_py
property float view_pz
property float x_axisx
property float x_axisy
property float x_axisz
property float y_axisx
property float y_axisy
property float y_axisz
property float z_axisx
property float z_axisy
property float z_axisz
property float focal
property float scalex
property float scaley
property float centerx
property float centery
property int viewportx
property int viewporty
property float k1
property float k2
end_header
-4.5072637 -0.16142423 3.4028666
-4.1741829 -0.59812045 3.3383758
-4.1359692 -0.60859889 3.3349123
-4.132833 -0.63346213 3.3322439
-4.1328397 -0.65079796 3.3305225
-4.1335392 -0.67886978 3.3277788
-4.1727648 -0.74033546 3.3241606
-4.6139979 -0.71884322 3.3542688
-4.6523156 -0.72298884 3.3562863
-4.6545634 -0.68786001 3.3599179
-4.6529722 -0.64209282 3.3643627
-4.6454458 -0.52314705 3.3756998
-5.0000072 -0.24161212 3.4261413
-5.0358324 -0.24573387 3.4280031
-5.2797532 -0.65209287 3.4031065
-5.2739162 -0.68735689 3.3992338
-5.2672143 -0.71835893 3.3957298
-5.3179321 -0.79803085 3.391032
-5.4328055 -0.98441792 3.3798022
-5.8714757 -1.0188534 3.4041929
-5.9114861 -1.0808353 3.4005733
-6.0726643 -1.0807048 3.4108047
-6.1508141 -1.0931777 3.4145203
-6.1923285 -1.0868758 3.4177783
-6.2737312 -1.0859292 3.423033
-6.3535061 -1.0867453 3.4280095
-6.3950205 -1.0804434 3.4312675
-6.5163069 -1.0675371 3.4402387
-6.5944576 -1.0824835 3.4437089
-6.7124934 -1.0928909 3.4501584
-6.8704171 -1.1037064 3.4590962
-6.9518199 -1.1002861 3.4645967
-6.9917068 -1.1006941 3.4670851
-7.1943994 -1.0942616 3.4805744
-7.229403 -1.1073785 3.4814906
-7.4435282 -1.1189497 3.4939165
-7.6030588 -1.1528453 3.500664
-7.6662493 -1.135069 3.5064359
-7.8887053 -1.1581336 3.5182483
-7.922657 -1.1723961 3.5189841
-7.9645257 -1.1740417 3.5214751
-8.0403748 -1.1782074 3.5258701
-8.1049862 -1.1793771 3.52985
-8.1199455 -1.1745846 3.5312746
-8.2811403 -1.1551394 3.5434253
-8.3609142 -1.155992 3.5483983
-8.4008045 -1.1489896 3.5516229
-8.5603657 -1.1259327 3.5640287
-8.6667891 -0.80963469 3.6021914
-8.680912 -0.76633179 3.6073878
-8.6903553 -0.72226006 3.6123638
-9.0533295 -0.51893556 3.6555707
-9.0640182 -0.51737219 3.6564038
-9.3410473 -0.2263837 3.7028687
-9.3645067 -0.22423793 3.7045693
-9.4124861 -0.22331284 3.7077029
-9.5437775 -0.18126215 3.7202032
-9.6430197 -0.18927248 3.7256994
-9.6836243 -0.18802892 3.7283971
-9.7291307 -0.14745791 3.7353117
-9.891818 -0.067847267 3.7535331
-9.902647 -0.060349628 3.7549644
-9.9028425 -0.026621833 3.7583268
-9.9067707 0.011244774 3.7623367
-9.9000826 0.066933587 3.7674439
-9.9025764 0.14615504 3.7754705
-9.9000826 0.18580371 3.7792506
-9.8942451 0.26890162 3.7871339
-9.89923 0.30847442 3.7913804
-9.9000835 0.3442972 3.7949927
-9.8975906 0.42356923 3.8027081
-9.8975906 0.46319261 3.8066437
-9.8958845 0.5500406 3.8151615
-9.9017239 0.58581281 3.8190846
-9.899231 0.62546146 3.8228648
-9.8992319 0.66508484 3.8268003
-9.8834209 0.74828386 3.8340616
-9.8817816 0.78413188 3.8375182
-9.8867683 0.9425748 3.8535714
-9.8881702 0.98446494 3.857821
-9.8958874 1.0651444 3.8663235
-9.8791885 1.1451852 3.8732147
-9.878437 1.1841915 3.8770413
-9.8509617 1.26814 3.8836374
-9.8393698 1.3041021 3.8864744
-9.7936592 1.3479929 3.8879359
-9.7721424 1.3503487 3.8868058
-9.6513739 1.3886452 3.8829529
-9.6324902 1.3855331 3.8814466
-9.4521217 1.3416903 3.8656569
-9.4103966 1.3477789 3.8636165
-9.2909346 1.3346534 3.854739
-9.1745396 1.3236382 3.8462658
-9.0516109 1.3347018 3.839571
-8.7724266 1.3946072 3.8278213
-8.6910048 1.3644401 3.8196628
-8.65275 1.3587221 3.8166697
-8.5316563 1.3542117 3.8085444
-8.3719044 1.3579005 3.7987828
-8.2123566 1.359584 3.788835
-8.0827227 1.3584751 3.7805064
-7.853919 1.4413202 3.774229
-7.8140316 1.4417409 3.7717419
-7.7462101 1.4412738 3.7673957
-7.7335415 1.4409344 3.7665589
-7.6922159 1.4256765 3.7624235
-7.5733624 1.401581 3.7524951
-7.5538888 1.4016098 3.7512634
-7.533782 1.4027083 3.7500978
-7.514502 1.4031987 3.7489243
-7.4940996 1.4036 3.7476704
-7.4749141 1.4043072 3.7465243
-7.3739905 1.4023951 3.7399361
-7.0732908 1.3594897 3.7166107
-6.9137077 1.3089242 3.7014711
-6.7541566 1.3055241 3.6910181
-6.6743722 1.3261087 3.6880045
-6.6368895 1.332261 3.6862392
-6.5551081 1.3282335 3.6806543
-6.514822 1.3202326 3.6773055
-6.3962717 1.2918499 3.6669705
-6.3160944 1.2916652 3.661869
-6.1941142 1.312066 3.656162
-6.1542273 1.3099779 3.6534259
-6.1143394 1.3078898 3.6506896
-6.0345659 1.3012376 3.6449714
-5.9946823 1.2892454 3.6412518
-5.915122 1.2508848 3.6323977
-5.7165818 1.2549865 3.620218
-5.6770949 1.2563351 3.6178484
-5.5958109 1.2634128 3.6133981
-5.5570288 1.2565386 3.6102567
-5.4761486 1.2571486 3.6051896
-5.3966737 1.2561692 3.6000538
-5.3149934 1.2499059 3.5942533
-5.0984955 1.2529805 3.580833
-5.0584097 1.252889 3.5782826
-5.0352731 1.2538973 3.576916
-4.9391265 1.2698169 3.5724015
-4.8609271 1.2569823 3.566169
-4.7961254 1.2204453 3.5584316
-4.7413292 1.1169448 3.5446777
-4.7416315 1.1027877 3.5432909
-4.7410617 1.061756 3.5391793
-4.7413888 0.99806613 3.5328741
-4.7373304 0.85448951 3.5183563
-4.7000513 0.74703127 3.5053198
-4.6998577 0.74160951 3.5047691
-4.6963229 0.53481144 3.484005
-4.6157384 0.37495235 3.4630184
-4.5755939 0.29537416 3.4525695
-4.535253 0.2153275 3.4420614
-4.5352507 0.15695757 3.4362638
-4.4947438 -0.022618398 3.4158595
-4.4952431 -0.041254595 3.4140401
-4.4947848 -0.12663324 3.4055312
0.70036793 -0.89892828 2.9994597
0.66052294 -0.97876656 2.9940562
0.61804533 -1.0185316 2.9927998
0.57946777 -1.0299698 2.9941092
0.45975447 -1.0434066 3.0003643
0.41988468 -1.0574965 3.0014925
0.26142788 -1.0998019 3.0073366
0.18071032 -1.0988125 3.0125523
0.061878681 -1.0729595 3.0226538
-0.098901272 -1.0730902 3.0328341
-0.17725801 -1.1057243 3.0345602
-0.21745634 -1.1274276 3.0349531
-0.22428846 -1.1302632 3.0351048
-0.42421556 -1.0829669 3.0524774
-0.62348032 -1.172478 3.0562198
-0.74476814 -1.1879263 3.0623751
-0.78355575 -1.1919997 3.0644295
-0.82457805 -1.1884922 3.0673785
-0.90438819 -1.1890577 3.0723822
-0.94541049 -1.1855502 3.0753314
-1.0252204 -1.1861161 3.0803349
-1.0651252 -1.186399 3.0828369
-1.1449349 -1.1869646 3.0878406
-1.1859577 -1.183457 3.0907896
-1.2635324 -1.1916035 3.0948987
-1.3023198 -1.1956768 3.0969532
-1.3411071 -1.1997501 3.0990076
-1.3810077 -1.1975565 3.1017551
-1.3832471 -1.1924521 3.1024041
-1.4650645 -1.0616151 3.1205862
-1.6203907 -0.98261881 3.1382799
-1.7971196 -0.98505843 3.1492419
-2.25982 -1.0835963 3.1687891
-2.4194489 -1.0896806 3.1783051
-2.460494 -1.0985552 3.1800258
-2.6172261 -1.1241649 3.1874187
-2.6539719 -1.1295975 3.1892087
-2.6938653 -1.1398858 3.1907163
-2.7337551 -1.1402676 3.1932073
-2.7767856 -1.1281691 3.1971369
-2.859704 -1.1114992 3.2040496
-2.9347649 -1.1136481 3.2085948
-3.0020766 -1.1093395 3.2132902
-3.05286 -1.1136042 3.2160861
-3.0943184 -1.102793 3.2197883
-3.2522967 -1.0857953 3.2314923
-3.4882002 -1.0347443 3.2515187
-3.5330806 -1.0475568 3.2530916
-3.5729167 -1.0369118 3.2566743
-3.6222773 -0.99601984 3.2638652
-3.5839467 -0.95967913 3.2650447
-3.3775802 -0.86526787 3.2613385
-3.2940376 -0.79419339 3.2631013
-3.2412739 -0.75500834 3.2636483
-3.1395664 -0.38985598 3.2934682
-3.2952771 -0.19629417 3.3225653
-3.6962829 -0.31404746 3.3362927
-3.6954901 -0.29859358 3.3377774
-3.4964147 0.10203522 3.364948
-3.3558412 0.31137121 3.376828
-3.3408539 0.36847535 3.3815494
-3.3152022 0.50236028 3.3932211
-3.3167539 0.54573435 3.3976276
-3.2982605 0.66243571 3.4080462
-3.2580867 0.70479316 3.4097064
-3.0255742 0.76002139 3.4004509
-2.9473271 0.84377569 3.4038088
-2.9813735 1.3179454 3.4530635
-2.9031587 1.3373071 3.4500277
-2.7834973 1.3235782 3.4410779
-2.7420325 1.3276374 3.4388523
-2.5016336 1.3405248 3.4248912
-2.462842 1.347042 3.4230793
-2.4229281 1.3522789 3.4210689
-2.3828092 1.3543348 3.4187298
-2.3755364 1.3550926 3.4183438
-2.3009911 1.3381865 3.4119387
-2.2211766 1.3412306 3.4071808
-2.0665023 1.4063271 3.4038403
-1.984386 1.4390073 3.4018803
-1.8242474 1.4159739 3.3894401
-1.7832246 1.4125007 3.3864942
-1.7034147 1.4130682 3.3814907
-1.6258404 1.4211491 3.3773754
-1.547148 1.4254733 3.3728158
-1.5061255 1.4220002 3.3698702
-1.3042941 1.4555315 3.3604047
-1.1463821 1.444965 3.3493438
-1.0278559 1.4099466 3.3383512
-0.86711836 1.4073244 3.3279004
-0.78671861 1.42335 3.3243949
-0.74681354 1.4236337 3.3218932
-0.66700363 1.4242011 3.3168898
-0.56727266 1.4075739 3.3089154
-0.42422104 1.4146328 3.3005474
-0.38543367 1.4186734 3.2984896
-0.28689098 1.3661767 3.2870281
-0.14505529 1.3225064 3.2736983
0.1062665 1.3160669 3.2571254
0.26624203 1.315878 3.2469645
0.42603683 1.2763079 3.2329035
0.58583164 1.2367377 3.2188425
0.6657114 1.2370017 3.2138045
0.70539808 1.1580126 3.2034431
0.74508381 0.99906647 3.1851399
0.79062128 0.91724217 3.1741259
0.78552437 0.87759054 3.1705108
0.78545141 0.7978723 3.1625974
0.77760887 0.71906251 3.155267
0.78526831 0.59857672 3.1428144
0.79317999 0.51723337 3.1342335
0.78515863 0.47899938 3.1309445
0.78535271 0.39089674 3.1221817
0.74435425 0.36179844 3.1218905
0.66472483 0.32071981 3.122859
0.46426821 0.1626541 3.119868
0.39143324 -0.061975256 3.1021748
0.39655685 -0.21291257 3.0868583
0.39771414 -0.25628978 3.0824766
0.33775759 -0.80415416 3.031862
0.62937927 -0.85616589 3.0082078
0.70286894 -0.85928011 3.0032392
-1.8883159 -0.31755954 3.2213216
-1.4811037 -0.55620664 3.1718018
-1.2285256 -0.18543138 3.1926155
-1.3578751 -0.00061759353 3.2191722
-1.9417267 -0.060758844 3.2502141
-1.935071 -0.18598895 3.2373538
-9.7374725 0.41274354 3.7914817
-9.3780117 0.49460167 3.776823
-9.1769218 0.2158061 3.7363832
-9.4550657 -0.120804 3.7205839
-9.5096035 -0.12210576 3.7239122
-9.6551361 -0.081884786 3.7371335
0 0 0 1 0 0 0 1 0 0 0 1 0 0 0 0 0 290 1 0 0
