ply
format ascii 1.0
comment PCL generated
element vertex 1446
property float x
property float y
property float z
element camera 0
property float view_px
property float view_py
property float view_pz
property float x_axisx
property float x_axisy
property float x_axisz
property float y_axisx
property float y_axisy
property float y_axisz
property float z_axisx
property float z_axisy
property float z_axisz
property float focal
property float scalex
property float scaley
property float centerx
property float centery
property int viewportx
property int viewporty
property float k1
property float k2
end_header
-9.9299946 -0.45916525 2.647913
-9.7329264 -0.11263116 3.5725756
-10.375908 0.20514467 0.28209615
-10.375844 0.22010961 0.28966558
-10.649 -1.0138777 -0.34991056
-10.588842 -1.0943893 -0.15160823
-9.9841776 -0.77824324 2.7244849
-10.221063 -0.29802364 1.8900263
-10.190612 -0.33734736 1.7866392
-10.148639 -0.41230437 1.8478839
-9.8894367 0.07620272 2.6798046
-11.39396 0.99416953 -4.6465168
-11.39362 1.1141284 -4.6063948
-11.641839 0.07283017 -4.6588011
-11.616555 0.031247661 -4.6474562
-11.444011 0.020178862 -4.651701
-11.680118 0.027565785 -4.4858742
-11.334826 -0.68689114 -3.8873801
-11.4296 -0.78853089 -4.3351011
-11.428626 -0.78868645 -4.2951131
-11.55499 -1.055775 -3.8835435
-11.475503 -1.0477166 -3.9052954
-11.494623 -0.64841235 -4.493021
-11.55035 -0.79909068 -3.6028345
-11.506812 -0.76966602 -3.3236489
-11.333515 -0.7273683 -3.7274864
-11.163122 -0.81136942 -1.6575292
-11.132648 -0.75133467 -1.6179421
-11.132314 -0.97107333 -1.6739756
-11.098709 -1.0107501 -2.1331344
-11.325839 -1.0283393 -2.5682371
-11.244142 -1.01807 -2.4900067
-10.830754 -1.1231209 -0.78635806
-11.04685 -0.48941031 -2.4653649
-10.993917 0.030769661 -2.4125266
-11.024255 0.031306893 -2.6519094
-11.015517 -0.48973677 -2.2935207
-11.499907 -1.0499904 -3.2045832
-10.656473 0.36971891 -1.1035814
-10.64428 0.14915468 -0.96983916
-10.704391 0.049933013 -1.2239845
-10.702183 0.089949906 -1.2238512
-10.902592 -1.1078663 -0.42453974
-10.856192 -1.1063592 -0.14552236
-10.856092 -1.0963942 -0.13797677
-10.814384 -1.1039326 -0.066449761
-10.622255 -0.77582818 0.69685864
-10.608793 -1.1184074 0.73512626
-10.606055 -1.1189101 0.85509396
-10.604323 -1.1067457 0.93512678
-10.523247 -1.1313083 0.97318411
-10.525109 -1.1259733 0.89322758
-9.8716869 1.2785459 3.70151
-9.8655691 1.3587495 3.6616831
-9.8789339 1.3588256 3.6219635
-10.08667 -0.89472574 3.250308
-10.087857 -0.83459002 3.2105303
-10.125794 -1.0574461 3.2455597
-10.171131 1.2805349 1.3089917
-10.091043 1.2661424 1.3070269
-10.21404 1.2907691 1.190021
-10.170089 1.2678559 1.3489218
-9.7775393 -0.1348066 3.3534317
-9.8963404 -0.64282149 3.2546234
-11.216364 -1.0487074 -3.0483537
-11.352715 -1.0879785 -3.5680614
-11.32505 -1.0881689 -3.448648
-11.466763 -1.0938139 -3.5255282
-10.8739 -0.68843204 -0.7833674
-10.947409 -1.0747424 -0.62341243
-11.577012 -1.0495037 -3.5229447
-11.273634 -1.0101485 -2.6893771
-11.570829 -0.48872963 -3.7615209
-11.614296 0.49669924 -4.2543764
-11.593635 0.63259119 -4.2043033
-11.468012 -0.60851777 -4.4134893
-11.473338 -0.56856096 -4.4132042
-11.480413 -0.56911051 -4.2929978
-11.469193 -0.60651934 -4.2842555
-11.46434 -0.64947003 -4.1736655
-11.599608 -0.40960458 -4.4095111
-11.470263 -1.1033512 -3.685518
-11.594072 -1.0586411 -3.8426714
-11.590386 -1.079103 -3.6827726
-11.576219 -1.0888933 -3.7231264
-11.60485 -1.0489508 -3.7623832
-11.550273 -1.0988522 -3.683723
-11.595164 -1.0260262 -3.8825626
-11.635009 -0.96884304 -3.8590043
-11.595966 -0.9684698 -3.9023836
-11.47439 -0.80703956 -4.1246796
-11.622619 -0.88881731 -3.8415446
-11.504987 -1.0917957 -3.4446511
-11.422352 -1.0891417 -3.3264537
-10.900737 -1.110734 -0.34457374
-10.857074 -1.1111752 -0.18553519
-10.90171 -1.1030504 -0.38452697
-11.56605 -1.0891932 -3.6033237
-11.549414 -1.0939679 -3.643718
-11.546741 -1.0943148 -3.5237484
-11.547632 -1.0941992 -3.5637383
-10.824362 -1.1194086 -0.50641155
-11.368829 -0.97074777 -2.6858926
-11.369969 -0.97059971 -2.7371297
-11.414968 -0.97019976 -2.9611828
-10.243515 -0.96704382 2.7679706
-10.244316 -0.9818756 2.7279158
-10.126959 -0.84496862 3.2513142
-10.095586 -0.65727699 3.2513075
-10.203479 -0.78201067 2.830349
-10.901336 -1.0282372 -0.34418052
-10.893929 -1.0156823 -0.34429288
-10.515965 -1.130149 1.2931085
-10.481593 -1.1377386 1.3723137
-10.312298 -1.139309 1.4484649
-10.391343 -1.1425805 1.4902658
-10.261376 -1.1385181 1.9274344
-10.282283 -1.1385015 1.8879011
-11.303259 -1.0907749 -3.3691208
-11.40488 1.2739744 -4.5209332
-11.481904 1.2534273 -4.4040146
-11.543037 1.2729168 -4.2424355
-11.490088 1.2730702 -4.1237073
-11.435416 1.3308679 -4.1250019
-11.396787 1.3536339 -4.1759496
-10.175905 -1.1414195 2.1655359
-10.218668 -1.1362189 2.0465016
-10.06008 -0.73781925 2.1145709
-10.088256 -0.73790121 2.0852053
-10.27596 -1.1383368 1.2875967
-10.355023 -1.1391083 1.3294086
-10.088536 -0.57807481 2.1258924
-10.088775 -0.57755321 2.005868
-10.143378 -0.69786966 1.9841037
-10.299502 -1.144155 2.0083025
-10.266962 -0.29819581 1.8510625
-11.263207 0.77316892 -3.6637845
-11.254468 0.57239199 -3.7825787
-11.114814 0.55136675 -3.3453391
-11.260975 0.81318337 -3.6641169
-9.8520908 -0.37580657 3.5319452
-9.8917637 -0.41607764 3.5351987
-9.8920269 -0.37607867 3.5353112
-9.883338 -0.49697927 3.5250182
-9.6463451 0.14436817 3.9539771
-10.166853 -1.1330956 2.5654714
-10.139139 -0.70863384 2.1665108
-10.145125 -0.69850439 2.1266792
-10.14324 -0.73831642 2.0864584
-10.110047 -1.1010385 2.7643628
-10.194371 -0.82219344 2.8874884
-10.202883 -0.86200768 2.8300004
-10.201463 -1.0220435 2.8392997
-9.685317 0.038621992 3.9676566
-10.244417 -1.0218009 2.7102461
-10.173185 -1.1394223 2.2855144
-10.131353 -1.1419554 2.3645706
-10.168641 -1.1377603 2.4854712
-10.528686 -1.1353027 0.73322725
-10.488791 -1.1225011 0.73237038
-10.559623 -1.1272808 1.134074
-10.52051 -1.131811 1.0931518
-10.483315 -1.1235067 0.97230554
-10.563317 -1.0576564 1.2144716
-10.573016 -1.0977304 1.214525
-10.306883 -0.29898795 1.9645004
-10.348339 -0.32398528 1.8928223
-10.316173 -0.33961499 2.0920763
-10.320497 -0.3392987 2.0121548
-10.020308 1.2739931 1.8905716
-11.657233 0.14960426 -4.3259082
-11.682086 0.030376755 -4.5658393
-11.682887 0.15034245 -4.5578508
-11.53895 1.1896893 -4.2609282
-11.47949 0.44101852 -4.4848981
-11.600492 0.63286412 -4.4817181
-11.598577 0.63278788 -4.4042416
-11.167858 1.2057343 -3.7489402
-11.12354 1.2074156 -3.54986
-11.264563 0.571491 -3.9023848
-11.24783 0.49118331 -3.9621921
-11.103444 0.018947899 -2.9817121
-11.142677 -0.24805251 -3.1076944
-11.102159 0.016909651 -3.0103061
-11.288829 -0.24744511 -3.6070635
-11.29447 -0.2873598 -3.6470635
-11.285192 -0.2875441 -3.5672505
-11.35157 -0.44797722 -3.561235
-11.332361 0.67405248 -4.2482324
-11.234018 1.153959 -4.1301546
-11.214006 1.2184843 -4.0281038
-11.363901 1.1540667 -4.4070292
-11.372388 1.1540654 -4.4468317
-11.338138 1.1941625 -4.3676143
-11.484241 0.58867365 -4.6446838
-11.372295 0.95410782 -4.4870429
-11.385656 1.1140375 -4.4865551
-11.375533 0.99400133 -4.406899
-11.355107 0.91411114 -4.4074826
-11.25829 1.2118032 -4.2271495
-11.354891 0.87411177 -4.4075274
-11.354548 0.71402198 -4.3276691
-11.363807 0.67406058 -4.4075041
-11.391242 0.67413515 -4.6068864
-10.774323 -1.1136376 -0.067414522
-10.776143 -1.1157696 -0.14740431
-10.653974 -1.0963948 0.16996574
-10.482447 -1.1164663 0.44600976
-10.573368 -1.1172675 0.53426909
-10.493372 -1.1191634 0.53243542
-10.490616 -1.122166 0.65239203
-10.612372 -0.77573174 0.69163215
-10.521622 -1.056754 0.44718421
-10.424047 -0.33583325 0.40824831
-10.391556 -0.33559385 0.40750313
-10.640303 -1.097057 0.32969224
-10.60553 -1.0668002 0.32903266
-10.251939 1.3234676 0.55088174
-10.181531 1.2775084 0.86909747
-10.215356 1.2845922 0.65097392
-10.259737 1.2577183 0.45181525
-11.279858 1.0972333 -3.0655708
-11.310246 0.91231358 -3.0235896
-10.042554 1.2698311 1.665997
-10.023977 1.2770278 1.730623
-10.340548 1.3246955 0.43897545
-10.235695 1.2834035 0.5903281
-10.290184 1.2855664 0.33261001
-10.372641 0.68533111 0.25172114
-10.379446 0.64519691 0.26919758
-10.359759 0.88504767 0.33236575
-10.66755 0.61002243 -1.1822435
-10.653506 0.64974505 -1.1023614
-10.67034 0.65000248 -1.1819954
-10.655425 0.56972969 -1.1026855
-10.669387 0.61039025 -1.2622213
-10.400876 0.60435897 0.41204083
-10.375391 0.2050412 0.30458999
-10.392765 -0.29541144 0.36770487
-10.415805 -0.25500846 0.24838722
-10.532183 -1.0374244 0.047406793
-11.392528 0.57531565 -3.2294698
-11.462031 -0.56486744 -3.1640139
-11.468755 -0.68991131 -3.1642258
-11.12147 -1.0226655 -2.3727219
-11.275616 -1.0112518 -2.329246
-11.495565 1.2010863 -4.1019068
-11.454626 1.1891323 -4.0626979
-11.368995 1.1714667 -3.8093603
-11.483409 0.55117297 -3.7374625
-11.454514 0.57024872 -3.8982646
-11.484953 0.53062379 -3.8148031
-11.441706 0.55450237 -3.6583683
-11.31891 1.1700295 -3.3453145
-11.395612 0.57430404 -3.3719325
-11.282089 1.0572189 -3.0652382
-11.526526 0.499778 -3.8962054
-11.525143 0.42256564 -3.8556769
-11.534823 0.48944548 -3.9359629
-10.99427 -1.0403389 -2.0555258
-10.995154 -1.0502158 -2.0980453
-11.069841 -1.033918 -1.8537742
-11.149651 -0.97199255 -1.8268114
-11.189925 -0.87228876 -1.8106223
-9.8706684 0.020740345 2.7760897
-9.868907 0.084517367 2.7633729
-9.9523726 -0.45887145 2.5433819
-9.97435 -0.498602 2.4436903
-10.111988 -0.019811787 2.4888637
-9.8890781 0.036193095 2.6821175
-10.375518 0.17511132 0.28945112
-10.457941 -0.2468653 0.049338102
-10.593698 0.045408834 -0.1062429
-10.438024 1.2077895 -0.35954112
-10.39351 1.3269989 -0.12495124
-10.437262 1.1502227 -0.34481937
-10.558926 1.2096877 -0.94191462
-10.572358 1.2122796 -0.98160505
-10.572232 1.2896386 -0.95124394
-10.529837 1.3293914 -0.83450288
-10.481661 1.1258487 -0.54396611
-10.664143 -1.0284175 -0.46966225
-10.748003 -0.61260009 -0.50333345
-10.661623 -0.99647051 -0.34954053
-10.685766 -0.73471648 -0.22774923
-10.657883 -0.017741911 0.45509362
-10.627358 -0.21732938 0.41346347
-11.132615 -1.0084569 -1.6991475
-11.174095 -0.81124765 -1.6997882
-11.192055 -0.67217797 -1.8500062
-10.611177 0.60547942 -0.14327598
-10.619269 0.52618134 -0.30349845
-11.303827 0.60124826 -2.8214684
-11.386119 0.1765593 -3.0542328
-10.864505 -0.59295911 -0.34302419
-11.020544 -0.65317702 -1.0599132
-10.92307 -0.43476483 -1.1011583
-10.959706 -0.57302552 -0.99842477
-11.002586 -0.6251629 -1.1402185
-10.95916 -0.59310526 -0.98102498
-11.009884 -0.65271705 -1.1401776
-11.061752 -0.37156928 -1.45778
-11.040215 0.43520889 -1.7857276
-11.018001 0.40889135 -1.480202
-11.097486 -0.086065345 -1.6156895
-11.023748 0.48992294 -1.7047584
-10.66488 -1.0532326 -0.50977039
-10.819787 -1.1178284 -0.3064549
-10.083356 -0.74119002 2.847784
-9.9709587 1.3253642 2.3172302
-9.9704447 1.325289 2.3397241
-9.9781713 1.3252659 2.3298976
-9.8477278 1.2933271 2.4468458
-9.8913107 1.2860606 2.2877738
-9.893136 1.286328 2.2077951
-11.326139 1.2969526 -4.5678711
-11.364584 1.1941978 -4.5270095
-11.296494 1.0743321 -4.1853361
-11.359333 0.95404404 -4.3673267
-11.348437 0.87396795 -4.2476382
-11.498659 1.144953 -4.2614822
-11.375504 0.92881596 -4.1825929
-11.374103 0.84910369 -4.1420469
-11.611984 -0.28904971 -4.568789
-11.623075 -0.40963563 -4.4489517
-11.594149 -0.34722129 -4.3693891
-11.42693 0.23362222 -4.3263526
-11.376925 0.56547314 -4.3000126
-11.3497 -0.44685957 -3.9263647
-11.315948 -0.24664533 -3.9265375
-11.649726 -0.047694676 -4.2611141
-11.610504 -0.13034233 -4.2481108
-11.567028 -0.32860589 -4.2493544
-11.429341 -0.0075273663 -4.5721416
-11.440039 -0.16770196 -4.5524983
-11.482106 0.19367972 -4.6451254
-11.47302 -0.48871997 -4.3728895
-11.594149 -0.84880513 -3.7870491
-11.403737 -0.79885465 -4.2062492
-11.429179 -0.72651291 -4.2054734
-10.411185 -0.16804519 0.36871386
-11.13337 -1.0307722 -1.7392436
-11.132712 -1.0109339 -1.7041579
-11.043931 -0.52975619 -2.3455167
-11.088023 -0.28967276 -2.4613698
-11.002509 -0.3298575 -2.225831
-11.206793 -1.0224726 -2.6108813
-11.246782 -1.022723 -2.6099916
-11.287678 -1.0203578 -2.6490839
-11.207714 -1.0173571 -2.650856
-11.11972 -1.0178969 -2.2927272
-10.906302 -1.1021307 -0.5844717
-11.17741 -0.72571057 -1.8168505
-10.746258 -1.1134517 -0.58819997
-10.60353 0.37646484 -0.86470115
-10.604749 0.48904106 -0.8816601
-10.667888 0.53020936 -1.2226137
-10.666389 0.45002848 -1.183006
-10.65804 0.14931552 -1.0245373
-10.686134 -0.0205127 -1.104695
-10.667599 0.089251183 -1.0245943
-10.694427 0.49039462 -1.302209
-10.731603 0.10261475 -1.303139
-10.785448 0.28972089 -1.3010414
-10.60056 -1.1224154 1.0950181
-10.51047 -1.1336545 1.5330327
-10.557909 -1.1126165 1.2141178
-11.634697 -0.9563939 -3.841471
-10.300826 -0.35502279 2.2116935
-10.310637 -0.38009733 2.2118123
-10.299597 -0.39768875 2.2514973
-10.300183 -0.38010561 2.2315791
-10.147597 1.3010489 2.3088148
-10.146592 1.2933698 2.3487682
-10.063827 1.3009382 2.4668729
-10.377891 1.3202492 1.0389965
-10.400502 1.3201009 1.0345309
-10.370175 1.2863377 1.3537524
-10.372036 1.2816967 1.2737525
-10.177792 1.2842904 1.0290856
-10.330132 1.2791415 1.3527699
-10.372966 1.2793763 1.2337527
-9.8959332 -0.65536135 3.2695847
-9.8383245 -0.094814144 3.2148242
-11.298009 -1.0764689 -3.1291363
-11.26063 -1.0858715 -3.250026
-11.27106 -0.72867399 -3.1687407
-11.166756 -0.96875149 -2.9316978
-11.275168 -0.72882092 -3.1286397
-11.175694 -1.0235659 -3.0116773
-11.13325 -0.98866326 -2.8924916
-11.130655 -0.97651035 -2.7724843
-11.173293 -0.54927117 -2.7702992
-10.87398 -0.69340885 -0.78838986
-10.842955 -0.69339484 -0.74409014
-11.504049 -0.81214935 -3.3238332
-11.128533 -1.0317403 -2.6926711
-11.087669 -1.0291055 -2.6535635
-11.470967 0.015812248 -3.4021957
-11.474155 0.075683482 -3.4542146
-11.429066 0.13821281 -3.2827449
-11.509771 -0.40923998 -3.467577
-11.593518 0.62258887 -4.2018151
-11.53029 0.54364002 -4.0564766
-11.571057 0.40031731 -4.1345973
-11.591009 0.27256966 -4.1772141
-11.591782 0.3125912 -4.1996622
-11.569493 0.42588404 -4.0547919
-11.552132 -1.0861212 -3.763665
-10.296615 -1.164657 2.1281826
-10.214999 -1.1393892 2.2064474
-10.823388 -1.1270922 -0.46645838
-11.516296 -1.0078957 -3.9292781
-11.506509 -0.7695353 -3.3661659
-11.462564 -1.0893632 -3.3355613
-11.504128 -1.0869114 -3.4046462
-11.545038 -1.0820463 -3.4437308
-11.309457 -0.72777063 -3.5454776
-11.368881 -0.93077403 -2.6770239
-11.368962 -0.89079678 -2.6694045
-11.414987 -0.98518485 -2.9662271
-11.415026 -0.8353042 -2.9257827
-11.45901 -0.81005657 -3.0972733
-11.441212 -0.9302271 -3.0054941
-11.415216 -0.93020064 -2.9610617
-10.276151 -1.1015949 2.6081085
-10.311926 -0.42028227 2.251684
-10.281499 -0.41918018 2.0509408
-10.065289 -0.33981401 2.5664783
-10.178097 -0.14136004 2.7299275
-10.23081 -0.78176999 2.7284465
-10.088297 -0.62223256 3.251277
-9.9230375 -0.53722847 3.528204
-9.9281998 -0.64376539 3.2478838
-9.9238377 -0.37725818 3.5362711
-9.9717426 -0.41660842 3.536932
-9.972105 -0.36160985 3.5370874
-9.8223238 0.23787662 3.9364038
-9.8066292 0.14334677 3.9424477
-9.8118134 0.15794393 3.9358616
-9.8162632 0.063302629 3.9349403
-10.857585 -1.0960952 -0.20295882
-10.858192 -1.0834923 -0.22539306
-10.417978 1.3174683 1.0349336
-10.429401 1.3246208 0.55509782
-10.505432 1.303297 0.71685243
-10.100094 1.3099169 2.62782
-10.199288 1.3564039 2.1502435
-10.481415 -1.1338414 1.0522404
-10.516859 -1.1324813 1.2531085
-10.393187 -1.1397455 1.4102983
-9.8472061 1.3587059 3.7012944
-9.6198606 1.3751835 3.6964269
-9.6695147 1.3616933 3.2473426
-9.7101345 0.88024247 3.5363998
-9.7406693 0.88014585 3.5120559
-9.6801624 1.3617463 3.2175665
-9.7590952 1.3251257 2.8350329
-9.8562412 1.4007654 3.18153
-9.9110994 1.3804086 3.1826401
-9.801137 1.325125 2.7459683
-9.8014631 1.3076924 2.7259121
-9.8315248 1.2853869 2.6064918
-9.799675 1.3124249 2.8059087
-9.8973093 1.310896 2.7430477
-11.499525 1.1446691 -4.3014722
-11.523828 1.2457889 -4.4830098
-11.323133 1.2893348 -4.447916
-10.184593 -1.1373276 1.7856498
-10.140969 -0.73825568 2.0764043
-10.378641 -1.1349269 2.050158
-10.237338 -1.136243 1.4467669
-10.105095 -0.53747946 1.9613962
-10.09907 -0.5376302 2.0062702
-10.227554 -0.31074736 1.9301319
-10.1503 -0.45693609 1.7602112
-11.301382 0.56985873 -4.1016278
-11.311901 0.67402947 -4.1287017
-11.289737 0.58299142 -4.0219522
-9.6860323 0.15860862 3.9706445
-9.762373 -0.094761722 3.3732147
-9.9279594 -0.5793702 2.6973763
-9.7790546 -0.10214674 3.2935376
-9.7792664 -0.094626851 3.2860608
-9.7148762 0.84021115 3.5363455
-9.778553 0.55988562 3.5141187
-10.04333 -1.1203605 2.7227488
-10.126795 -0.87246794 3.2512164
-10.127144 -0.85742545 3.2387724
-10.202071 -0.90210038 2.8523197
-9.8868618 0.95785153 3.555923
-9.92696 0.95762706 3.5517888
-9.8863821 0.87785363 3.5556145
-9.9262943 0.83763951 3.5488262
-9.8859558 0.79786509 3.5528064
-9.9398041 0.87869906 3.5538793
-9.8989277 1.0785599 3.6538029
-9.9387245 0.71869397 3.555727
-9.778677 0.95943147 3.6282201
-9.738327 0.86973333 3.6169896
-9.6094007 0.63916332 3.9583693
-9.6893263 0.63863373 3.9626017
-10.526022 -1.1258059 0.85323834
-10.606986 -1.1162425 0.81511545
-10.607881 -1.1185749 0.77511549
-10.567085 -0.25688592 0.41189706
-10.310176 -0.32334813 1.8119326
-10.567105 -1.0978602 1.2544003
-10.157847 1.2780232 1.8688273
-10.176638 1.278627 1.7092297
-10.166387 1.2796378 1.5089331
-11.607747 0.15213174 -4.1164351
-11.624579 0.15227631 -4.1985803
-11.649395 -0.020260386 -4.2385368
-11.650534 0.019854262 -4.2784052
-11.544834 1.2077074 -4.1809082
-11.545321 1.2329038 -4.2424183
-10.125936 -0.87760502 3.2911897
-11.680138 0.030065678 -4.4858637
-11.484482 0.35362434 -4.604897
-11.488798 0.31346619 -4.4847932
-11.483027 0.3534534 -4.4448843
-11.401667 0.65648884 -4.5266218
-11.643255 0.59776551 -4.6007318
-11.279273 1.3043942 -4.2889366
-11.140732 1.3375857 -3.1503093
-11.284796 1.1733741 -3.6161461
-11.268679 0.97341067 -3.6250775
-11.287735 0.93189466 -3.8244216
-11.28187 0.93221134 -3.7845407
-11.313315 0.72950172 -4.1425133
-11.328874 0.67402673 -4.2083063
-11.235291 1.2969542 -4.1299825
-11.287746 0.77154738 -3.8732958
-11.302088 0.69068855 -3.9824395
-11.302356 0.7306866 -3.9827178
-11.604068 0.56302255 -4.641747
-11.381554 0.91414636 -4.5668778
-11.386336 0.87411988 -4.5667987
-11.360662 0.91410613 -4.4298525
-11.615262 0.51141459 -4.2944703
-11.382416 0.79409534 -4.5269623
-11.340291 0.75401056 -4.2479577
-11.570558 0.63280308 -4.2823973
-11.360337 0.88808036 -4.3026628
-11.356832 0.67400903 -4.327652
-11.372293 0.67405921 -4.4473062
-10.688081 -1.0918368 0.21078098
-10.683058 -0.85507977 -0.14834332
-10.440603 -1.1190394 0.52505851
-10.477836 -1.1198859 0.64594257
-10.606648 -1.0391173 0.2891748
-10.191645 -0.37460503 1.7289913
-10.23197 -0.33739796 1.7275667
-10.666622 0.24518451 -0.1686666
-10.6844 0.14473507 -0.10370231
-10.685123 0.24473831 -0.10322595
-10.866004 -0.51277822 -0.38263178
-10.835802 -0.41524491 -0.342866
-10.82055 -0.41570464 -0.22318578
-10.824141 -0.4155046 -0.27061534
-10.849473 -0.41458276 -0.5025925
-10.912422 -0.51178527 -0.66163731
-10.69106 0.84451312 -0.060319662
-10.676098 0.88405186 0.05955112
-10.710483 0.85725164 -0.13983679
-10.684934 0.7239843 0.059017777
-10.619852 0.84322608 0.31814218
-10.683434 0.64380342 0.098625422
-10.803096 0.64700997 -0.75634474
-10.80867 0.58571947 -1.0190701
-10.809015 0.63321763 -1.0188438
-10.851759 0.63347483 -1.1378934
-10.935082 0.58862305 -1.2962294
-10.947305 0.76872647 -1.335131
-10.833264 1.1276652 -0.93599045
-10.809242 1.1699615 -0.85632586
-10.851016 1.1281066 -1.0556133
-10.836682 1.1278307 -0.97592205
-11.036841 1.3704867 -3.192802
-11.079871 1.1763146 -3.3905432
-11.05228 1.1773299 -3.2711167
-11.120944 1.2082675 -3.4298913
-11.17031 1.214053 -3.6289153
-10.586998 1.2894821 -0.94090277
-10.659303 1.1606637 -1.2999326
-10.854446 0.96903235 -1.2563207
-10.809242 0.89203405 -1.8178657
-10.972926 0.72872776 -1.3747374
-10.625048 1.1705348 -1.2206522
-10.327918 1.1228875 0.55178463
-10.346783 1.3243873 0.49413228
-10.268247 1.3231106 0.60128152
-10.377437 1.3237799 0.57485533
-10.428731 1.3219975 0.58257806
-10.346572 1.2859615 0.1638608
-10.346215 1.2684162 0.1737746
-10.346379 1.2909154 0.17388189
-10.412551 0.14676592 0.41020405
-10.629147 0.68325049 0.29761434
-10.626729 0.60288566 0.37721097
-10.579528 1.1130506 0.41848445
-10.412477 -0.24267447 0.28837848
-11.169952 -0.24791273 -3.2096124
-11.415728 0.095513664 -3.1755478
-11.466391 -0.29202715 -3.2831578
-9.9365387 1.383827 3.228507
-10.055511 1.3293226 2.8269072
-11.27813 -0.8917051 -2.1838081
-11.235377 -0.77191287 -2.0268743
-11.278266 -0.85172051 -2.178688
-11.202027 -1.0106016 -2.3933988
-11.248712 0.7338205 -3.5837982
-11.531614 0.63283575 -4.123311
-10.950687 -1.0455508 -1.8964715
-11.05514 -1.0423145 -1.8211155
-11.131574 -1.0119253 -1.8123257
-10.146336 -0.65833831 2.0868645
-10.181195 -0.55377412 2.128109
-9.8708801 0.044466503 2.7732863
-9.9132233 0.12403469 2.8070273
-9.8209763 -0.072198622 3.2145085
-9.9746227 -0.46360824 2.4438581
-9.9746599 -0.45860842 2.4438798
-9.9752445 -0.37860653 2.4442136
-9.9757824 -0.33857101 2.4344058
-9.7341261 -0.094997682 3.5226369
-11.134956 -0.68596929 -1.6976101
-10.456195 -0.23473364 0.12937558
-10.400424 -0.055273466 0.32897449
-10.608227 0.32530612 -0.10462165
-10.494094 1.2086397 -0.62332147
-10.808363 1.1672891 -0.81884813
-10.815514 1.1272238 -0.81636751
-10.762115 1.1263896 -0.56002778
-10.807006 1.1145957 -0.77661014
-10.453012 1.127797 -0.38457161
-10.732449 0.092799067 -1.3431755
-10.697251 -0.21059754 -1.105314
-10.640127 -0.091319032 -0.86601216
-10.688416 -0.050529964 -1.1047807
-10.658141 -0.4654623 -0.027090669
-10.659301 -0.49518523 -0.087217093
-10.465384 -0.25442025 0.049474359
-10.73247 -0.5775373 0.29418826
-10.735767 -0.37592709 0.21516955
-10.776287 -0.46421418 0.055650592
-10.833187 -0.69327521 -0.75431669
-10.837639 -0.41487703 -0.42284387
-10.665394 -0.17703691 0.29448986
-11.235126 -0.74946404 -2.0093105
-10.615514 0.60582888 -0.22319651
-10.617352 0.6061967 -0.30317444
-10.614514 0.68602818 -0.26286149
-10.799793 0.62637848 -0.61897808
-10.799479 0.64628571 -0.59888828
-10.75123 0.58251929 -0.26019728
-10.977749 0.68871546 -1.379812
-11.015762 0.408443 -1.3827288
-10.86423 -0.57554024 -0.32544559
-11.018717 0.36857554 -1.4153532
-11.017509 0.32839313 -1.3755549
-11.096333 -0.11874805 -1.5758555
-11.051593 -0.25170711 -1.4124498
-10.927836 -0.29152295 -1.2629341
-10.928126 -0.25152448 -1.2627435
-11.025392 0.12871337 -1.4563142
-11.034293 0.069021247 -1.5364058
-10.61754 -0.25249001 -0.58719611
-10.610029 -0.093195029 -0.42659229
-10.619586 -0.13174042 -0.74663723
-10.636152 -0.25187626 -0.74430865
-10.660162 -0.49501279 -0.12470675
-10.624537 -0.29388309 -0.3058992
-10.899566 -0.41285411 -0.94155377
-10.957225 -0.73328388 -0.94170332
-10.992908 -1.0739335 -0.8624289
-10.998057 -0.93311101 -1.0417119
-10.912833 -0.53416944 -0.68673766
-10.758062 0.0072414577 -0.7428171
-10.75929 0.049923774 -0.7826035
-10.756516 0.046872057 -0.66264856
-10.600776 -0.17389092 -0.2671324
-10.600148 -0.13407636 -0.22695279
-10.590523 -0.17438748 -0.14733756
-10.15885 -0.62087464 2.6474569
-10.115073 -0.58036888 2.606617
-10.185769 -0.57933253 2.2481382
-10.061929 1.3005794 2.5468495
-9.9512863 1.2807847 2.1440194
-11.602037 0.073054701 -4.6672869
-11.524927 0.13451044 -4.6492858
-11.564832 0.12417912 -4.6483541
-11.557057 -0.86566406 -3.9229577
-11.317552 -0.24711743 -3.7739649
-11.338959 -0.56679404 -3.9269507
-11.359429 -0.60682434 -3.9591188
-11.261521 0.13234754 -3.7793014
-11.284928 0.12358128 -3.9387739
-11.280517 0.11250168 -3.738739
-11.155518 0.52832234 -3.3843048
-11.271856 0.41116565 -3.9410987
-11.59628 -0.32441115 -4.4492726
-11.445413 0.23356658 -4.3659077
-11.413444 -0.32616618 -4.2846861
-11.632665 0.19243735 -4.2612891
-11.464533 -0.81213939 -4.1342816
-11.443701 -0.60946143 -4.1340003
-11.426278 -0.71915603 -4.1748633
-11.320375 -0.68740666 -3.6876533
-10.969598 -1.0503286 -1.5830518
-10.99646 -1.0100795 -2.1454122
-11.074661 -0.24974 -2.4115393
-11.279006 -1.0111518 -2.3691802
-11.03776 -1.0501266 -2.2146256
-11.041384 -1.0396643 -2.3745549
-10.797269 -1.111539 -1.0671502
-10.915524 -1.0952915 -0.98433739
-10.819501 -1.090749 -1.2665983
-10.765841 -1.0911165 -1.107789
-10.801079 -1.092054 -1.2270166
-10.755534 -1.0991127 -0.98802984
-10.95373 -1.0884542 -0.90340656
-10.995736 -1.063382 -0.98234808
-10.993845 -1.0712496 -0.90240598
-10.912732 -1.1008431 -0.86439437
-10.761552 -0.39645556 -1.0246702
-10.789563 -0.45147213 -1.0642908
-10.764126 -0.42090282 -1.1447563
-10.700495 -0.2913855 -0.94556761
-10.783762 -0.49257424 -0.82454777
-10.832574 -1.1252528 -0.86634785
-10.911007 -1.0936998 -0.78688002
-10.788965 -1.1181943 -0.70727348
-10.675506 -1.0931208 -0.5497207
-10.916353 -1.0947046 -0.58420664
-11.239132 -0.7314586 -2.1842132
-11.00024 -0.50750494 -2.1738822
-10.994866 -0.80046034 -2.0148089
-10.68076 -1.0925874 -0.66963023
-10.712917 -1.0818707 -0.86889678
-10.730083 -1.0925694 -0.748519
-10.490096 1.1284773 -0.58377117
-10.571005 1.1520978 -0.9419021
-10.598673 0.64862347 -0.783539
-10.604193 0.76627529 -0.82288188
-10.587129 0.68832767 -0.70359975
-10.591626 0.92887038 -0.82242262
-10.588708 1.0890851 -0.86176354
-10.602833 0.96897912 -0.86199158
-10.598543 0.84881818 -0.82263196
-10.597858 0.14592396 -0.74585903
-10.60064 0.2311025 -0.78541446
-10.692847 0.089637272 -1.1440452
-10.725742 0.1099603 -1.2632287
-10.770871 -0.24980566 -1.3838797
-10.778787 -0.0090974346 -1.5426341
-10.956877 -0.20945916 -1.7395196
-10.952297 -0.36961859 -1.7003506
-10.965673 0.22680572 -1.9859127
-10.825521 0.58855587 -1.871484
-10.822798 0.091790698 -1.7937281
-10.84175 0.52872825 -1.8306977
-10.965343 0.30708587 -1.9464796
-9.8068933 0.23789543 3.9560742
-9.885396 0.14271317 3.6122746
-9.9752083 0.14335003 3.5485101
-10.149345 1.2814085 2.228745
-10.067491 1.2841566 2.3068383
-10.378246 1.3203164 1.0240009
-10.293996 1.2876623 1.1919043
-10.174037 1.2810842 1.1865277
-10.131068 1.2708386 1.3079977
-10.213017 1.2805902 1.2299626
-10.231149 -0.31757677 1.7701426
-10.211043 1.2702317 1.3098927
-10.333927 1.2798591 1.192817
-11.07496 -0.89281887 -1.2198091
-11.267372 -0.68816555 -3.3287458
-11.295507 -0.72822106 -3.3682451
-11.252204 -0.68843412 -3.2090542
-11.26996 -0.29781246 -3.4475894
-11.076086 -0.37129349 -1.5374713
-11.064508 -0.37101746 -1.5777469
-11.097038 -0.21096861 -1.6362798
-10.846987 -1.0349971 -1.465765
-10.802315 -1.0481217 -1.2667969
-10.84634 -0.99768251 -1.4255973
-10.949845 -0.48941168 -1.7409688
-10.915647 -0.68973488 -1.6226432
-10.934006 -0.69717956 -1.6622666
-10.946718 -0.44957873 -1.7008466
-10.979046 -0.28905159 -1.8594092
-10.980093 -0.4890624 -1.8603052
-11.082685 -0.93276912 -1.2423216
-11.030824 -0.97115988 -1.5012596
-11.431804 0.11179525 -3.3353567
-11.430034 0.15082812 -3.3226969
-11.508836 -0.56922883 -3.470561
-11.509226 -0.56917828 -3.4880567
-11.509362 -0.5291937 -3.4829369
-11.515836 -0.34600437 -3.7223229
-11.514837 -0.36361957 -3.6823862
-11.514386 -0.32870716 -3.6522877
-11.516335 -0.32845423 -3.7397654
-11.43734 0.42064464 -3.4974711
-11.471941 -0.56653595 -4.2840786
-11.466052 -0.56662029 -4.2441998
-11.440968 -0.68894994 -4.2544127
-10.4659 -1.1366903 1.7320564
-10.469075 -1.1386036 1.5920832
-10.473108 -1.1478491 1.4120884
-11.509377 -1.1012173 -3.6446307
-11.396663 -1.0071012 -3.946944
-11.556949 -0.92812639 -3.9356439
-11.556383 -0.83078051 -3.8828619
-11.471844 -0.52726197 -4.0439072
-11.472339 -1.0894548 -3.3253415
-11.545897 -1.0869305 -3.4837358
-11.589527 -1.0742188 -3.6427677
-11.370506 -0.8481316 -2.7267611
-11.370156 -0.85067487 -2.7117724
-11.3527 -0.61075908 -2.6464512
-10.246923 -1.1212001 2.5673485
-10.289594 -1.128499 2.4482596
-10.252306 -1.1326941 2.327359
-10.295926 -1.1348257 2.1683028
-10.341297 -1.1466218 1.9292245
-10.245894 -0.86175454 2.6984472
-9.8059721 -0.096533038 3.8992805
-9.9316216 -0.43634251 3.5360088
-9.9998407 1.3409162 2.8105717
-10.191212 1.2789639 2.1497042
-10.154052 1.2773057 2.0287805
-10.193128 1.2818226 2.0697396
-10.111293 1.2870705 2.1478443
-10.260594 1.2817218 0.91100407
-10.425228 1.1465896 0.67423475
-10.222429 1.2723845 0.8300333
-10.522297 -1.1364757 1.0131516
-10.512277 -1.1358192 1.4530435
-9.9338074 1.3608804 3.3483911
-9.661746 1.4002374 3.617415
-9.9594793 1.3997687 3.2637849
-9.8978634 1.4003321 3.2224407
-9.8686352 1.4001962 3.3018255
-9.8948784 1.3937716 3.307662
-9.8928299 1.3584558 3.3925061
-9.866643 1.3598828 3.3816433
-9.7686453 1.0398642 3.5382972
-9.8161488 1.4005373 3.3006883
-9.881999 1.4002723 3.2621059
-9.9191332 1.3989329 3.2281866
-9.7667723 1.3610206 3.2594519
-9.7093515 1.3713938 3.2582474
-9.6691351 1.3616245 3.2648382
-9.8002243 1.3249912 2.7859578
-11.443934 1.2612231 -4.4849696
-11.52483 1.2483282 -4.522995
-11.516562 1.2729934 -4.1830711
-11.355429 1.3288022 -4.1269813
-11.291289 1.2038138 -3.9062963
-11.267114 1.2120285 -3.8268571
-10.383185 -1.1365891 1.8502011
-10.305927 -1.1379822 1.7284
-10.185031 -1.1397437 1.7656443
-10.184137 -1.1374114 1.8056443
-10.10692 -0.5371443 1.881418
-10.347723 -1.1404489 1.649322
-11.318377 0.60919082 -4.1815596
-11.143617 0.77784729 -3.106262
-11.207332 0.8163172 -3.2651973
-11.210964 0.85601503 -3.3054109
-11.211231 0.89601308 -3.3056891
-9.7750769 0.27958918 3.5904598
-9.7751703 0.31955853 3.5981207
-9.6080246 0.3991999 3.949894
-9.7395592 0.80004013 3.5392237
-9.7788486 0.63984394 3.5244422
-9.7801027 -0.07454031 3.2536249
-9.7797461 -0.054601125 3.276176
-10.042492 -1.1105285 2.7627816
-10.161173 -0.91694444 2.8863335
-9.7777691 0.47983885 3.5262899
-9.8841991 0.47790152 3.5440741
-9.8174934 0.47203988 3.5371237
-9.6233473 1.3783125 3.5364761
-9.6675301 1.3563396 3.3372998
-9.8862457 1.1974912 3.6518259
-9.9640474 0.43743497 3.5406494
-9.9366331 0.35874391 3.5442638
-9.9765139 0.35846439 3.5501289
-9.9225531 0.63720691 3.6655264
-10.611637 0.082714669 0.43198717
-10.609405 -0.21729246 0.43305671
-10.271082 -0.32537848 1.7710211
-10.326374 1.2834238 1.5127463
-10.286406 1.2862271 1.5118105
-10.282573 1.2805097 1.6717403
-10.190241 1.3566592 2.1100183
-10.266552 -0.29874882 1.978585
-9.9949942 1.2711992 1.9849672
-10.017608 1.278592 2.0105569
-10.330732 -0.33885258 1.8923583
-10.238827 1.2850955 1.8307691
-10.195974 1.2823608 1.9497747
-10.15502 1.279985 1.9888039
-10.19977 1.2830784 1.7898216
-10.163559 1.2815995 1.6289096
-11.613593 0.39170423 -4.2536464
-11.63412 0.18749644 -4.3212762
-11.636029 0.17507532 -4.4012656
-11.640832 0.029246457 -4.2067394
-10.006207 0.022248462 3.5393491
-10.175162 0.10419004 2.6108572
-10.130257 0.15443477 2.6733663
-10.003529 -0.41774908 3.5402846
-11.529375 0.15342246 -4.6439967
-11.112999 0.53943527 -3.2652731
-11.112765 0.53700638 -3.2552583
-11.122552 0.61798567 -3.105583
-11.205351 1.2213238 -3.6282086
-11.247055 1.2179946 -3.7073028
-11.247937 1.2202104 -3.7473097
-11.329431 1.186621 -3.8253281
-11.286029 1.195518 -3.6662893
-11.246173 1.2157786 -3.6672959
-11.272641 0.93282831 -3.7047243
-11.259717 1.0140257 -3.5455394
-11.382509 0.57378095 -3.4597349
-11.357649 0.59394348 -3.4604163
-11.240778 0.77409834 -3.5517476
-11.166126 1.2063022 -3.6689613
-11.218826 0.24014053 -2.7007132
-11.215473 0.51683122 -2.4626887
-11.214607 0.51711518 -2.4226992
-11.343559 0.41737592 -2.9793439
-11.345627 -0.050100632 -2.8450377
-11.255083 0.029982701 -2.6867824
-11.183769 1.2128519 -3.7886567
-11.317981 0.87399924 -4.1283545
-11.310156 0.89007837 -4.0637012
-11.303534 1.0517908 -3.8249311
-11.319492 1.0505733 -3.9846182
-11.302122 0.81013125 -4.0633073
-11.324095 1.2843741 -4.4879093
-11.287797 0.81161642 -3.8635767
-11.27074 0.89256257 -3.7444897
-11.365443 0.79409808 -4.4473577
-11.332542 0.72881937 -4.2221127
-11.607523 0.6326918 -4.3615079
-11.354208 0.8339808 -4.2875471
-11.362818 0.67402124 -4.367516
-10.650812 -1.0959902 0.089873195
-10.679268 -0.81486052 -0.18825626
-10.669028 -0.9745968 -0.22923708
-10.71363 -0.77530378 -0.14727414
-10.777187 -0.46653011 0.015649796
-10.437866 -1.1170913 0.64503729
-10.652827 0.76620448 -1.1443529
-10.942974 0.25122952 -1.8577526
-10.943846 0.37122497 -1.8571806
-10.696762 0.023497894 0.13608921
-10.672811 -0.096708886 0.2150079
-10.669973 -0.016877465 0.25532091
-10.889509 -0.53468889 -0.54223627
-10.750938 1.1267462 -0.61779851
-10.574374 1.0888093 -0.78207225
-10.757601 0.82842964 -0.45897418
-10.762981 1.0641564 -0.61780983
-10.851396 0.58347672 -1.1381317
-10.785516 0.36857739 -1.0606117
-10.991306 0.28839487 -1.3363298
-10.824558 1.087538 -0.89636409
-10.947454 1.2613548 -2.7938588
-11.109361 0.49803764 -3.110018
-11.076881 1.3777249 -3.1919866
-10.572021 1.2920926 -0.94123477
-10.571138 1.2969084 -0.90122199
-10.591079 1.2892613 -0.90079916
-10.928229 0.76905775 -1.3755785
-10.613295 1.0898575 -1.0612497
-10.612412 1.0946733 -1.0212369
-10.615603 1.1552229 -1.1409178
-10.635754 1.0502634 -1.1809486
-10.639881 0.93023121 -1.181406
-10.642091 0.89021432 -1.1815393
-10.657396 0.89817375 -1.3011838
-10.769673 0.73213238 -1.7794993
-10.307216 1.162847 0.59398508
-10.365628 1.0050063 0.3330524
-10.388424 1.286559 -0.025226831
-10.369092 1.28632 0.05434978
-10.466548 1.3639717 0.1369673
-10.338941 1.3243735 0.50895619
-10.258873 1.2650341 0.49184
-10.406765 1.3239453 0.49550807
-10.350679 1.286265 0.093937516
-10.391679 1.2642254 -0.065265775
-10.425845 1.2074263 -0.26479661
-10.750876 0.60491496 -0.23759627
-10.751538 0.62501764 -0.25999475
-10.7536 0.78269559 -0.2992329
-10.612014 0.10275285 0.42208552
-10.614645 0.36289945 0.3908335
-10.616908 0.28295305 0.37551367
-10.677356 0.40346307 0.17740202
-10.685353 0.563788 0.098301411
-10.681983 0.443811 0.097672105
-10.808716 -0.41599885 -0.14343715
-10.597601 -0.014246464 -0.18644917
-10.899524 1.2416731 -2.4346638
-10.938581 1.231696 -2.3937373
-10.89781 1.2447408 -2.3547022
-11.347784 0.49696532 -3.0348318
-11.388812 0.33601925 -3.130326
-11.174424 -0.3667756 -2.7697463
-11.382989 0.017772391 -3.0440593
-11.309608 0.85740495 -3.0107105
-11.419415 -0.45005342 -3.0145934
-11.418332 -0.49016079 -2.9772241
-11.084061 -1.0370679 -2.4936268
-10.890322 -0.4517422 -1.423326
-11.050948 -0.41159758 -1.4357063
-11.008533 -0.56406152 -1.3798662
-11.073539 -0.25146356 -1.4969677
-10.604751 0.88896376 -0.8623156
-11.331179 1.188553 -3.9053245
-11.488619 0.55196911 -3.9774172
-11.455157 1.1388508 -4.1023397
-11.355685 0.91379505 -4.1273832
-11.57191 0.52781123 -4.1354842
-11.593275 0.57758957 -4.2018657
-9.9111795 0.12412038 2.7869759
-9.953722 0.084237978 2.66278
-10.048669 0.11528651 2.6212401
-9.8117905 0.14333369 3.9350581
-9.8064499 0.11795795 3.940589
-10.93463 -0.7295059 -1.6999112
-10.401148 0.044729769 0.32945096
-10.402052 -0.17528734 0.32845986
-10.592779 0.045224894 -0.06625402
-10.600486 0.16555138 -0.14554524
-10.496884 1.2486198 -0.62307346
-10.570558 1.1694822 -0.91682559
-10.771034 -0.22730651 -1.3837724
-10.728364 -0.17013484 -1.2494527
-10.733367 0.092983 -1.3831645
-10.789156 0.32988492 -1.3407824
-10.84776 -1.0548124 -1.5058492
-10.689207 -0.251111 -0.98565251
-10.682508 -0.14105994 -0.98530012
-10.680568 -0.17140371 -0.91046387
-10.618981 -1.1090394 -0.271016
-10.65466 -1.0143009 -0.26976073
-10.455904 -0.27473211 0.12918496
-10.721183 -0.5372628 0.2541033
-10.737678 -0.45719239 0.21483958
-10.637129 -0.25168082 -0.78679693
-10.717588 -0.31208387 -0.82523751
-10.758673 -0.03507299 -0.78300864
-10.86694 -0.51009434 -0.42260885
-10.661301 -0.017576389 0.41516197
-10.657264 -0.13613012 0.11694288
-10.678646 -0.016178541 0.095479727
-10.680193 -0.055809148 0.015311122
-10.658298 -0.13592318 0.071955323
-10.657618 -0.15852582 0.094341874
-10.671844 0.022918664 0.29555786
-10.669055 -0.017061405 0.29530978
-11.192605 -0.72706103 -1.8901627
-11.199234 -0.23161057 -2.0486224
-11.155256 -0.15694007 -1.8493359
-11.157031 -0.21166414 -1.9444784
-10.673227 0.92445505 -0.020350695
-10.674436 0.96463746 -0.060148954
-10.675098 0.96425116 0.019886255
-10.627275 1.044414 0.059167385
-10.676307 1.0044336 -0.019912004
-10.620067 1.0844678 0.059186101
-10.607314 1.0839896 0.17892361
-10.619858 0.96408606 0.13864934
-10.597635 0.40462255 0.055543542
-10.410291 0.92524809 0.21367872
-10.626933 0.74479336 -0.02224052
-10.637656 0.84471589 -0.021534562
-10.627507 0.69747907 -0.062455893
-10.618082 0.68466693 0.017290473
-10.631124 0.72514355 -0.10225642
-10.753909 0.825194 -0.2990303
-10.756864 0.80581552 -0.43408835
-10.841882 -0.57586426 -0.22343254
-10.775679 -0.45632818 -0.024348855
-10.751538 -0.93577629 -0.10713065
-11.018427 0.32857707 -1.4155439
-11.140623 -0.15812147 -1.7750736
-11.098309 -0.13083369 -1.6658902
-11.055602 -0.37072536 -1.625463
-11.094815 -0.20142886 -1.5362598
-11.014219 0.12803286 -1.2965304
-11.011599 0.048146293 -1.3169634
-11.011672 -0.131578 -1.3778046
-11.015318 0.37090993 -1.3754096
-11.015273 0.048882045 -1.4769193
-11.011983 0.14806646 -1.3014907
-11.011922 0.10811397 -1.3116785
-10.752149 0.58270323 -0.30018622
-10.637033 -0.012057826 -0.70567501
-10.630826 -0.052203409 -0.66599137
-10.796766 -0.37533805 -0.26355731
-10.726205 -0.053859688 -0.4637537
-10.813855 -0.37451044 -0.46321541
-10.830543 -0.39425227 -0.54294473
-10.847893 -0.41438046 -0.54263878
-10.614447 -0.17322883 -0.42685896
-10.614785 -0.25304183 -0.46722925
-10.624666 -0.2121605 -0.66686869
-10.659615 -0.51509249 -0.10730696
-10.755854 0.026769355 -0.64025009
-10.755917 -0.03562481 -0.66304183
-10.610111 -0.17357829 -0.34693837
-10.595859 -0.25423732 -0.18759322
-10.601357 -0.093893953 -0.26675117
-10.603518 -0.01409936 -0.22632349
-9.8895226 1.2907931 2.36777
-9.9056435 1.2850116 2.3830249
-9.9066105 1.287691 2.3430483
-10.012151 1.2802898 2.2505016
-10.013045 1.2779236 2.2105036
-9.9731121 1.2857249 2.2096183
-10.129718 0.074449152 2.6704938
-9.9260654 1.3174558 2.5287354
-9.908967 1.278151 2.2405317
-9.9112244 1.2710886 2.1430254
-11.333122 0.57159454 -4.1809735
-11.449334 0.36750033 -4.29704
-11.43603 0.43348616 -4.2459064
-11.464127 -0.48930064 -4.2130599
-11.280767 0.14999989 -3.7389998
-11.404164 -0.32635048 -4.2048736
-11.467438 -0.48650661 -4.2839475
-11.285279 0.17607877 -3.9391389
-11.284816 0.13113415 -3.9313278
-11.593739 -0.39721915 -4.3695936
-11.568248 -0.3521359 -4.2813139
-11.467661 -0.56675154 -4.2041545
-11.359839 -0.48687062 -3.943759
-11.515984 -0.7531476 -3.8435271
-11.431737 0.13855967 -3.4027145
-11.423583 -0.17224216 -3.1237247
-11.41939 -0.49002352 -3.0247121
-11.418894 -0.57002157 -3.0249543
-11.201082 -0.52908128 -2.889652
-11.464873 -0.53702122 -3.2839
-11.277155 0.12863681 -3.5788853
-11.316494 -0.24725473 -3.7264769
-11.093328 -1.0379773 -1.7401966
-10.877409 -1.0896292 -1.0652086
-10.898965 -1.0924788 -1.0247157
-10.917487 -1.0774243 -1.0642319
-10.929399 -0.76945603 -1.7027159
-10.991099 -0.7709741 -1.8372631
-11.056131 -1.0321311 -1.8610567
-11.009929 0.050790895 -2.452122
-11.046429 0.15068498 -2.4910302
-11.201022 -0.1314612 -2.1008062
-11.243689 -0.17116085 -2.2875175
-11.24586 -0.16605318 -2.3274646
-11.288855 -0.21087614 -2.4741735
-11.247316 -0.21832067 -2.4076033
-11.130826 0.22405577 -2.2223804
-11.127193 0.18435799 -2.1821668
-11.128079 0.31685168 -2.1830883
-11.055292 0.056234103 -2.6911561
-11.044422 0.031544209 -2.7714896
-11.152306 -0.96926707 -2.731971
-11.07706 -0.40963617 -2.4519584
-11.06642 -0.36969015 -2.4120698
-11.002757 -0.28985846 -2.2257099
-11.098685 -0.48880312 -2.771786
-11.349311 -0.61085904 -2.6065171
-11.002312 -0.28991628 -2.2057149
-11.02391 -0.29051358 -2.0526974
-10.996381 -0.25071937 -1.9281641
-11.012379 -0.25068319 -1.9728191
-11.003055 -0.16991919 -2.2053514
-10.948585 0.030326329 -2.1734772
-11.076317 -0.52963322 -2.452322
-11.127069 -0.54983014 -2.4912601
-11.128898 -0.54209906 -2.5712171
-10.79826 -1.1013556 -1.1070914
-10.721244 -0.31384802 -0.98520523
-10.795395 -1.1169068 -0.98719609
-10.750005 -1.1027163 -0.74810809
-10.60223 0.32378292 -0.8249625
-11.026518 1.2536161 -2.7520823
-11.122371 1.3379841 -3.1106992
-11.017865 -0.89012086 -2.1745961
-11.034101 -0.69021958 -2.1736565
-10.707442 -1.0779744 -0.62893927
-10.818524 0.54915839 -1.7913351
-10.802547 0.6464842 -1.8323823
-10.786805 0.68200541 -1.7793365
-11.378882 -0.33031294 -2.8451073
-11.334396 -0.36527729 -2.7661791
-11.333945 -0.33036485 -2.7360806
-11.374533 -0.5303719 -2.8182757
-11.375207 -0.5202927 -2.8457384
-11.025023 -0.3706429 -2.0128944
-10.995354 -0.29081956 -1.8932942
-10.969629 -0.20898101 -1.8592571
-10.966211 -0.20914653 -1.8193254
-10.991098 -0.17079118 -1.893042
-10.982936 0.30613589 -2.066123
-10.997164 0.30548623 -2.1458309
-10.9913 0.30580288 -2.1059499
-10.982537 0.14987306 -2.0923555
-10.738495 -0.97625285 0.012416244
-10.738205 -1.0162514 0.012225628
-9.8896303 0.95842534 3.7006402
-9.7786694 1.1194742 3.6188469
-9.7262239 0.19833772 3.9741735
-9.7654085 0.063527219 3.9738474
-9.7658634 0.1181097 3.967216
-9.7681322 0.43813956 3.9585214
-9.9221277 0.55721837 3.6627183
-9.9188957 1.3338858 2.8487115
-10.009506 1.2923883 2.3705134
-9.9694996 1.29019 2.3695931
-9.994957 1.2772069 2.3050859
-10.066598 1.2914768 2.3468616
-10.023802 1.296242 2.4659021
-9.9038391 1.2971524 2.4630597
-10.381767 1.3159894 0.87402153
-10.263591 1.3022592 0.79113245
-10.373203 1.2794211 1.2237556
-9.7354269 -0.094836943 3.4626513
-11.304787 -0.72803682 -3.4480579
-11.319635 -0.60824925 -3.4073708
-11.302858 -0.60838658 -3.3277247
-11.185505 -0.24793437 -3.2342722
-11.17056 -0.55961782 -2.6503599
-10.927633 -0.31153369 -1.2605301
-10.95786 -0.69321638 -0.95650852
-10.801014 -0.46924743 -1.0240986
-11.055303 -0.3882592 -1.6180485
-10.981383 -0.52926326 -1.8204496
-11.046305 -0.65165049 -1.4194124
-11.088387 -0.83427262 -1.4592967
-11.046887 -0.78934759 -1.3800216
-11.045404 -0.81211114 -1.3226447
-11.508533 -0.51930958 -3.4429166
-11.510025 -0.44917396 -3.4901924
-11.548322 -0.83932096 -3.5229759
-11.518536 0.091519043 -3.6509171
-11.472764 0.01854343 -3.482168
-11.243507 0.57357687 -3.6227832
-11.460316 -0.64927304 -4.2137747
-10.337516 -1.1647915 2.0891049
-10.421329 -1.139726 1.9310799
-10.42498 -1.1390557 1.7711232
-10.4277 -1.141053 1.6511447
-10.432716 -1.1385907 1.6512697
-10.408637 -1.1382344 1.6107109
-10.32506 -0.3384608 1.8122089
-10.243574 -0.41802141 1.8500266
-10.226343 -0.47324124 1.9294233
-10.476356 -1.1382225 1.4922242
-11.508188 -0.36499026 -4.1314788
-11.497828 -0.36742234 -4.0428662
-11.388036 -0.6102531 -2.8857229
-11.414135 -0.83541983 -2.8857927
-11.372144 -0.61061567 -2.7335398
-10.29045 -1.1358312 2.4082377
-10.291307 -1.1431633 2.368216
-10.384061 -1.1414212 1.8101902
-10.178315 -0.61921155 2.2327969
-9.8927727 -0.095823117 3.1865158
-9.9012957 -0.095168538 3.1936836
-10.048976 -0.24056131 2.7665753
-10.173078 -0.060960837 2.6476276
-9.7648363 -0.05644282 3.963511
-9.9067602 -0.41617712 3.5355234
-10.139239 0.19460054 2.6237452
-10.089688 0.17210302 2.7024915
-9.9989281 1.3407824 2.8505611
-10.031261 1.2801778 2.1459143
-10.420732 1.3055069 0.91491055
-10.421605 1.2956867 0.87487555
-9.8439426 1.3590529 3.6212053
-9.6607981 1.3875805 3.6573544
-9.9485826 1.3946766 3.3035383
-9.8876352 1.0778576 3.5538864
-9.7333975 1.0000927 3.5373759
-9.7095232 0.920084 3.5765533
-9.8440208 1.2852927 2.6067767
-9.8823519 1.307223 2.687746
-11.280181 1.2894338 -4.3289413
-10.223231 -1.1353811 1.8465557
-10.108302 -0.49694684 1.8341053
-10.344948 -1.1459515 1.7692678
-10.145571 -0.6175794 1.9144716
-10.147484 -0.56729853 1.847208
-10.144075 -0.65779787 1.966783
-10.148734 -0.5371111 1.802351
-10.460447 -1.1382767 1.5318718
-10.189018 -0.48243615 1.8085008
-11.334942 0.60857803 -4.2537155
-11.442142 0.27354017 -4.3259373
-11.437606 0.36813366 -4.2172775
-11.442663 0.27344793 -4.2459002
-11.354856 0.95397896 -4.2874131
-11.214499 0.89654833 -3.2256017
-11.29265 0.89742869 -3.0238647
-9.8833714 0.35788605 3.5486097
-9.6855373 0.064071402 3.9671149
-9.7788982 0.68979329 3.5371428
-9.8187695 0.67952389 3.5404677
-9.8848953 0.55793667 3.5343847
-9.7056437 0.83994538 3.6161633
-9.7151279 0.75988275 3.6160541
-9.7635813 0.63989222 3.5366139
-9.6483927 0.53384757 3.9738045
-10.137538 -0.67897016 2.2466199
-10.291268 -1.1406739 2.3707261
-9.7589321 0.43975714 3.5757356
-9.6584826 1.4005845 3.5373263
-9.7766514 0.99948585 3.6183314
-9.7402525 1.0348858 3.5776715
-9.7405806 1.1198438 3.5880151
-9.8857164 0.75786614 3.5526524
-10.305263 -0.33970705 2.1318376
-10.280586 -0.41934773 2.09093
-10.413612 -0.015286587 0.31195664
-10.654161 0.25017807 0.37621856
-10.187618 -0.45725062 1.7685637
-10.190136 -0.45476958 1.7686315
-10.190061 -0.45728001 1.7711201
-10.20829 1.2821931 1.4299157
-10.285419 1.2810479 1.5517755
-10.192918 1.3566738 2.1025796
-10.278307 -0.29897934 2.0113609
-10.242781 -0.33923522 2.1304135
-10.015745 1.2733247 2.090518
-9.9903059 1.277802 2.1849434
-10.018502 1.2762257 1.9705589
-9.9784946 1.2740273 1.9696386
-10.195045 1.2846813 1.9897747
-10.2007 1.2807579 1.7498217
-11.638585 0.46511018 -4.4409294
-9.9057503 0.99848396 3.6611376
-10.005542 -0.097739942 3.5364232
-10.005199 -0.13775608 3.5412798
-9.9759474 0.27845693 3.5523024
-10.00467 -0.21776268 3.5434952
-9.9314899 -0.45634195 3.5359521
-11.603336 0.61048245 -4.6017065
-11.403657 0.65906751 -4.6065946
-11.144539 0.29812145 -3.0628254
-10.810905 1.2475357 -2.0365207
-10.812671 1.2519675 -2.1165345
-10.769218 1.2533649 -1.9574438
-10.811771 1.2472517 -2.0765102
-10.811926 1.1605136 -0.97634035
-11.162715 1.2149377 -3.5090551
-11.29127 0.97242802 -3.7446125
-11.248854 1.0143751 -3.5057666
-11.240933 0.82164931 -3.54458
-11.011392 0.30483657 -2.225539
-11.03642 0.42411584 -2.3058648
-11.025352 0.26418883 -2.3049688
-11.071133 0.22194146 -2.5837498
-11.361384 0.33698136 -3.0183976
-11.27775 0.030204363 -2.8063071
-11.303899 1.0909535 -3.9452322
-11.28917 1.1310496 -3.9458356
-11.297562 0.89099568 -3.9439495
-11.307768 0.83405417 -4.1286464
-11.290394 0.81076455 -3.9835453
-11.310218 0.76980013 -4.1028562
-11.300061 1.2184733 -4.3063135
-11.319743 0.56946033 -4.1412377
-11.420012 0.36908361 -4.0976343
-11.285565 0.85163087 -3.863909
-11.360723 0.83412707 -4.4499354
-11.361184 0.83403236 -4.3673992
-10.617163 -1.1069075 -0.19102621
-10.660759 -0.98915476 -0.30951583
-10.937136 0.76876563 -1.3278624
-10.790655 0.4100658 -1.3803899
-10.815354 0.3299422 -1.3926946
-10.959809 0.22712237 -1.9460316
-10.964869 0.1496201 -1.9727196
-10.864976 -0.57539076 -0.35793662
-10.569295 1.1692294 -0.86184078
-10.616549 0.56505781 -0.063316703
-10.684981 0.60417277 0.018456817
-10.757955 0.80603397 -0.48157519
-10.680362 1.1665635 -0.47169632
-10.718685 1.1659355 -0.39829922
-10.991877 1.2997248 -2.9857192
-11.03386 1.3138413 -3.0724332
-10.813502 1.2466838 -2.1564894
-11.113764 0.52415204 -3.3051581
-11.187879 1.2556078 -3.3887684
-10.853476 1.2439224 -2.1556046
-10.819897 1.0077618 -0.93684906
-10.810274 0.93302232 -0.9774248
-10.785036 0.80782491 -0.89855862
-10.76565 0.8000862 -0.81901771
-10.766629 0.88765186 -0.83359653
-10.810751 0.88818496 -1.0126296
-10.424175 1.0452549 0.19204354
-10.379294 0.88480842 0.35281885
-10.375011 1.116104 0.61385524
-10.599828 1.3257648 -0.18023419
-9.9616222 1.3986746 3.229105
-10.446877 1.3219881 0.55550063
-10.711691 0.89743406 -0.17963505
-10.712362 0.98993051 -0.17919409
-10.331916 1.124303 0.53288126
-10.435407 1.147355 -0.26485336
-10.436234 1.1350393 -0.3049019
-10.551788 0.92763829 -0.5032562
-10.472751 1.1270795 -0.26408887
-10.456174 1.1273923 -0.30447906
-10.640378 0.80583948 -0.26171625
-10.392833 1.2969081 -0.1050998
-10.381475 0.88524526 0.25784504
-10.41307 0.091951951 0.36995292
-10.615294 0.56273091 0.42677712
-10.616896 0.62545842 0.3770889
-10.620859 0.48292702 0.37652433
-10.618923 0.72321916 0.32006955
-10.770343 -0.37647831 0.015906811
-10.586139 -0.054925449 -0.026856065
-10.582721 -0.055090971 0.01307559
-10.679564 -0.015994601 0.055490732
-10.681111 -0.055625208 -0.024677753
-10.681449 -0.1354382 -0.065048099
-10.782177 -0.37618408 -0.06384182
-11.430871 0.10207969 -3.2952976
-11.431636 0.094580509 -3.2943943
-11.304676 0.59846443 -2.8614407
-11.305509 0.59318072 -2.9013953
-11.124103 0.071651839 -2.9696491
