ply
format ascii 1.0
comment PCL generated
element vertex 680
property float x
property float y
property float z
element camera 1
property float view_px
property float view_py
property float view_pz
property float x_axisx
property float x_axisy
property float x_axisz
property float y_axisx
property float y_axisy
property float y_axisz
property float z_axisx
property float z_axisy
property float z_axisz
property float focal
property float scalex
property float scaley
property float centerx
property float centery
property int viewportx
property int viewporty
property float k1
property float k2
end_header
-0.10719204 -0.13476196 -5.7551608
-0.11187553 -0.014853835 -5.7512178
-0.10178661 0.10511455 -5.7493501
-0.020363808 0.67306745 -5.7452374
0.05653286 0.93875957 -5.7487679
0.058080196 0.95097339 -5.7486506
-0.25338316 1.355247 -5.693799
0.10810995 0.97683239 -5.7549744
0.10920048 0.93666899 -5.7562275
0.10851669 0.85685372 -5.7583179
0.064586639 0.73747742 -5.7554131
0.024983406 0.69726503 -5.750948
-0.016199112 0.67232323 -5.7458429
-0.17751074 -1.2085369 -5.7746897
-0.25636148 -1.2413387 -5.7645054
-0.29160786 -1.2448411 -5.7596474
-0.057323456 -0.85353065 -5.7818584
-0.059577942 -0.81308031 -5.7804337
-0.060922146 -0.77332497 -5.7791557
-0.059856415 -0.69304669 -5.7771068
-0.054018974 -0.62924492 -5.7761793
-0.053984165 -0.61175537 -5.7757053
-0.059276581 -0.5331952 -5.7728095
-0.063596725 -0.49436581 -5.7711387
-0.059375763 -0.45319033 -5.7706041
-0.057683945 -0.38604689 -5.7690029
-0.05602169 -0.33389443 -5.767808
-11.787521 0.066847175 -4.1079044
-11.786476 0.02670233 -4.1091509
-11.761617 0.0047577173 -4.1132464
-11.654569 -0.13446656 -4.1321058
-11.252655 -0.46355385 -4.1976113
-11.252426 -0.51102066 -4.1989441
-11.291133 -0.6438843 -4.1971426
-11.387281 -0.7985003 -4.1878638
-11.357507 -0.9290458 -4.1956248
-11.357787 -0.96336663 -4.1965256
-11.341033 -1.0051903 -4.200026
-11.337811 -1.0097404 -4.2006035
-11.311968 -1.0389966 -4.2050371
-11.251966 -1.103263 -4.2152309
-11.232944 -1.1055369 -4.217967
-11.189009 -1.1134971 -4.2243605
-11.115335 -1.1334569 -4.2352624
-11.080652 -1.1246238 -4.2398953
-10.997375 -1.1123394 -4.2512636
-10.839986 -1.1233218 -4.2736864
-10.814539 -1.1250575 -4.2773108
-10.779835 -1.123719 -4.2821522
-10.727185 -1.1211088 -4.2894807
-10.676857 -1.1201721 -4.2965288
-10.632612 -1.1183164 -4.3026972
-10.554196 -1.1244743 -4.3138876
-10.485946 -1.1174288 -4.3232875
-10.441339 -1.1173193 -4.3295541
-10.407261 -1.1191726 -4.3343945
-10.392885 -1.1187062 -4.3364029
-10.372564 -1.1153359 -4.3391666
-10.178373 -1.150401 -4.3674216
-10.143538 -1.1584971 -4.3725395
-10.024529 -1.2139472 -4.3907862
-10.019962 -1.2153076 -4.3914652
-10.015396 -1.2166679 -4.3921442
-9.8885956 -1.2706251 -4.4114447
-9.8840294 -1.2719855 -4.4121237
-9.7787485 -1.2520002 -4.426374
-9.7418613 -1.2515004 -4.4315453
-9.6930313 -1.2522608 -4.4384294
-9.662817 -1.249007 -4.4425869
-9.5211906 -1.194985 -4.4610133
-9.3866234 -1.188548 -4.4797511
-9.2941923 -1.1990548 -4.493031
-9.2759266 -1.2044961 -4.4957471
-9.1717367 -1.171344 -4.5094833
-9.1011677 -1.1657394 -4.519249
-9.086237 -1.1648259 -4.5213223
-9.0639286 -1.1638125 -4.5244303
-8.8826561 -1.1642004 -4.5499196
-8.8253918 -1.16058 -4.5578694
-8.7958822 -1.1601801 -4.562006
-8.7389698 -1.1579866 -4.5699453
-8.6602221 -1.1669098 -4.5812583
-8.5630474 -1.2112433 -4.5961308
-8.5385103 -1.2009205 -4.599297
-8.4890442 -1.1863399 -4.6058502
-8.4013157 -1.1705122 -4.6177478
-8.3802061 -1.1695327 -4.620688
-8.3402433 -1.1611165 -4.6260743
-8.3181248 -1.1583191 -4.6291065
-8.239418 -1.1597501 -4.6402082
-8.1606579 -1.1711708 -4.6515913
-8.1258774 -1.1692773 -4.6564279
-8.0425911 -1.174566 -4.6682792
-7.9986658 -1.1778905 -4.6745443
-7.8312197 -1.1864468 -4.6983142
-7.8001132 -1.195714 -4.70294
-7.7473726 -1.1930437 -4.7102799
-7.6952024 -1.1902034 -4.717535
-7.6607075 -1.1882249 -4.7223291
-7.4736686 -1.1324242 -4.7470903
-7.4544554 -1.132614 -4.7497959
-7.3339806 -1.109152 -4.7660866
-7.3168702 -1.0914453 -4.7680068
-6.7785707 -1.1030687 -4.843986
-6.6190057 -1.0840435 -4.8658924
-6.5966997 -1.0832628 -4.8690062
-6.3089671 -1.0865475 -4.9095387
-5.9792104 -1.1223205 -4.9568677
-5.9623933 -1.1214856 -4.9592085
-5.9275689 -1.1216625 -4.964108
-5.9001703 -1.1203204 -4.9679222
-5.8404536 -1.1175737 -4.9762406
-5.8130069 -1.1178446 -4.9801059
-5.7912712 -1.1169471 -4.9831362
-5.6432934 -1.0784388 -5.0028806
-5.640089 -1.0780256 -5.0033197
-5.5754547 -1.0752162 -5.0123277
-5.5315099 -1.080646 -5.0186529
-5.4844675 -1.0740569 -5.0250845
-5.3976841 -1.077916 -5.0373878
-5.2995262 -1.1033559 -5.0518813
-5.1471648 -1.0960144 -5.0730958
-4.6973701 -1.1064081 -5.1366014
-4.6559324 -1.1062956 -5.1424227
-4.5871081 -1.0866001 -5.151557
-4.4840665 -1.063767 -5.1654143
-4.4686646 -1.0629573 -5.1675572
-4.2829013 -1.0553541 -5.193459
-4.0616136 -1.103738 -5.2258873
-4.0446925 -1.1031436 -5.2282495
-4.0198455 -1.1032983 -5.2317462
-3.8896935 -1.0737023 -5.249229
-3.860095 -1.0744095 -5.2534084
-3.8110716 -1.0728744 -5.2602568
-3.7668989 -1.0731493 -5.2664733
-3.7421618 -1.0731677 -5.2699509
-3.6046207 -1.1121597 -5.2903509
-3.5652771 -1.1192416 -5.2960749
-3.4963784 -1.1170361 -5.3056984
-3.4570782 -1.1141237 -5.3111424
-3.4177566 -1.1162084 -5.3167267
-3.383307 -1.1151057 -5.3215384
-3.3477283 -1.0941867 -5.3259664
-3.2704291 -1.0682009 -5.3361192
-3.1774435 -1.0566696 -5.3488731
-2.9118538 -1.0451759 -5.3858881
-2.8293717 -1.0677148 -5.3980989
-2.8039865 -1.065971 -5.401619
-2.7233565 -1.0719218 -5.413115
-2.640471 -1.0742974 -5.4248304
-2.6051102 -1.0806968 -5.4299755
-2.5738566 -1.0789109 -5.4343195
-2.5181625 -1.0812635 -5.4422121
-2.4269226 -1.0856231 -5.4551558
-2.3645778 -1.091441 -5.4640779
-2.2898054 -1.0999327 -5.4748206
-2.2735119 -1.1026919 -5.4771862
-2.1987281 -1.1136822 -5.4879985
-2.1371088 -1.12554 -5.496984
-2.0450318 -1.1488454 -5.5105643
-1.9662194 -1.1505312 -5.521688
-1.9580722 -1.1519105 -5.522871
-1.9227118 -1.1583102 -5.5280166
-1.8857508 -1.1629263 -5.5333381
-1.8125896 -1.1707028 -5.5438342
-1.8003697 -1.1727722 -5.5456085
-1.7215238 -1.1819537 -5.556942
-1.6507907 -1.1972513 -5.5673032
-1.5759959 -1.2107401 -5.5781856
-1.4930658 -1.22311 -5.5901804
-1.3787923 -1.2536824 -5.6070795
-1.3353066 -1.2564644 -5.6132679
-1.2999463 -1.262864 -5.6184134
-1.2170153 -1.2752337 -5.6304088
-1.1776376 -1.2698301 -5.6357956
-1.0578861 -1.2738667 -5.6527376
-1.0159397 -1.2738914 -5.6586342
-0.85837078 -1.2647699 -5.6805315
-0.81899309 -1.2593664 -5.6859183
-0.70081425 -1.25315 -5.7023587
-0.62206936 -1.2398442 -5.7130623
-0.61600399 -1.2308846 -5.7136693
-0.64927197 -1.2373228 -5.7091699
-0.73210144 -1.2474402 -5.6978045
-0.8503027 -1.2486595 -5.6812243
-0.96443129 -1.2505685 -5.665235
-1.0038428 -1.2484764 -5.6596384
-1.2894292 -0.88514912 -5.6095457
-1.2894855 -0.87265623 -5.6091952
-1.277688 -0.75759447 -5.6077018
-1.2819405 -0.71692741 -5.6059899
-1.2775536 -0.59694481 -5.6033201
-1.2516761 -0.51745141 -5.6047802
-1.2946696 -0.39740866 -5.595449
-1.2816296 -0.23717469 -5.5928926
-1.2633195 -0.11778024 -5.5921955
-1.2758112 -0.077929966 -5.5893483
-1.2847676 0.081162363 -5.5837317
-1.2849469 0.12113962 -5.5826116
-1.2876348 0.18283921 -5.5805435
-1.2758517 0.30289751 -5.5789113
-1.2949743 0.4233112 -5.5729251
-1.2957582 0.54328609 -5.5695286
-1.2908425 0.58242154 -5.5691476
-1.2874651 0.70257294 -5.5663309
-1.2926216 0.75499332 -5.5641704
-1.3068423 0.8230288 -5.560308
-1.2959104 0.94236302 -5.5585756
-1.2966008 1.0228065 -5.5562754
-1.0237889 1.4156106 -5.5838609
-0.94588423 1.4256845 -5.5945349
-0.91174221 1.4278207 -5.5992751
-0.86045456 1.427986 -5.6064792
-0.837533 1.4267892 -5.6097336
-0.82199383 1.4268135 -5.6119175
-0.79252195 1.4288574 -5.6160035
-0.66912985 1.406733 -5.6339531
-0.62565565 1.4064611 -5.6400709
-0.48979521 1.4060284 -5.6591787
-0.38408613 1.3841195 -5.6746368
-0.34052038 1.3761611 -5.6809783
-0.29695511 1.3682027 -5.6873198
-0.0096635818 -0.22516963 -5.7713456
-0.085566521 -0.015606582 -5.7549367
-0.083726883 0.058495373 -5.7531652
-6.9747148 0.18588936 -4.7811098
-7.0138102 0.14540169 -4.7767239
-7.0298915 0.10845831 -4.7754755
-7.3830347 -0.23684669 -4.7352977
-7.668788 0.020369843 -4.6880879
-7.7524319 0.20472464 -4.6712818
-7.765852 0.31941342 -4.666254
-7.7375178 0.55146432 -4.6638799
-7.7782154 0.63803959 -4.6557884
-7.7965412 0.67395842 -4.6522288
-7.8318005 0.71873116 -4.6460462
-7.8765635 0.79808533 -4.6375809
-7.6595135 1.2631946 -4.6553483
-7.6156092 1.2652693 -4.6614628
-7.550643 1.2691238 -4.6704884
-7.4673777 1.269217 -4.682189
-7.4326229 1.2731721 -4.6869659
-7.42349 1.2737899 -4.6882324
-7.2798018 1.2736814 -4.7084317
-7.2661095 1.275857 -4.7102966
-7.2222214 1.28043 -4.7163401
-7.173727 1.2790661 -4.7231936
-7.0950685 1.2850959 -4.7340841
-6.9325418 1.2861053 -4.7569008
-6.7675953 0.71776474 -4.7956529
-6.7821622 0.68759286 -4.7944317
-6.79352 0.64947021 -4.7938795
-6.8286557 0.36918953 -4.7966185
-7.7901831 0.14520007 -4.6676059
-7.893743 0.36077878 -4.6471448
-7.8936453 0.39069381 -4.6463394
-7.9724836 0.67479348 -4.6274762
-7.9838042 0.72894549 -4.6244016
-8.0067005 0.79004741 -4.6195097
-8.0404062 1.0694119 -4.60712
-8.3246708 1.2718394 -4.5616202
-8.3851957 1.2668275 -4.5532503
-8.4472599 1.271273 -4.544405
-8.4775219 1.268767 -4.5402203
-8.5214453 1.2742366 -4.5338969
-8.600111 1.2682006 -4.523005
-8.6440039 1.268674 -4.5168228
-8.7000322 1.2701631 -4.5089068
-8.718174 1.2691393 -4.5063853
-8.7854671 1.2708706 -4.4968791
-8.8362656 1.2750741 -4.489624
-8.919445 1.2650353 -4.4782076
-8.9936609 1.2729949 -4.4675584
-9.0723114 1.2644609 -4.456737
-9.0813828 1.2639492 -4.4554763
-9.1994743 1.2698839 -4.4387155
-9.2781725 1.2688444 -4.4276824
-9.3523884 1.2768039 -4.4170327
-9.4311008 1.2782623 -4.4059296
-9.4704351 1.2752445 -4.4004836
-9.5097675 1.2722266 -4.3950377
-9.5884809 1.273685 -4.383934
-9.7065277 1.2721255 -4.3673849
-9.7690191 1.2749497 -4.3585238
-9.7852402 1.273584 -4.3562813
-9.8083477 1.272015 -4.3530765
-9.8593941 1.2715511 -4.3459144
-9.9425888 1.2640104 -4.3344274
-10.063065 1.22506 -4.3185606
-9.9665785 0.65921259 -4.3476219
-9.9425983 0.58056736 -4.3531466
-9.9311533 0.54039848 -4.3558559
-9.9315662 0.50055051 -4.3568892
-9.931756 0.49533787 -4.3570051
-9.9130468 0.37777284 -4.3628554
-9.8799763 0.30145344 -4.3695941
-9.8678112 0.26058167 -4.3724236
-9.8630219 0.21962816 -4.3742185
-9.858078 0.17758182 -4.3760648
-10.055302 -0.34881625 -4.3627634
-10.006781 -0.55911624 -4.3753438
-10.008505 -0.56123316 -4.3751593
-9.7594271 -1.0731468 -4.4241905
-9.4497395 -0.76942563 -4.4593992
-9.4132891 -0.68900871 -4.4623199
-9.4110489 -0.68737841 -4.4625902
-9.3679924 -0.68795037 -4.4686575
-9.3226128 -0.69669485 -4.4752755
-9.266695 -0.69881654 -4.4831934
-8.9948101 -0.51700288 -4.516428
-8.9268246 -0.28314811 -4.519578
-8.8425312 -0.077584848 -4.525795
-8.8499937 0.0036592484 -4.522521
-8.8507824 0.082149357 -4.5202599
-8.8506498 0.12353489 -4.519145
-8.8533525 0.18769541 -4.5170078
-8.8559322 0.2686601 -4.5144272
-8.8386898 0.20287895 -4.5186524
-8.8285122 0.14805079 -4.521585
-8.8138962 0.082649246 -4.5254307
-8.8136368 0.067248523 -4.5258894
-8.8229437 0.004025802 -4.5263128
-8.8341885 -0.11689999 -4.5280447
-8.6157465 -0.43735641 -4.5675259
-8.6140203 -0.44036391 -4.5678506
-8.0809155 -0.39691129 -4.6415915
-8.0501966 -0.35697794 -4.644815
-7.8192086 -0.1527957 -4.671689
-7.8005614 -0.06630896 -4.6719408
-7.7960911 -0.050187416 -4.6721277
-7.7899981 0.065316096 -4.6698203
-7.7913127 0.084353954 -4.6691141
-0.95732975 1.4459196 -5.5923719
-0.87852907 1.4467231 -5.6034255
-0.75923157 1.4302697 -5.6206441
-0.73562527 1.4306892 -5.623951
-0.71881294 1.430503 -5.6263189
-0.70531511 1.4295678 -5.6282415
-0.64536333 1.4308943 -5.636632
-0.55586433 1.4312255 -5.6492023
-0.51697302 1.4317116 -5.6546555
-0.48011875 1.4325342 -5.6598129
-0.477911 1.4326015 -5.6601214
-0.43715429 1.4323465 -5.6658568
-0.30530024 1.3821838 -5.6857638
-0.28559828 1.3773276 -5.6886663
-0.26172209 1.3642312 -5.6923809
-2.2540712 1.3737977 -5.4120831
-2.5003159 1.4155577 -5.3763285
-2.5421789 1.415131 -5.3704557
-2.6907756 1.3882666 -5.3503056
-2.7621119 1.3700483 -5.3407779
-2.8533924 1.3700117 -5.327949
-2.8597617 1.3697679 -5.3270607
-3.0145504 1.3439752 -5.3060107
-3.0632784 1.3451773 -5.2991285
-3.1073058 1.3381562 -5.2931328
-3.1278439 1.3349952 -5.2903328
-3.2505369 1.3374637 -5.2730198
-3.2599335 1.3389182 -5.2716594
-3.2992647 1.3386658 -5.2661381
-3.3732297 1.3399324 -5.2557068
-3.4031644 1.3382256 -5.2515464
-3.4612858 1.3308877 -5.243578
-3.5417089 1.3256583 -5.2324171
-3.604517 1.3301951 -5.223465
-3.6626363 1.3153613 -5.2157025
-3.7225049 1.3094491 -5.2074494
-3.7571385 1.3109679 -5.2025399
-3.9091258 1.3614799 -5.1797938
-3.9224069 1.361158 -5.1779356
-4.0465617 1.3413664 -5.1610274
-4.0905905 1.3393426 -5.1548944
-4.1944904 1.3414011 -5.140234
-4.203887 1.3403568 -5.1389418
-4.2667074 1.3362448 -5.1302247
-4.3483028 1.3237014 -5.1190996
-4.4052377 1.3273292 -5.1109977
-4.4240298 1.3252409 -5.1084137
-4.4979944 1.3265074 -5.0979829
-4.5594482 1.3211159 -5.0894928
-4.6239157 1.3219802 -5.0804081
-4.6327581 1.3221601 -5.0791602
-4.7219076 1.319316 -5.0667076
-4.7351556 1.3201778 -5.0648222
-4.7482939 1.3214188 -5.0629416
-4.8032436 1.3080422 -5.0555844
-4.856668 1.3024756 -5.0482278
-4.905395 1.3011792 -5.0414143
-5.0045962 1.3000116 -5.027503
-5.0345297 1.2933077 -5.0234795
-5.1460786 1.2903975 -5.0078802
-5.1918554 1.2947967 -5.0013256
-5.2640715 1.2871417 -4.991385
-5.4745436 1.3063812 -4.9612751
-5.4819365 1.3087826 -4.9601698
-5.5671868 1.3066025 -4.9482474
-5.5862794 1.3094077 -4.945487
-5.6741343 1.3127528 -4.9330468
-5.7967906 1.3196373 -4.9156184
-5.8270493 1.3272327 -4.9111571
-5.8966999 1.3418058 -4.9009681
-5.9802771 1.3357112 -4.8893881
-6.0848413 1.3413403 -4.8745365
-6.0863562 1.341383 -4.8743224
-6.1344547 1.3340614 -4.8677626
-6.1768012 1.3341616 -4.8618078
-6.2254386 1.3355547 -4.8549333
-6.2993155 1.3410165 -4.8443999
-6.3779736 1.3349867 -4.8335094
-6.4173193 1.3344698 -4.8279934
-6.4709435 1.3343933 -4.8204579
-6.4979949 1.3313495 -4.8167391
-6.5451746 1.3302922 -4.8101368
-6.6231465 1.326272 -4.7992878
-6.8415976 1.3703743 -4.767375
-6.8663602 1.3695488 -4.7639174
-7.0392976 1.2983257 -4.7415609
-7.1390815 1.3005086 -4.7274756
-7.2616911 1.2998985 -4.710259
-7.3312635 1.3019806 -4.7004232
-7.3751521 1.2974079 -4.6943798
-7.4834824 1.2874969 -4.6794248
-7.541666 1.294723 -4.6710491
-7.6633673 1.2856952 -4.6541905
-7.752099 1.2924618 -4.6415334
-7.7868538 1.2885065 -4.6367569
-7.8828416 1.2905598 -4.623209
-7.9434595 1.3005364 -4.6144152
-8.0886707 1.2899469 -4.594295
-8.1492119 1.2874329 -4.5858545
-8.2022047 1.2923906 -4.5782704
-8.3111343 1.2838486 -4.5631938
-8.3414125 1.2838407 -4.5589385
-8.3898783 1.2903033 -4.551949
-8.4292269 1.2897835 -4.5464325
-8.5259876 1.2752296 -4.5332313
-8.5820169 1.2767187 -4.5253153
-8.6137867 1.2786744 -4.5207963
-8.6259079 1.277192 -4.5191331
-8.7068176 1.279238 -4.5077047
-8.7969475 1.2805901 -4.4949994
-8.8248463 1.2804269 -4.4910822
-8.8641968 1.2824886 -4.4854951
-8.9035673 1.2895468 -4.4797678
-8.9822578 1.2911721 -4.4686632
-9.0215864 1.2882376 -4.4632158
-9.1027136 1.2844378 -4.4519167
-9.1442089 1.2829149 -4.446126
-9.2228994 1.2845401 -4.4350214
-9.2646828 1.2883478 -4.4290442
-9.3015785 1.2836672 -4.4239864
-9.331212 1.2812961 -4.4198861
-9.3756332 1.2818118 -4.4136286
-9.4149933 1.2863717 -4.4079714
-9.4936714 1.285499 -4.3969364
-9.5330114 1.2850627 -4.3914189
-9.5769758 1.2856088 -4.3852248
-9.6510201 1.2812552 -4.3749366
-9.6949949 1.2842997 -4.3686724
-9.7435637 1.2808323 -4.3619404
-9.8130035 1.2804924 -4.35219
-9.8569679 1.2810385 -4.3459954
-9.8916931 1.2821176 -4.341085
-9.9775496 1.2874784 -4.3288708
-10.092638 1.3213902 -4.3117657
-10.13651 1.312094 -4.3058538
-10.175852 1.3067564 -4.3004704
-10.240944 1.3079568 -4.2912879
-10.300371 1.3188552 -4.2826366
-10.316545 1.3190513 -4.2803583
-10.359007 1.3144271 -4.2745166
-10.402891 1.3126255 -4.2683978
-10.446783 1.3158201 -4.2621408
-10.490667 1.3140182 -4.256022
-10.530022 1.3161751 -4.2504315
-10.560308 1.3212528 -4.2460356
-10.639016 1.3255664 -4.2348547
-10.664761 1.3271081 -4.231194
-10.72225 1.3234234 -4.2232141
-10.766134 1.3216217 -4.2170954
-10.796412 1.321703 -4.2128377
-10.884188 1.3230958 -4.2004619
-10.923542 1.3252527 -4.1948714
-10.962896 1.3274095 -4.189281
-11.002251 1.3295662 -4.1836901
-11.041601 1.3292249 -4.1781688
-11.080947 1.3263855 -4.1727161
-11.155092 1.3146725 -4.1626158
-11.198956 1.30038 -4.1568422
-11.587908 1.2909328 -4.1024313
-11.659264 1.3102992 -4.0918713
-11.666075 1.3101056 -4.0909195
-11.666628 1.3027407 -4.0910435
-11.67285 1.2044634 -4.0928607
-11.561172 1.1642003 -4.1096606
-11.227083 1.2130903 -4.1552792
-11.148389 1.2013807 -4.1666613
-10.963184 1.2422267 -4.1915736
-10.928502 1.2414786 -4.1964693
-10.889156 1.2368724 -4.2021255
-10.845154 1.2309059 -4.2084737
-10.81048 1.2351528 -4.2132311
-10.731822 1.2434232 -4.2240601
-10.697144 1.2451726 -4.2288866
-10.66246 1.2444243 -4.2337818
-10.569816 1.2411211 -4.2468944
-10.530476 1.2390125 -4.2524815
-10.491143 1.2418989 -4.2579308
-10.41713 1.2440373 -4.2682753
-10.347759 1.2400433 -4.2781348
-10.188694 0.71850944 -4.3147783
-10.181096 0.69013083 -4.3166237
-10.161882 0.63947332 -4.3207116
-10.144751 0.6103363 -4.3239179
-10.1398 0.60540509 -4.3247485
-10.043884 0.45599005 -4.3423228
-10.001255 0.3505041 -4.3512039
-10.031466 0.14091635 -4.3526988
-10.266022 -0.30285019 -4.3318863
-10.317619 -0.31583649 -4.3249898
-10.705056 -0.36573803 -4.2719002
-10.776689 -0.30161044 -4.2600751
-10.823679 -0.24719068 -4.2519798
-10.907486 -0.20818821 -4.2391319
-10.953847 -0.20775139 -4.2326035
-11.057087 -0.21894208 -4.2183995
-11.140436 -0.28629944 -4.208529
-11.17472 -0.30525145 -4.2042294
-11.630852 -0.0066333413 -4.131938
-11.620993 0.03500551 -4.1321831
-11.6211 0.074977443 -4.131073
-11.623182 0.095383912 -4.1302214
-11.628322 0.14711928 -4.1280823
-11.622474 0.40433642 -4.1218586
-11.591072 0.47507629 -4.1243343
-11.591269 0.59248924 -4.1210904
-11.653448 0.54982471 -4.1135197
-11.683605 0.52493334 -4.1099625
-11.693167 0.50276399 -4.1092262
-11.692921 0.44777617 -4.1107669
-11.749475 0.11114249 -4.1120386
-0.10111666 -1.1732465 -5.784461
-0.059212208 -1.1480907 -5.7896614
-0.019659042 -1.0679779 -5.7930264
-0.017812729 -1.0533557 -5.7928858
0.022688866 -0.89549148 -5.7942543
0.031739712 -0.7753123 -5.7922344
0.032812119 -0.75803351 -5.7919116
0.033038139 -0.6456008 -5.7888637
0.034395218 -0.61588228 -5.7882404
-0.010124683 -0.45503208 -5.7775769
-5.9999714 0.10225576 -4.9204063
-6.4718394 0.097073883 -4.8542247
-6.485846 0.53046286 -4.8403845
-6.50634 0.57029283 -4.8364129
-6.5806656 0.6562674 -4.8236113
-6.6496224 0.72930789 -4.8119183
-6.4837518 1.2821367 -4.8200893
-6.4398632 1.2867094 -4.8261328
-6.3264804 1.3016912 -4.8416591
-6.2136917 1.2996738 -4.8575673
-6.1590781 1.2992033 -4.8652563
-6.1205597 1.2948999 -4.8707881
-6.0569987 1.2997313 -4.8795896
-6.0002685 1.3009765 -4.8875294
-5.8890171 1.2914464 -4.9034276
-5.7389445 1.2839166 -4.9247274
-5.6163192 1.2820284 -4.9420147
-5.5022697 0.741377 -4.9728541
-5.5042286 0.66140294 -4.9747696
-5.4986229 0.60751247 -4.9770336
-5.5420728 0.42106083 -4.9760337
-5.5687943 0.34026137 -4.9744911
-5.955708 0.10283716 -4.9266119
-3.2458255 1.29426 -5.2748652
-3.1036949 1.3236408 -5.2940378
-3.0496144 1.3239878 -5.3016295
-2.9658151 1.3177871 -5.3135781
-2.8824563 1.3250605 -5.3250952
-2.8478236 1.32604 -5.329936
-2.7067938 1.3284965 -5.3496914
-2.6714556 1.3270733 -5.3546972
-2.3780732 1.0127188 -5.4045448
-2.3768692 0.93348765 -5.4068842
-2.3726196 0.89283633 -5.4085951
-2.3689528 0.81363022 -5.4112802
-2.3687322 0.76365829 -5.4126797
-2.9045417 0.57258463 -5.3426027
-2.9585443 0.56461239 -5.3352308
-2.9660161 0.52420771 -5.3352871
-2.9635339 0.44426778 -5.3378258
-2.9315772 0.44447282 -5.3423119
-2.3617449 0.33305708 -5.425457
-2.3660533 0.21392435 -5.4281144
-2.3662643 0.1921393 -5.4286814
-2.366719 0.1341376 -5.4302063
-2.3644536 0.071991891 -5.4322271
-2.3801432 -0.0078995228 -5.43221
-2.3765628 -0.089284457 -5.4349427
-2.9128468 -0.25097319 -5.3639941
-2.9395757 -0.24929132 -5.3601909
-3.040514 -0.29340643 -5.3472118
-3.3200991 -0.45885617 -5.3124466
-3.3618412 -0.45892566 -5.3065815
-3.7600396 -0.40990582 -5.24927
-4.0652618 -0.17981888 -5.2000666
-4.1816516 0.018110812 -5.1782861
-4.1941319 0.07618925 -5.1749411
-4.1249766 0.50882196 -5.1728106
-4.12499 0.55379713 -5.1715765
-4.1549392 0.59956408 -5.1661134
-4.222167 0.6061281 -5.1564846
-4.2901287 0.55871868 -5.1482306
-4.2948151 0.51946795 -5.1486473
-4.3042002 0.48094448 -5.1483831
-4.3192644 0.43973383 -5.1473947
-4.427269 0.27950764 -5.1366029
-4.4668064 0.2385186 -5.1321683
-4.4897766 0.2100431 -5.1297197
-4.6093473 0.095785648 -5.1160436
-4.6313829 0.064829409 -5.1137938
-4.6680737 0.013729304 -5.1100368
-4.7000513 -0.026053905 -5.1066318
-4.7292557 -0.081586301 -5.1040483
-4.9831533 -0.26879382 -5.0734892
-4.9985552 -0.26960349 -5.0713468
-5.0203376 -0.26950908 -5.0682826
-5.1660562 -0.23284486 -5.0467968
-5.2416596 -0.1941475 -5.03511
-5.4064059 0.044741988 -5.0054107
-5.331203 0.4653028 -5.0044608
-5.3191414 0.50293696 -5.005125
-5.3181086 0.55422759 -5.0038657
-5.3199072 0.55603957 -5.0035629
-5.4007092 0.70773876 -4.9880505
-5.3842449 1.1936369 -4.9770551
-5.2802458 1.2479715 -4.9901843
-5.1760077 1.2712004 -5.0041995
-5.1225843 1.2792656 -5.0114875
-5.1020455 1.2799283 -5.0143561
-5.0486193 1.2779989 -5.0219183
-5.0183911 1.2796602 -5.0261216
-4.9793525 1.2774595 -5.0316691
-4.895997 1.2947274 -5.042912
-4.7780027 1.2954845 -5.0594759
-4.7639089 1.2958015 -5.0614481
-4.6899467 1.3045294 -5.0716052
-4.6412182 1.3008288 -5.0785556
-4.6159811 1.3007641 -5.0821042
-4.5625544 1.2988348 -5.0896668
-4.4535155 1.282575 -5.1054382
-4.4287138 1.2784942 -5.109036
-4.3846822 1.2705235 -5.1154432
-4.3013134 1.245315 -5.1278515
-4.1739249 1.2496148 -5.1456389
-4.1298971 1.2566358 -5.1516347
-4.0952649 1.2601141 -5.1564074
-3.9719923 1.2825407 -5.1731195
-3.9080107 1.2828194 -5.1821051
-3.8543675 1.2841474 -5.1896086
-3.7506881 1.2913247 -5.2039847
-3.6579349 1.3046396 -5.2166567
-3.5698779 1.3111856 -5.2288547
-3.4078493 1.2939777 -5.2521
-3.319787 1.2830335 -5.2647772
-1.6540322 1.3717042 -5.4964795
-1.8338213 1.421638 -5.469841
-2.0561178 1.3540428 -5.4404478
-2.1077166 1.3506651 -5.4332876
-2.2483826 1.3737216 -5.4128847
-2.2499099 1.3739742 -5.4126635
-1.2404437 1.4255422 -5.5531368
-1.3783717 1.406998 -5.5342579
-1.469316 1.3907255 -5.5219212
-1.5136085 1.3827778 -5.5159135
-1.5531015 1.3802292 -5.5104322
-1.0673738 1.4408686 -5.5770426
-1.1524725 1.4261261 -5.5654855
-1.1951833 1.4262718 -5.5594783
0 0 0 1 0 0 0 1 0 0 0 1 0 0 0 0 0 680 1 0 0
