ply
format ascii 1.0
comment PCL generated
element vertex 691
property float x
property float y
property float z
element camera 1
property float view_px
property float view_py
property float view_pz
property float x_axisx
property float x_axisy
property float x_axisz
property float y_axisx
property float y_axisy
property float y_axisz
property float z_axisx
property float z_axisy
property float z_axisz
property float focal
property float scalex
property float scaley
property float centerx
property float centery
property int viewportx
property int viewporty
property float k1
property float k2
end_header
0.40643692 -1.0401027 -1.0577826
0.40924931 -1.0276978 -1.0585849
0.38390636 -1.0273401 -1.0496693
0.032720566 -1.1082708 -0.92741328
-0.01909399 -1.1223236 -0.9094072
-0.066299915 -1.1096915 -0.89262015
-0.29595423 -1.0654465 -0.81121081
-0.31849766 -1.0622032 -0.80323607
-0.37705421 -1.0593023 -0.78260463
-0.395226 -1.0585953 -0.776205
-0.41306877 -1.0571454 -0.7699098
-0.4312396 -1.0564374 -0.76351053
-0.56622481 -1.0472713 -0.71591324
-0.5909667 -1.0530177 -0.70730084
-0.67426515 -1.0507959 -0.67798048
-0.72154999 -1.0482323 -0.66131717
-0.82958937 -1.0592555 -0.62349743
-0.93542981 -1.0587214 -0.58627707
-1.0165277 -1.05744 -0.55774468
-0.99618649 -1.0548116 -0.56485695
-0.98051429 -1.0545988 -0.57036394
-0.89721656 -1.0518217 -0.5996086
-0.88594604 -1.049728 -0.60353976
-0.85213208 -1.0534449 -0.6154843
-0.63385916 -0.98234844 -0.69115752
-0.61137962 -0.49575162 -0.69174355
-0.75325274 -0.34308806 -0.63956684
-0.81200719 -0.15342459 -0.61605722
-0.76668692 -0.11383523 -0.631396
-0.71296239 0.22823572 -0.64514083
-0.71794128 0.50863314 -0.63917369
-0.71089792 0.66865695 -0.63924354
-0.71837068 0.70860887 -0.63601547
-0.7155993 0.82849431 -0.63518709
-0.72265911 0.86871946 -0.63210005
-0.72126555 0.90866601 -0.63198918
-0.71325731 0.94858527 -0.63420457
-0.98346448 1.3074934 -0.53380531
-0.92050958 1.3125079 -0.55586416
-0.90016842 1.3128057 -0.56301147
-0.86195374 1.3121066 -0.5764578
-0.83721137 1.3128211 -0.58514625
-0.82814026 1.3109909 -0.58836299
-0.69535947 1.3177321 -0.63494593
-0.67281723 1.3169883 -0.64288276
-0.60079026 1.3176734 -0.66819638
-0.55350637 1.3201437 -0.68478376
-0.47927904 1.322287 -0.71084899
-0.43199635 1.3272567 -0.72739834
-0.32395887 1.3357828 -0.76525491
-0.2863121 1.3476027 -0.77831334
-0.24571609 1.3512161 -0.79253215
-0.12640333 1.3515071 -0.83447677
-0.06566906 1.3580025 -0.85573262
-0.0070581436 1.366793 -0.87620741
0.053670883 1.3707893 -0.89749902
0.10097456 1.3728642 -0.91409928
0.26078844 1.389446 -0.97003883
0.34193039 1.4293438 -0.99796742
0.35656929 1.3872683 -1.003747
0.35507059 1.3473793 -1.0038199
0.3459878 1.187681 -1.0030279
0.32824707 1.0264436 -0.9992153
0.30028248 0.86733985 -0.99177581
0.29453993 0.78597009 -0.99098057
0.28875399 0.7213825 -0.98991746
0.28868294 0.68889332 -0.99038094
0.25386381 0.58597195 -0.9796868
0.2477293 0.46517113 -0.97934657
0.25139332 0.42367241 -0.98125893
0.22705698 0.27253374 -0.97497529
0.23090315 0.21182483 -0.9772405
0.22799206 0.18507391 -0.97661918
0.21684074 0.14480183 -0.97330409
0.20562315 0.09172529 -0.9701584
0.18086576 0.044477254 -0.96216434
0.1506176 -0.067003086 -0.95320588
0.15629911 -0.18716745 -0.95701057
0.10413027 -0.30695382 -0.94046992
0.092874527 -0.34657475 -0.93710834
0.10057354 -0.66982871 -0.94467634
0.10916233 -0.70953035 -0.94829315
-7.3117371 -1.1971368 1.6534817
-7.2765431 -1.1965455 1.6411166
-7.0710354 -1.134994 1.5697881
-6.9527483 -1.112928 1.5285316
-6.7324624 -1.2311835 1.4493029
-6.6158781 -1.2684606 1.4077526
-6.5763454 -1.268099 1.3938589
-6.5325832 -1.2203807 1.3791901
-6.3348184 -1.1483459 1.3107413
-6.2340455 -1.1644642 1.2750683
-6.1864781 -1.1618476 1.2583835
-6.114717 -1.1634012 1.2331297
-6.0437431 -1.1639959 1.2081672
-6.0195656 -1.163167 1.1996791
-5.8534498 -1.1610279 1.1413066
-5.7856197 -1.1831399 1.1171257
-5.775773 -1.1827551 1.1136696
-5.7519851 -1.1826966 1.105307
-5.6748548 -1.1577041 1.0785646
-5.4954557 -1.1603385 1.0154502
-5.4478803 -1.1602215 0.99872506
-5.4354019 -1.1590368 0.9943555
-5.2453308 -1.0885832 0.92858803
-5.1611075 -1.0839534 0.89904577
-5.1244349 -1.086939 0.88610721
-5.0893297 -1.0905058 0.87371093
-5.0659399 -1.0887179 0.86551416
-5.0425587 -1.0844307 0.85735798
-4.9479427 -1.0745022 0.82424146
-5.033371 -1.0721405 0.85431266
-5.0693789 -1.0724981 0.86696714
-5.1032572 -1.0726517 0.87887621
-5.1505442 -1.0672292 0.89558339
-5.2446337 -1.062048 0.92874205
-5.2643433 -1.0578188 0.93573534
-5.5328665 -0.6959095 1.0355875
-5.5090194 -0.59510183 1.0287191
-5.4026809 -0.44025612 0.99366021
-5.2999291 -0.37636155 0.95849478
-5.2938137 -0.33827719 0.95691741
-5.3172522 -0.33659661 0.96518326
-5.3882899 -0.33906311 0.99012232
-5.4072032 -0.33829236 0.99678361
-5.4189024 -0.33793655 1.0009022
-5.4306011 -0.33758074 1.0050209
-5.4490271 -0.33731359 1.0115032
-5.4615059 -0.33849815 1.0158727
-5.485683 -0.33932686 1.0243607
-5.5258985 -0.33810377 1.0385183
-5.5712805 -0.33828759 1.0544714
-5.6086192 -0.33871603 1.0675929
-5.6459579 -0.3391445 1.0807143
-5.6818347 -0.3396174 1.0933211
-5.6871967 -0.33994308 1.0952014
-5.7235522 -0.34241188 1.1079465
-5.7836146 -0.34121406 1.1290818
-5.8004317 -0.34070259 1.1350023
-5.8085799 -0.34108371 1.1378613
-5.8729162 -0.3416262 1.160473
-5.9279165 -0.33964717 1.1798403
-5.9796681 -0.34277838 1.1979885
-6.0210047 -0.34230322 1.2125292
-6.028121 -0.34316209 1.2150183
-6.1065111 -0.34297091 1.2425823
-6.1189981 -0.34165597 1.2469922
-6.133606 -0.34327748 1.2521039
-6.1891756 -0.34452003 1.2716229
-6.2617245 -0.34200728 1.2971681
-6.296813 -0.34343934 1.3094833
-6.3085122 -0.3430835 1.313602
-6.3560796 -0.34570009 1.3302867
-6.4278488 -0.34164697 1.355581
-6.4717522 -0.34687424 1.3709384
-6.5237713 -0.34592104 1.3892421
-6.5362501 -0.34710559 1.3936117
-6.5700712 -0.34750086 1.4054968
-6.5947447 -0.34532654 1.4142046
-6.6211567 -0.34868431 1.42344
-6.6664896 -0.34877184 1.4393773
-6.7265682 -0.34257507 1.4605936
-6.7382593 -0.34471875 1.4646717
-6.7426295 -0.34958428 1.4661351
-6.9112005 -0.79243398 1.5187433
-7.0867977 -1.1152052 1.5756276
-7.2737503 -1.1566428 1.6407349
-7.4290295 -1.1356833 1.6956444
-7.6847305 -0.71467465 1.7918775
-7.9711351 -0.6825459 1.8930571
-8.0898752 -0.40058088 1.939045
-8.1280441 -0.37099546 1.9529097
-8.223999 -0.3653025 1.986732
-8.2481689 -0.36865169 1.9951797
-8.3199215 -0.36960739 2.0203929
-8.3791876 -0.37184104 2.0411963
-8.4392424 -0.37316859 2.0622909
-8.4868088 -0.37577409 2.0789757
-8.5219059 -0.37465855 2.0913322
-8.5343771 -0.37837955 2.0956609
-8.6536312 -0.40193644 2.1372352
-8.7129135 -0.39917114 2.1581197
-8.7380419 -0.40647686 2.1668448
-9.2103195 -0.37382963 2.3333836
-9.2513084 -0.33135521 2.3484333
-9.2872267 -0.31933576 2.3612425
-9.3231106 -0.31731418 2.3738894
-9.3464832 -0.32406887 2.3820055
-9.3581581 -0.33119541 2.386003
-9.8722353 -0.3050206 2.5671406
-9.8945255 -0.01667279 2.5793138
-9.890172 0.023378313 2.5783854
-9.9032707 0.062669337 2.5835814
-10.21173 0.098549336 2.6925721
-10.441525 0.46378258 2.7788579
-10.450301 0.47155109 2.7820604
-10.601618 0.70910478 2.838834
-10.602163 0.86907053 2.8414316
-10.590633 0.9087019 2.8379736
-10.488277 1.1500274 2.8056152
-10.259003 1.2720349 2.7268398
-10.229879 1.2824217 2.7167561
-10.181489 1.2990966 2.6999936
-10.116329 1.3152537 2.6773269
-10.169039 1.3302895 2.696085
-10.243576 1.3522272 2.7226217
-10.324269 1.3337332 2.7507145
-10.360157 1.3332543 2.7633247
-10.420256 1.3294369 2.7843976
-10.524211 1.3103915 2.8206608
-10.532232 1.310639 2.8234847
-10.615646 1.2698551 2.8521991
-10.745687 1.1877466 2.8966849
-10.76305 1.1482954 2.9021962
-10.801632 1.0829206 2.914778
-10.80152 1.0504274 2.9142504
-10.778025 1.0022172 2.9052646
-10.979378 0.58563173 2.9697938
-10.848162 0.52136183 2.922693
-10.780499 0.14835948 2.8932939
-10.869858 0.0421848 2.923115
-10.701649 -0.20936884 2.8601916
-10.688625 -0.22616468 2.85536
-10.584943 -0.62629795 2.8128893
-10.535442 -0.82507658 2.7924962
-10.527413 -0.86410534 2.7890866
-10.472065 -1.0042015 2.76752
-10.460251 -1.0395658 2.7628343
-10.437258 -1.064783 2.7543712
-10.400471 -1.1027031 2.7408667
-10.352333 -1.1256135 2.7235978
-10.328156 -1.1247636 2.7151098
-10.269444 -1.1020131 2.6948094
-9.9646454 -1.1375531 2.5871112
-9.9529457 -1.137925 2.5829923
-9.869544 -1.1223444 2.5539036
-9.7502317 -1.1162837 2.5120456
-9.6184654 -1.101503 2.4659405
-9.570858 -1.1113949 2.449053
-9.534193 -1.1118232 2.436156
-9.4983082 -1.1138446 2.4235086
-9.4031572 -1.1136327 2.3900578
-9.3789721 -1.1152824 2.3815298
-9.3321505 -1.1242683 2.3649328
-9.248682 -1.1286832 2.33552
-9.116087 -1.127306 2.2889216
-8.9967747 -1.1212453 2.2470639
-8.9141445 -1.1097577 2.2181845
-8.8415709 -1.1197058 2.1925189
-8.8072777 -1.1149163 2.1805339
-8.7355165 -1.1164601 2.1552801
-8.6879406 -1.1163541 2.1385548
-8.5920191 -1.1120491 2.1048944
-8.4851694 -1.112209 2.0673246
-8.4484968 -1.1151366 2.0543869
-8.3658648 -1.1036489 2.0255072
-8.3182888 -1.1035428 2.0087817
-8.2933407 -1.0986001 2.0000844
-8.2449932 -1.0944015 1.9831493
-8.1857033 -1.0996661 1.9622242
-8.1505966 -1.1032811 1.949827
-7.8660145 -1.2810427 1.8470976
-7.7719707 -1.2397969 1.8146532
-7.631618 -1.1995174 1.7659125
-7.6024685 -1.1991291 1.7556696
-7.549614 -1.1991887 1.7370856
-7.4490037 -1.1984363 1.7017236
-7.4423885 -1.1982502 1.6994004
-7.4222431 -1.1983705 1.6923156
-1.4149487 -1.1551771 -0.41913396
-1.3582482 -1.1548635 -0.43906444
-1.2235284 -1.136441 -0.48615342
-4.5839562 -0.32454515 0.70754558
-4.5721316 -0.32465121 0.7033866
-4.111938 -0.36800063 0.5409357
-4.0716748 -0.35793954 0.52693087
-4.0278721 -0.34777248 0.51168329
-3.9883149 -0.33301446 0.49799728
-3.7920613 -0.042590022 0.43336412
-3.7807822 -0.029982418 0.42958808
-3.5418158 0.033609092 0.34652635
-3.5102491 0.043025076 0.33556944
-3.3773708 0.11021739 0.28986132
-3.3166142 0.12670791 0.26874796
-3.2703032 0.13358992 0.25256908
-3.2447433 0.099221796 0.24306566
-3.0269465 -0.20208684 0.16195959
-2.7837563 -0.3201817 0.074680567
-2.7548981 -0.31684354 0.064584553
-2.6624136 -0.31039852 0.032164991
-2.2939315 -0.20231819 -0.095763981
-2.2051792 -0.12133084 -0.12575048
-2.189425 -0.10868372 -0.13109928
-2.1602414 -0.15833348 -0.14210659
-2.2704399 -0.36139244 -0.10641563
-2.1736681 -0.63888383 -0.14461243
-1.8517118 -1.0417789 -0.26386756
-1.6851151 -1.0462229 -0.32250792
-1.6378293 -1.0537854 -0.33924681
-1.5792732 -1.0567549 -0.3598792
-1.5567312 -1.0575664 -0.36781687
-1.5185173 -1.0556657 -0.38122386
-1.4959753 -1.0564772 -0.38916165
-1.462162 -1.0576946 -0.40106827
-1.3766625 -1.0633565 -0.43121415
-1.327178 -1.0593621 -0.44855231
-1.2686219 -1.064831 -0.46922225
-1.219137 -1.0608366 -0.48656052
-1.1965952 -1.0591486 -0.49446064
-1.1853242 -1.0595543 -0.49842936
-1.162782 -1.0603658 -0.50636727
-1.1380391 -1.0621179 -0.51509291
-1.0885541 -1.0606229 -0.53246886
-4.8081713 -1.0734799 0.77511466
-4.5671821 -0.64493608 0.69682992
-4.5642719 -0.60514486 0.69640523
-4.7453141 -1.0692797 0.75307798
-4.6528459 -1.0703322 0.72055131
-4.5752025 -1.077505 0.6931448
-4.5391893 -1.0746484 0.68052608
-4.5031824 -1.0742908 0.66787177
-4.4918909 -1.0750726 0.66389006
-4.4502387 -1.0751063 0.64924508
-4.3951497 -1.0682197 0.62997997
-4.3422122 -1.0715342 0.61131775
-4.294919 -1.0744576 0.59464616
-4.186892 -1.0708857 0.55671871
-4.114872 -1.0676713 0.53144562
-4.0788598 -1.0648144 0.51882708
-4.0484982 -1.0640657 0.50816345
-3.9786174 -1.0660537 0.48356432
-3.8192039 -1.1399723 0.42640465
-3.8079181 -1.1432533 0.42238736
-3.802273 -1.1436445 0.42039669
-3.7457402 -1.1218606 0.40084797
-3.5240364 -1.1033128 0.32317823
-3.4880347 -1.1054544 0.31048822
-3.4072175 -1.1210688 0.28183895
-3.3306682 -1.1420896 0.25460896
-3.2021985 -1.1452836 0.20939234
-3.1549001 -1.1457078 0.19275635
-3.1076016 -1.1461321 0.17612046
-3.0715947 -1.1457745 0.1634661
-3.0355873 -1.145417 0.15081173
-2.9028497 -1.1432047 0.10417593
-2.8668427 -1.1428469 0.091521621
-2.8442607 -1.1444107 0.08355844
-2.8329692 -1.1451925 0.07957679
-2.7609551 -1.1444774 0.054268122
-2.7385669 -1.14415 0.04640156
-2.7136569 -1.1449016 0.037632167
-2.6912823 -1.1442142 0.029775858
-2.6552687 -1.1438725 0.01711899
-2.6416423 -1.1441865 0.012323439
-2.6057835 -1.1423776 -0.00025689602
-2.5337565 -1.1416942 -0.025570512
-2.5112145 -1.1425058 -0.033508301
-2.4864717 -1.1417582 -0.042196333
-2.4639299 -1.1425697 -0.050134063
-2.439187 -1.1418223 -0.058822036
-2.3919027 -1.1418865 -0.075447679
-2.3671601 -1.141139 -0.084135652
-2.3446181 -1.1419505 -0.092073381
-2.2838621 -1.1408614 -0.11341816
-2.2591195 -1.1401138 -0.12210619
-2.2140353 -1.141737 -0.13798171
-2.1623499 -1.1386831 -0.15610772
-2.0925236 -1.1395587 -0.18067116
-2.067781 -1.1388112 -0.18935913
-2.0339677 -1.1400285 -0.20126575
-2.007025 -1.137722 -0.21070391
-1.9597402 -1.1377861 -0.22732967
-1.9259272 -1.1390035 -0.2392363
-1.8786426 -1.1390675 -0.255862
-1.7953444 -1.1387899 -0.28514451
-1.781873 -1.1376367 -0.28986365
-1.7571304 -1.1368893 -0.29855156
-1.6603608 -1.1354585 -0.33255321
-1.6287479 -1.1382347 -0.34370965
-1.5927346 -1.1378931 -0.35636646
-1.5432494 -1.1363982 -0.3737424
-1.518507 -1.1356508 -0.38243026
-1.5072362 -1.1360564 -0.38639909
-4.338768 1.294817 0.64569223
-4.2667418 1.2980015 0.62041646
-4.2419987 1.2962165 0.6116901
-4.2194562 1.2954726 0.60375327
-4.1587005 1.2965295 0.58240819
-4.1474295 1.2961578 0.57843977
-4.0866733 1.2972145 0.55709451
-4.0754023 1.2968427 0.5531261
-4.0393877 1.2946857 0.54043132
-3.9673605 1.2953707 0.5151177
-3.9313462 1.2932138 0.50242299
-3.8953328 1.2935563 0.48976618
-3.8345778 1.2971127 0.46845895
-3.8233066 1.2967409 0.46449053
-3.787292 1.2945838 0.45179576
-3.7265363 1.2956408 0.43045056
-3.6792526 1.298111 0.41386324
-3.6545091 1.2963258 0.40513691
-3.6297669 1.2970402 0.39644852
-3.6072245 1.2962966 0.38851172
-3.5233223 1.2933497 0.35896832
-3.4333823 1.296031 0.32738671
-3.3747876 1.2973239 0.30680484
-3.3140588 1.3013201 0.2855134
-3.2667608 1.300896 0.26887751
-3.1968856 1.2964088 0.24424273
-3.1340175 1.3056074 0.22227731
-3.1926069 1.3068135 0.24289483
-3.2759068 1.3093795 0.27222076
-3.3839393 1.3033082 0.31011254
-3.4559536 1.3025931 0.3354212
-3.4785357 1.3041567 0.34338433
-3.503252 1.3030173 0.35205716
-3.5464706 1.3023525 0.36724237
-3.6225591 1.3052255 0.3940374
-3.6832821 1.3037283 0.4153645
-3.7418716 1.3049345 0.43598208
-3.7574196 1.3053083 0.4414542
-3.7778788 1.3045769 0.44863638
-3.8498929 1.3038617 0.47394505
-3.8859003 1.3035041 0.48659945
-3.9106162 1.3023647 0.49527216
-3.9600484 1.3000857 0.51261771
-3.9939218 1.3024312 0.52456248
-4.0659361 1.3017162 0.54987127
-4.1019435 1.3013586 0.56252557
-4.1739469 1.3056415 0.58790559
-4.2150583 1.303388 0.6023261
-4.2459664 1.3024272 0.61317861
-4.2819681 1.3045689 0.62586862
-4.317975 1.3042113 0.63852292
-4.3951287 1.3091739 0.66572398
-4.4536834 1.3070757 0.68627954
-4.4896979 1.3092328 0.69897431
-4.5729976 1.3114192 0.72829431
-4.6202822 1.3114486 0.74491954
-4.7057772 1.3021786 0.77483928
-4.7778053 1.303993 0.80019093
-4.8138208 1.3086497 0.81292361
-4.8949189 1.3097945 0.84145409
-5.0029593 1.3087671 0.87942445
-5.0637155 1.3077101 0.90076971
-5.086257 1.3059543 0.90866858
-5.1830268 1.3070543 0.94270843
-5.2055693 1.3077981 0.95064533
-5.2516031 1.2918839 0.96659088
-5.3247933 1.2834764 0.99219745
-5.3619375 1.2834433 1.0052564
-5.4214072 1.2833108 1.0261632
-5.4434476 1.2832743 1.0339119
-5.4623528 1.2815781 1.0405333
-5.4075546 1.278753 1.0212244
-5.3833771 1.2796029 1.0127366
-5.3475003 1.2800807 1.0001299
-5.3241024 1.279337 0.99189228
-5.2417798 1.2824054 0.96299469
-5.1930585 1.2750279 0.94575381
-5.0979161 1.2777394 0.9123435
-5.0620475 1.2807168 0.89977735
-5.0562062 1.2830303 0.89775842
-4.9218602 1.3051225 0.85085607
-4.8385592 1.2979369 0.82146025
-4.8160162 1.2946936 0.8134855
-4.7800026 1.2950362 0.8008287
-4.743989 1.2953788 0.78817183
-4.6606927 1.300691 0.75896561
-4.5886636 1.2963771 0.73357624
-4.5166388 1.3020611 0.70833844
-4.4918962 1.3027756 0.69965005
-4.4806252 1.3024037 0.69568163
-4.4085941 1.2930905 0.67021632
-4.8420553 -1.0761327 0.78698802
-4.9253554 -1.0735668 0.81631404
-4.8872142 -1.0705061 0.80295014
-4.8759232 -1.0712879 0.79896843
-1.0285492 1.3089808 -0.51793164
-1.0815551 1.3051687 -0.49935263
-1.1523786 1.3062617 -0.47443551
-1.1793041 1.3036103 -0.46500868
-1.2311563 1.3005133 -0.44682461
-1.3144596 1.3126979 -0.41735286
-1.350471 1.3073562 -0.40477186
-1.4585125 1.3088282 -0.36676353
-1.6014545 1.3424625 -0.31600088
-1.656565 1.3804941 -0.29605281
-1.8096719 1.419989 -0.24162811
-1.8344481 1.4202325 -0.23291343
-1.8840342 1.4216771 -0.21545774
-1.9042749 1.4210056 -0.20835143
-2.0100377 1.4365385 -0.17093283
-2.046051 1.436196 -0.15827602
-2.273387 1.3920202 -0.079011559
-2.284658 1.3923922 -0.075043142
-2.3206718 1.3920497 -0.062386274
-2.3566849 1.3917071 -0.049729586
-2.3814285 1.3934922 -0.041003168
-2.5930779 1.3118682 0.032182932
-2.6475883 1.313283 0.051369548
-2.6538346 1.3133109 0.053566039
-2.6814671 1.3131293 0.063278675
-2.7153459 1.3129756 0.075187683
-2.7647779 1.3106968 0.092533231
-2.7986569 1.3105432 0.10444236
-2.9221554 1.3423334 0.14834118
-2.9744101 1.3356022 0.16661209
-1.0420196 1.3053949 -0.51324958
-1.0599926 1.3042659 -0.50694746
-1.1253159 1.3000827 -0.48404342
-1.1973429 1.2993977 -0.4587298
-1.2333553 1.2965556 -0.4461109
-1.3413959 1.2955281 -0.40814048
-1.3661385 1.2948136 -0.39945203
-1.4494364 1.2945005 -0.37017006
-1.5214615 1.2888162 -0.34493226
-1.6767879 1.2903178 -0.2902987
-1.699331 1.293561 -0.28232396
-1.7444167 1.2975479 -0.26641238
-1.7939005 1.2936196 -0.24907351
-1.8411844 1.2911494 -0.23248619
-1.8884706 1.296178 -0.21578515
-1.8997431 1.2990493 -0.21177876
-1.9357593 1.3062054 -0.19900823
-1.9830461 1.311234 -0.18230712
-2.0077884 1.3105196 -0.17361873
-2.0347309 1.3083469 -0.16417873
-2.1067595 1.3126611 -0.1387893
-2.1405711 1.3087775 -0.12695992
-2.1878586 1.3163055 -0.11022097
-2.2958994 1.3152779 -0.072250485
-2.3544483 1.2981824 -0.051922381
-2.4264805 1.3099949 -0.026419044
-2.4377515 1.310367 -0.022450626
-2.5119777 1.305724 0.0035766363
-2.547992 1.3078811 0.016271353
-2.6200194 1.3071961 0.041585028
-2.7145886 1.3072548 0.07483542
-2.7393298 1.3040409 0.083485901
-2.7731435 1.3051566 0.095391154
-2.806958 1.3087717 0.10733432
-2.8182292 1.3091435 0.11130273
-2.8255012 1.3091997 0.11386037
-2.870671 1.3098279 0.12975103
-2.9066782 1.3094704 0.14240533
-2.9561157 1.3046921 0.15971524
-2.9808319 1.3035529 0.16838801
-3.0528517 1.3003384 0.19366097
-6.0167089 1.2822207 1.2354485
-6.1477442 1.2840303 1.2815464
-6.1953201 1.2839243 1.2982719
-6.2428956 1.2838182 1.3149972
-6.3029499 1.2824906 1.3360918
-6.373168 1.2922201 1.360926
-6.4698372 1.276324 1.3946748
-6.4932432 1.2795671 1.4029529
-6.5657845 1.2795175 1.4284568
-6.6367741 1.2851542 1.4535007
-6.5166664 1.2878093 1.4113121
-6.4573998 1.2900429 1.3905083
-6.3791399 1.3132845 1.3633425
-6.3703661 1.3130058 1.3602535
-6.3202071 1.3138386 1.3426306
-6.2180123 1.3087565 1.3066237
-6.1704292 1.3063631 1.2898579
-6.1228533 1.3064691 1.2731324
-6.0276608 1.2941837 1.2394791
-5.9200315 1.2956173 1.2016593
-5.8958459 1.2939677 1.193131
-5.8490334 1.2874812 1.1765748
-5.7538743 1.2851939 1.1430835
-5.7149506 1.2797966 1.1293172
-5.6908703 1.2789302 1.1208378
-5.6646457 1.2794112 1.1116247
-5.575263 1.2834903 1.08026
-5.5121708 1.2814422 1.0580467
-5.5861411 1.2729583 1.0839263
-5.6337085 1.2703528 1.1006112
-5.6812921 1.2727463 1.1173772
-5.7296557 1.2735465 1.1343932
-5.8614955 1.2812608 1.1808627
-5.980824 1.2801992 1.2228014
-8.1821613 1.278317 1.9967391
-8.488224 1.0987685 2.1016474
-8.5381622 1.138658 2.1198051
-8.7788038 1.2731843 2.2064352
-8.8146801 1.272707 2.2190418
-8.8505573 1.2722294 2.2316484
-8.8622561 1.2726352 2.2357678
-8.8255997 1.2748072 2.2229125
-8.7772522 1.279073 2.2059782
-8.7071266 1.2991334 2.1816244
-8.647089 1.305493 2.1606112
-8.576107 1.3022538 2.1356063
-8.5402222 1.3002317 2.1229594
-8.4559984 1.3049748 2.0934181
-8.4084158 1.3025472 2.0766523
-8.3967171 1.3021415 2.0725329
-8.3850174 1.3017358 2.0684135
-8.2679157 1.2977334 2.0271816
-8.2664051 1.2977886 2.0266514
-8.2649431 1.297738 2.0261366
-8.1806545 1.2992022 1.9965236
-8.145565 1.3004845 1.984206
-8.1092014 1.3004068 1.9714196
-8.0976238 1.3005434 1.9673512
-8.0890217 1.3006755 1.9643285
-8.061326 1.3002287 1.9545844
-7.9903302 1.2919906 1.9294991
-7.9302759 1.2933512 1.9084051
-7.8585453 1.3018044 1.8833127
-7.7750397 1.2848574 1.8536983
-7.6915803 1.282907 1.8243253
-7.6674109 1.2862896 1.8158784
-7.5906148 1.2757541 1.7887194
-7.5363531 1.2769127 1.7696588
-7.5246539 1.2765069 1.7655396
-7.4895573 1.2752897 1.7531815
-7.4661589 1.2744783 1.7449429
-7.4478798 1.2735727 1.7385025
-7.5012331 1.2681972 1.7571802
-7.5430226 1.2708614 1.7719131
-7.5672007 1.2700115 1.7804008
-7.5913777 1.2691619 1.7888885
-7.6147757 1.2699056 1.7971261
-7.7048163 1.2724252 1.8288214
-7.7640905 1.2727592 1.8496666
-7.7882686 1.2718761 1.8581541
-7.8600368 1.2759202 1.8834479
-7.9310255 1.2816589 1.9084928
-7.9910793 1.2802984 1.9295869
-8.1104155 1.2817713 1.9715662
-9.8154697 1.3153017 2.5715489
-9.6966667 1.3288423 2.5299826
-9.5651064 1.3144495 2.483511
-9.5291986 1.3049293 2.4707432
-9.373971 1.2989348 2.4160767
-9.326395 1.2990065 2.3993506
-9.2187805 1.3054377 2.3616111
-9.0993767 1.2814697 2.3192694
-8.9800558 1.2849957 2.2773707
-7.4120035 1.2740507 1.7258959
-7.3277965 1.2837262 1.6964352
-7.3160973 1.2833544 1.6923164
-7.2443361 1.2818108 1.6670626
-7.1967607 1.2819167 1.6503372
-7.0891395 1.2858497 1.6125579
-7.0532627 1.2863275 1.5999513
-6.9822731 1.280691 1.5749073
-7.0306277 1.2789916 1.5918827
-7.0782194 1.2838845 1.6086892
-7.1858416 1.2799515 1.6464685
-7.2458954 1.2786239 1.667563
-7.2934628 1.2760185 1.6842479
-7.3402586 1.2775059 1.7007232
-9.4347382 1.2733846 2.4370573
-9.5182037 1.2778344 2.4664702
-9.5891781 1.2785742 2.4914348
-9.601656 1.2772853 2.4958026
-9.6617031 1.2734252 2.5168567
-9.7084904 1.2725488 2.5332932
-9.7334719 1.2774694 2.5421503
-9.7810841 1.2898948 2.5590773
-0.10383177 1.3449451 -0.84251136
-0.18716478 1.332516 -0.81339937
-0.3958478 1.1087015 -0.74339432
-0.48804045 0.86786699 -0.71460217
-0.011419773 0.66437066 -0.88523692
0.13347769 0.74072742 -0.93503302
0.17637253 0.78524351 -0.94944495
0.2533226 0.98593712 -0.97348183
-6.7436323 1.2878134 1.491111
-6.6952772 1.2895129 1.4741354
-6.660172 1.2858977 1.4617383
-6.7085276 1.2841984 1.478714
-6.6726503 1.2846763 1.4661074
-6.8996086 1.2821809 1.5458659
-6.9346972 1.280797 1.5581819
-6.9580956 1.2815408 1.5664194
-6.9471846 1.2820749 1.5625913
-6.8988371 1.2862737 1.5456562
-6.8520412 1.2847863 1.5291809
-6.8637323 1.2826587 1.5332592
-9.1835861 1.2717277 2.3487301
-9.1484814 1.268011 2.3363318
-9.0767288 1.2689658 2.3111188
-9.0291605 1.2715371 2.2944329
-8.9332294 1.273375 2.2607322
-9.2919884 1.2661014 2.3867586
-9.3512774 1.2714343 2.4076841
0 0 0 1 0 0 0 1 0 0 0 1 0 0 0 0 0 691 1 0 0
