ply
format ascii 1.0
comment PCL generated
element vertex 741
property float x
property float y
property float z
element camera 1
property float view_px
property float view_py
property float view_pz
property float x_axisx
property float x_axisy
property float x_axisz
property float y_axisx
property float y_axisy
property float y_axisz
property float z_axisx
property float z_axisy
property float z_axisz
property float focal
property float scalex
property float scaley
property float centerx
property float centery
property int viewportx
property int viewporty
property float k1
property float k2
end_header
-2.9122188 1.3122541 0.61475217
-2.8322811 1.3100563 0.61535245
-2.7923186 1.3102067 0.61568022
-2.7558255 1.3084881 0.61593843
-2.7192898 1.3071922 0.61620635
-2.6559219 1.3088263 0.61675704
-2.5977027 1.3108119 0.61727369
-2.5628688 1.3063015 0.61745656
-2.476105 1.3119324 0.61828572
-2.4361434 1.3120676 0.61861312
-2.364795 1.3112593 0.61917448
-2.3162799 1.3174706 0.61970598
-2.2763183 1.3176057 0.62003344
-2.244921 1.3141633 0.62021208
-2.1564441 1.3205099 0.62107098
-2.1147697 1.3213605 0.62142819
-2.0782337 1.3200645 0.62169611
-2.0382719 1.3201997 0.62202352
-1.9583597 1.3229687 0.62273365
-1.9183874 1.3206048 0.62300581
-1.8384533 1.3183758 0.62360537
-1.9252279 1.3152438 0.62283146
-2.0468149 1.3116243 0.62176418
-2.0850635 1.3122046 0.62146646
-2.1275945 1.3109969 0.62109441
-2.1675668 1.3133609 0.62082231
-2.2066722 1.3135831 0.62050974
-2.2474794 1.3105918 0.62011212
-2.2874303 1.3079578 0.61972946
-2.3673537 1.3076875 0.61907458
-2.4013093 1.3075571 0.61879599
-2.4412601 1.3049233 0.61841333
-2.4872384 1.3072824 0.6180923
-2.5271893 1.3046484 0.61770958
-2.6062455 1.3022366 0.61701429
-2.6470525 1.2992452 0.61661673
-2.6644645 1.3002509 0.61649764
-2.7269866 1.3014742 0.61601716
-2.7461114 1.3017642 0.61586833
-2.7669482 1.3013391 0.61568975
-2.8174706 1.3050716 0.61536223
-2.8557301 1.3081509 0.61511987
-2.9042666 1.3069373 0.61469895
-2.9356318 1.3028828 0.61435443
-2.9459305 1.3035879 0.61428642
-3.0172677 1.3018973 0.61366981
-3.0258429 1.3008189 0.61357629
-3.0641024 1.3038982 0.61333394
-3.0972018 1.3041261 0.61307025
-3.1371527 1.3014921 0.61268753
-3.1839659 1.2984952 0.61224109
-3.2656019 1.2975096 0.61155647
-3.3038509 1.2980899 0.6112588
-3.383774 1.2978199 0.61060393
-3.4316676 1.2978081 0.61021483
-3.5053611 1.2942002 0.60953659
-3.5436099 1.2947806 0.60923892
-3.5852952 1.296429 0.60893703
-3.623544 1.2970095 0.60863936
-3.6966267 1.3021002 0.60815883
-3.7365668 1.2969671 0.60772085
-3.6983287 1.2988858 0.60807377
-1.5854895 -1.1594723 0.57075787
-1.4322805 -1.1616613 0.57195318
-1.3923187 -1.1615309 0.57228053
-1.3524642 -1.1614444 0.57260603
-1.3300209 -1.1603738 0.57281196
-1.2858491 -1.1595359 0.57318914
-1.0357823 -1.0815268 0.57694781
-0.91587639 -1.0861337 0.57781917
-0.85595465 -1.0809404 0.57842076
-0.98898983 -1.0736009 0.57750326
-1.1088953 -1.0689938 0.5766319
-1.1505699 -1.0698235 0.57627517
-1.1922445 -1.0706533 0.57591844
-1.2781062 -1.0633744 0.57538265
-1.3580623 -1.056146 0.57489365
-1.3980346 -1.0537814 0.5746215
-1.4286518 -1.0550424 0.57434499
-1.4686236 -1.0526737 0.57407296
-1.5579028 -1.0493203 0.57342243
-1.5868378 -1.0423694 0.57334155
-1.5985391 -1.0422387 0.57324946
-1.6293073 -1.0400088 0.57304907
-1.6778202 -1.0422262 0.57260603
-1.7484078 -1.0410911 0.57205814
-1.7577543 -1.0399958 0.57200652
-1.7866564 -1.040522 0.57176018
-1.8266182 -1.0406523 0.57143289
-1.9082544 -1.0416123 0.57074881
-1.9873214 -1.0415232 0.57010889
-2.033278 -1.0441015 0.56967866
-2.0749388 -1.04356 0.56935239
-2.1174085 -1.0412037 0.56905985
-2.1467395 -1.0418696 0.56880695
-2.1973214 -1.0439711 0.56834972
-2.2372828 -1.0441053 0.56802231
-2.3112965 -1.0443143 0.56741679
-2.6290395 -0.69160008 0.57265216
-2.5118196 -0.46450019 0.57863563
-2.3600729 -0.37479347 0.58185524
-2.3542721 -0.32473478 0.58301151
-2.3559957 -0.32293516 0.58303738
-2.3942652 -0.31736812 0.58284998
-2.4402344 -0.32008535 0.58241659
-2.4721229 -0.32429516 0.58206445
-2.5201361 -0.32535163 0.58165121
-2.5506544 -0.32398754 0.58143365
-2.654803 -0.30959952 0.58090693
-2.7746651 -0.3150472 0.57981306
-2.8163159 -0.31632298 0.57944667
-3.1062412 -0.0032799691 0.5840289
-3.1078622 0.0031597912 0.58415842
-3.1869307 0.00092376769 0.58346695
-3.2643611 0.009806186 0.58303511
-3.305181 0.011591762 0.58274329
-3.3400712 -0.0035300404 0.58212495
-3.5034342 -0.041191794 0.57996422
-3.6822152 -0.0031386614 0.57935584
-3.701458 -0.0027214289 0.57920891
-3.9368396 -0.34414288 0.56973308
-3.9821072 -0.4406327 0.56722766
-4.0952163 -0.63205785 0.56206799
-4.093811 -0.76148123 0.55921179
-4.462831 -1.0648881 0.54949331
-4.5435624 -1.0732462 0.54865265
-4.5826802 -1.072834 0.54834419
-4.5410166 -1.0740569 0.54865539
-4.5018854 -1.0769672 0.54890859
-4.3828549 -1.0745809 0.54992783
-3.9748135 -1.0624536 0.55350929
-3.7580886 -1.1238389 0.55390871
-3.6989508 -1.131671 0.55421531
-3.6547031 -1.1411992 0.55436343
-3.5348158 -1.1407483 0.55534673
-3.4115512 -1.1380464 0.55640733
-3.3333147 -1.1388713 0.55702424
-3.2967286 -1.1409718 0.55727476
-3.26352 -1.1453233 0.55744791
-3.2227132 -1.1446099 0.55779505
-3.1410999 -1.1431839 0.5584892
-3.0603302 -1.1423208 0.55916411
-2.9404402 -1.1218122 0.56059188
-2.9031153 -1.1234206 0.56085926
-2.8806369 -1.1233357 0.56104362
-2.8330762 -1.1181213 0.56154531
-2.7956114 -1.1179804 0.56185257
-2.7764742 -1.1184678 0.56199712
-2.7531512 -1.1178206 0.56220084
-2.5578763 -1.0578897 0.56511408
-2.4770203 -1.0524074 0.56589198
-2.4387715 -1.0530226 0.56618893
-2.3188756 -1.0551188 0.56711584
-2.2279372 -1.0451539 0.56807494
-2.193114 -1.0471218 0.56831408
-2.1573596 -1.0438368 0.56867713
-2.1149142 -1.0450615 0.56899458
-2.0374205 -1.0559289 0.56938297
-1.9533443 -1.0463398 0.57027799
-1.9175792 -1.0455304 0.57058632
-1.8776174 -1.0453963 0.57091373
-1.838598 -1.0480471 0.57117176
-1.7883067 -1.0562153 0.57139909
0.01184845 -0.51776046 0.59794444
0.052241325 -0.55734265 0.59739536
0.17502689 -0.82603514 0.59243888
0.19602776 -0.92079926 0.59050965
0.17625952 -0.94099373 0.58990175
0.136724 -0.98138273 0.58868587
0.071995735 -1.002031 0.58770287
-0.10212469 -1.0712714 0.58475506
-0.18229151 -1.124787 0.58291852
-0.22215509 -1.1251618 0.58258653
-0.43133307 -1.0499848 0.58255398
-0.55452919 -1.0792636 0.58090508
-0.59277821 -1.0786945 0.58060718
-0.67609549 -1.0878509 0.57972783
-0.79429913 -1.0800455 0.57894111
-10.627815 1.2989861 0.55181766
-10.661903 1.2945685 0.55144298
-10.784872 1.2593147 0.54966354
-10.82865 1.2544224 0.5491997
-10.867245 1.2366633 0.54849291
-10.933702 1.2169423 0.54751641
-10.974868 1.2084773 0.54699463
-11.023529 1.1999618 0.54641086
-11.036839 1.1987073 0.54627502
-11.134403 1.1571566 0.54456228
-11.164928 1.1171583 0.54342824
-11.168484 1.0355872 0.541592
-11.172735 0.99784654 0.5407213
-11.182883 0.95552069 0.5397011
-11.185891 0.91708845 0.53882515
-11.185453 0.85961288 0.53755522
-11.186697 0.79555494 0.53612578
-11.168318 0.67572236 0.53361988
-11.143036 0.63590604 0.53294295
-10.873018 0.27784342 0.52720165
-10.966005 0.021514878 0.52076727
-10.938614 -0.03797967 0.51967144
-10.898153 -0.3361091 0.5133943
-10.882545 -0.3774755 0.51260448
-10.884125 -0.65941811 0.50634468
-10.894337 -0.69532597 0.50546616
-10.900478 -0.73919427 0.50444436
-10.893045 -0.85521221 0.50193411
-10.881676 -0.91650259 0.50066841
-10.85747 -0.9795109 0.49946886
-10.842943 -0.97967386 0.49958318
-10.824987 -0.97929394 0.49973738
-10.44409 -1.1255817 0.49958852
-10.373093 -1.1276026 0.50012016
-10.331896 -1.1241113 0.50053197
-10.291937 -1.1213379 0.50091779
-10.244217 -1.1217477 0.50129616
-10.204203 -1.1264787 0.50151622
-10.0818 -1.1217757 0.50261414
-10.032047 -1.1220484 0.50301206
-9.9963951 -1.1243926 0.50324953
-9.9618282 -1.1259726 0.50349516
-9.9333115 -1.1270823 0.5037021
-9.8813782 -1.124211 0.50418735
-9.8414192 -1.1214296 0.5045734
-9.8296804 -1.1192402 0.50471723
-9.7098408 -1.1059222 0.50598526
-9.6330986 -1.0910537 0.50693774
-9.59447 -1.0900469 0.50727367
-9.4017715 -1.1033274 0.50854385
-9.3593044 -1.1064597 0.50881922
-9.2744465 -1.1027293 0.5095908
-9.1994286 -1.1003314 0.51025301
-8.9211817 -1.3690361 0.50655836
-8.9174328 -1.3690096 0.50658935
-8.7528648 -1.4042588 0.50714445
-8.6735973 -1.4041387 0.50779068
-8.4772415 -1.3246421 0.51114619
-8.380559 -1.3244476 0.51193541
-8.2770452 -1.3029414 0.51325232
-8.2395563 -1.2992437 0.51363862
-8.1336021 -1.2795875 0.51493436
-8.0560951 -1.2806047 0.51554108
-8.0367184 -1.2808591 0.51569277
-7.9968162 -1.2806259 0.51602191
-7.9810867 -1.2816398 0.51612711
-7.9592881 -1.2819259 0.51629776
-7.9093523 -1.2859883 0.51661319
-7.8693357 -1.2907118 0.51683336
-7.6440811 -1.2392735 0.51980186
-7.5370913 -1.2735206 0.51991165
-7.440125 -1.2288054 0.52168965
-7.4076986 -1.2210896 0.52212387
-7.380456 -1.188418 0.52306896
-7.1386614 -1.0853244 0.52731621
-7.1350613 -1.0852703 0.52734667
-7.0998764 -1.0857466 0.52762175
-7.0550675 -1.0897291 0.5278973
-7.0151076 -1.0869607 0.52828306
-6.9811316 -1.0855409 0.52859038
-6.9423466 -1.0859631 0.52889591
-6.8551941 -1.0858824 0.52960527
-6.7836657 -1.0804454 0.53030646
-6.7424712 -1.0818939 0.53060877
-6.6553397 -1.079537 0.53136843
-6.5826178 -1.0731411 0.5321005
-6.3620877 -1.1463804 0.53226817
-6.2619681 -1.1655864 0.53265548
-5.8483868 -1.1377138 0.53663081
-5.8278561 -1.1372719 0.5368073
-5.8071709 -1.1367424 0.53698695
-5.6902571 -1.1577238 0.53747123
-5.6490412 -1.1567523 0.53782737
-5.6103187 -1.1546859 0.53818756
-5.4882827 -1.175271 0.53872222
-5.3729043 -1.1569713 0.54006439
-5.340055 -1.1568906 0.54033291
-5.2988815 -1.1558403 0.54069042
-5.2542057 -1.1568646 0.54103047
-5.2189231 -1.155212 0.54135352
-5.2117534 -1.1551913 0.54141217
-5.1754861 -1.1570274 0.54166591
-5.1355081 -1.1567578 0.54199648
-5.0955296 -1.1564883 0.54232705
-5.0643663 -1.1537757 0.54264015
-4.8632498 -1.0769473 0.54597521
-4.8224554 -1.073736 0.54637754
-4.7408037 -1.0798051 0.54690599
-4.7025547 -1.0757835 0.54730564
-4.6226301 -1.0754828 0.54796118
-4.7000351 -1.0715967 0.54741883
-4.7383227 -1.0681232 0.54718494
-4.8182349 -1.0709221 0.54647416
-5.1116219 -0.69527024 0.55241549
-5.105782 -0.61584526 0.5542227
-5.1336708 -0.45553422 0.55754828
-5.1453133 -0.41491389 0.55835378
-5.1013613 -0.13591075 0.56489247
-5.0678997 -0.093196511 0.56611055
-5.1072669 -0.085429922 0.56596297
-5.1863737 -0.08017081 0.56543726
-5.2209239 -0.094954595 0.56482923
-5.2994514 -0.11866915 0.56366622
-5.4155202 -0.13625164 0.56233436
-5.7359285 0.093766987 0.56482953
-5.7746539 0.10331823 0.56472677
-6.2729292 0.11134414 0.5608592
-6.5020308 0.014456391 0.55685252
-6.5025721 0.014149323 0.55684131
-6.5554519 -0.066740863 0.55461973
-6.8264346 -0.33638158 0.54644531
-6.8607712 -0.33869871 0.54611522
-6.9051781 -0.33877224 0.54575306
-6.9382353 -0.34033298 0.54545009
-6.9863091 -0.34263554 0.54500878
-7.0206661 -0.34227574 0.54473782
-7.025094 -0.34221327 0.54470325
-7.056098 -0.35213476 0.54423171
-7.2646484 -0.38158089 0.54188609
-7.2964864 -0.38453892 0.54156208
-7.3389506 -0.38843635 0.54113096
-7.3389015 -0.39121005 0.54106992
-7.2935271 -0.44810772 0.54017764
-7.2253914 -0.43697858 0.54097742
-6.9386702 -0.44848937 0.54305017
-6.8685832 -0.46662235 0.54321742
-6.8157248 -0.46604925 0.54365921
-6.8036184 -0.46618438 0.54375452
-6.6563659 -0.44270003 0.54547036
-6.5483661 -0.40562463 0.54716867
-6.3884273 -0.40686733 0.54843962
-6.2794743 -0.38406751 0.54982936
-6.2601037 -0.38428366 0.54998183
-6.2086916 -0.385463 0.55037308
-6.1880302 -0.38489181 0.5505535
-6.166214 -0.3851293 0.55072534
-6.1582775 -0.38394392 0.55081606
-5.7105393 -0.61736822 0.54927915
-5.8362474 -1.0173732 0.53939569
-5.8882899 -1.0752026 0.53769189
-6.3355494 -1.0723828 0.53412318
-6.3827209 -1.0715708 0.53375822
-6.423058 -1.0654757 0.53356576
-6.4555597 -1.0631957 0.53335243
-6.4955192 -1.0659641 0.53296667
-6.5348787 -1.0658827 0.53264892
-6.6142731 -1.0585741 0.5321663
-6.6632166 -1.0691395 0.53153485
-6.7389321 -1.0746872 0.53079718
-6.818934 -1.0703176 0.53024453
-6.8527946 -1.074483 0.52987731
-6.9387865 -1.0812552 0.52902913
-6.9726925 -1.0802896 0.52877522
-7.0187449 -1.0818833 0.52836603
-7.0987034 -1.0825114 0.52770299
-7.1750774 -1.080542 0.52712655
-7.2186203 -1.0859525 0.52665317
-7.2549968 -1.086079 0.52635503
-7.2900267 -1.083541 0.52612686
-7.3785377 -1.0872087 0.52532703
-7.4149103 -1.087157 0.52503288
-7.4548883 -1.0874265 0.52470231
-7.4886627 -1.0866858 0.52444452
-7.5085754 -1.0868918 0.52427828
-7.5698562 -1.0879266 0.52375782
-7.6098347 -1.0881963 0.52342731
-7.634696 -1.0913045 0.52315658
-7.7146339 -1.0943524 0.52244008
-7.7545934 -1.0971258 0.5220542
-7.7945528 -1.0998992 0.52166831
-7.8332939 -1.0994558 0.52136362
-7.872016 -1.1015114 0.52100372
-7.9530954 -1.1177716 0.51998514
-7.9917803 -1.124825 0.5195148
-8.0317392 -1.1275984 0.51912898
-8.074831 -1.1267346 0.51879823
-8.1504192 -1.1302028 0.51810771
-8.1947088 -1.1350791 0.51764011
-8.3090191 -1.1405785 0.51659024
-8.4301338 -1.1496166 0.51540667
-8.468895 -1.1466742 0.51515716
-8.710268 -1.1140541 0.51392031
-8.750246 -1.1143285 0.51358962
-8.8346224 -1.1071167 0.51306438
-9.1074467 -0.80190003 0.51761204
-9.1146631 -0.76673728 0.51833254
-9.1180553 -0.64837581 0.52092755
-9.1176987 -0.60275543 0.52194124
-9.1201754 -0.530788 0.5235157
-9.0397682 -0.33374134 0.52853441
-9.0323486 -0.3236942 0.5288173
-9.0358801 -0.28950799 0.52954608
-9.0376587 -0.28249624 0.52968699
-9.1580315 -0.16963825 0.5312103
-9.1668701 -0.15548953 0.531452
-9.3975964 -0.0037512928 0.53294086
-9.4118204 -0.043567792 0.5319432
-9.8370886 -0.25284103 0.52385372
-9.8445854 -0.25289401 0.52379167
-10.011385 -0.29602006 0.52148193
-9.9085102 -0.37642729 0.52053559
-9.8104515 -0.61485279 0.51604897
-9.8066931 -0.68887419 0.5144394
-10.105722 -1.0965254 0.5029794
-10.240581 -1.1071485 0.50164914
-10.325472 -1.1154865 0.50077522
-10.405447 -1.1135216 0.50016946
-10.802441 -0.8185097 0.50348294
-10.765619 -0.61973923 0.50818598
-10.766594 -0.59723961 0.50867659
-10.797904 -0.41862839 0.51237983
-10.798496 -0.33866215 0.5141468
-10.759714 -0.1770763 0.51804191
-10.691017 -0.015744701 0.52217424
-10.654042 0.23251672 0.52797514
-10.724237 0.60079747 0.53556514
-10.620131 0.99974066 0.5452497
-10.597847 1.0800765 0.54721057
-10.22905 1.2660465 0.55432522
-10.17944 1.2666892 0.55474228
-10.101969 1.2658201 0.55535197
-9.9820709 1.271619 0.55645388
-9.9396257 1.2757878 0.55689085
-9.8786545 1.2868 0.55762982
-9.79986 1.2967161 0.55848926
-9.76684 1.2954018 0.55872822
-9.7149134 1.2975571 0.55919755
-9.6774025 1.2939222 0.55942154
-9.6093807 1.2924955 0.55994219
-9.5706596 1.2945167 0.5603013
-9.5344067 1.2927724 0.56055701
-9.5178108 1.2917162 0.56066835
-9.4749699 1.2891632 0.56095958
-9.4349728 1.2869313 0.56123483
-9.3987236 1.2850938 0.56148845
-9.3574476 1.2785654 0.56167889
-9.3199177 1.2724315 0.56184769
-9.2375126 1.2793664 0.56267035
-9.1950302 1.2785375 0.56299692
-9.1163168 1.27837 0.56363225
-9.0812922 1.2733318 0.56380498
-8.9988499 1.275269 0.5645172
-8.9613199 1.2691349 0.564686
-8.9213419 1.2694019 0.56501645
-8.8520756 1.2712096 0.56561887
-8.8120785 1.2689848 0.56589431
-8.7589245 1.269374 0.56633449
-8.7214317 1.2682378 0.56661367
-8.6921635 1.2723056 0.56694144
-8.6002922 1.2747382 0.56774122
-8.5153828 1.2805773 0.56855994
-8.4754038 1.2808443 0.56889045
-8.5323448 1.2858963 0.5685401
-8.5723038 1.2831233 0.56815422
-8.6510811 1.2908236 0.56768525
-8.7453861 1.2965348 0.56704617
-8.7685986 1.2990018 0.56691241
-8.8085766 1.2987278 0.56658173
-8.9185123 1.2989867 0.56569493
-8.9313927 1.2986661 0.56558329
-9.0071936 1.2931117 0.56484479
-9.075243 1.29933 0.56443012
-9.0859461 1.2993256 0.56434309
-9.093442 1.2992742 0.56428111
-9.1284046 1.2965355 0.56393659
-9.2013187 1.2850256 0.56308961
-9.2350636 1.2857672 0.56283206
-9.2519922 1.2859615 0.5626989
-9.3320065 1.2929101 0.56220329
-9.3563156 1.2942605 0.56203586
-9.3695107 1.2941397 0.56192601
-9.4095078 1.2963645 0.56165063
-9.4195023 1.296296 0.56156796
-9.4519806 1.2970859 0.56132179
-9.4907398 1.3000624 0.56107306
-9.5719538 1.3012615 0.56044024
-9.6412449 1.3045793 0.55995119
-9.721221 1.3065442 0.55934542
-9.8024006 1.3028098 0.55860364
-9.8506031 1.3050928 0.55826288
-9.9319296 1.3212852 0.5579614
-10.051712 1.3004721 0.55652773
-10.0972 1.2961146 0.55606192
-10.149305 1.2940851 0.55559391
-10.174635 1.2919858 0.55534178
-10.189263 1.2913109 0.55520803
-10.22799 1.284201 0.55473608
-10.534531 1.3020775 0.55264348
-10.547879 1.3020353 0.55253416
-10.575733 1.29861 0.55223215
-1.4855957 1.3042347 0.62615681
-1.4421973 1.3033016 0.62648845
-1.4056721 1.3045048 0.62681162
-1.3189301 1.3151338 0.62775141
-1.4353895 1.3161595 0.62682861
-1.4753618 1.3185234 0.62655646
-1.51876 1.3194563 0.62622482
-1.5587111 1.3168223 0.62584209
-1.6403577 1.3183358 0.62521279
-1.6769047 1.3221306 0.62500012
-1.7585406 1.3211449 0.6243155
-1.7950768 1.3224409 0.62404758
-4.5095944 1.3011721 0.601538
-4.4296498 1.2964443 0.60208231
-4.3896885 1.2965795 0.60240972
-4.4341583 1.3017925 0.60216421
-4.5124083 1.3051158 0.60160255
-4.5506821 1.306091 0.60131341
-4.5940342 1.306188 0.60096359
-4.6306076 1.3057903 0.60065788
-4.670557 1.3031416 0.60027486
-4.7105327 1.3054897 0.60000235
-4.750495 1.3053392 0.59967452
-4.8303943 1.3000419 0.59890848
-4.8720713 1.3037629 0.5986526
-4.9103193 1.2997411 0.59825295
-4.9805379 1.295632 0.59759182
-5.1077313 1.2787137 0.59618431
-5.1839581 1.2778194 0.59554565
-5.2639337 1.2797693 0.59493953
-5.1786113 1.2906742 0.59587389
-5.0604715 1.2978609 0.59699225
-5.0302072 1.2992902 0.59726965
-4.9902444 1.2994405 0.59759742
-0.82741976 -1.0748792 0.57878673
-0.74748564 -1.0771176 0.57938606
-0.70752382 -1.0769871 0.5797134
-0.66584921 -1.0761575 0.58007014
-0.35793591 -0.83455306 0.58792317
-0.34780979 -0.68027419 0.59142369
-0.34788942 -0.67404866 0.59156102
-0.39298677 -0.25447562 0.60049129
-0.41304016 -0.23704782 0.60071462
-0.44646168 -0.19647858 0.60134214
-0.45678711 -0.11654339 0.60302943
-0.49758577 0.083245695 0.60712492
-0.50774336 0.12319703 0.60792762
-0.52902365 0.224656 0.61000288
-0.55012369 0.3027637 0.61156219
-0.54565763 0.42523032 0.61431193
-0.52352571 0.50527352 0.61626512
-0.51245356 0.58483565 0.61811781
-0.51141548 0.59277982 0.61830229
-0.51172876 0.66525 0.61990547
-0.49130917 0.74457771 0.62182885
-0.47562838 0.86405092 0.62460333
-0.47340536 0.94509131 0.62641698
-0.7594347 1.3095276 0.63216954
-0.59447145 1.3172122 0.63367909
-0.5145483 1.3174824 0.63433397
-0.47458649 1.3176174 0.63466138
-0.39465189 1.3153886 0.63526094
-0.30319309 1.3303717 0.63633549
-0.2649765 1.3273027 0.63657773
-0.18508339 1.3304536 0.6372962
-0.14870167 1.3339844 0.6376698
-0.10695553 1.3327082 0.63798046
0.016377926 1.3429756 0.63920921
0.056358814 1.3408031 0.63948572
0.12919235 1.3403684 0.64006734
0.16557407 1.3438991 0.64044094
0.33727694 1.3914014 0.64288747
0.45050478 1.3563675 0.64303052
0.49376249 1.3483421 0.64320385
0.57411766 1.3366507 0.64359719
0.57776403 1.3259503 0.6433897
0.57384109 1.2712369 0.64214557
0.57133389 1.2549003 0.64176327
0.55623579 1.111607 0.63846576
0.55058146 1.0698149 0.63749391
0.53649282 0.99105912 0.63563454
0.4943862 0.82896894 0.63170129
0.49101591 0.72683692 0.62941098
0.45538187 0.54795074 0.62515813
0.45684767 0.48593211 0.62379593
0.45841789 0.38881981 0.62165695
0.44492292 0.27019745 0.61891907
0.42302799 0.20754708 0.6173532
0.41782379 0.2299944 0.61780834
0.41531372 0.30905557 0.61953968
0.3696022 0.46772784 0.62268424
0.33189487 0.6254732 0.62587321
-0.20202303 0.62387133 0.62150306
-0.22522259 0.39863688 0.61632419
-0.22384644 0.38176244 0.61596149
-0.22454739 0.32617527 0.61472416
-0.2236104 0.26137781 0.61329603
-0.18286467 0.14159946 0.61097294
-0.18482685 0.035553426 0.60860741
-0.18439817 -0.0044321418 0.60772491
-0.18561077 -0.12441412 0.60505664
-1.5655406 1.3089625 0.6256125
-1.683702 1.3067739 0.6246047
-1.7219183 1.2998574 0.62414116
-1.8019173 1.31708 0.62387329
-6.2400908 1.2724193 0.5868516
-6.2183757 1.275039 0.5870859
-6.1133757 1.2682625 0.58778822
-6.0721412 1.2667559 0.58808964
-6.0321627 1.2670304 0.58842027
-6.0026693 1.2693098 0.58871025
-5.8722687 1.2706273 0.58979809
-6.0002904 1.2707522 0.58876151
-6.1097593 1.2829108 0.58814216
-6.1203585 1.2847916 0.58809775
-6.1510506 1.2919142 0.58800644
-6.2404923 1.3063277 0.58759964
-6.4310322 1.3074853 0.58607835
-6.5495596 1.2848895 0.58461541
-6.6401138 1.2831564 0.5838418
-6.6720066 1.2876282 0.58368194
-6.7107668 1.2905705 0.5834325
-6.7895055 1.2932384 0.58285236
-6.9080896 1.2781394 0.58155507
-6.9610958 1.2748933 0.58105278
-6.9880085 1.2725925 0.58078331
-7.0833921 1.2699978 0.57995141
-7.1479216 1.2714947 0.57946068
-7.1902194 1.2698743 0.57908142
-7.2266226 1.2691647 0.5787701
-7.2397194 1.2683905 0.57864666
-7.2832894 1.2684078 0.57829326
-7.3208899 1.2695323 0.57801294
-7.3465762 1.2708403 0.57783335
-7.3996592 1.2696174 0.57737529
-7.4777431 1.2692304 0.57673281
-7.5253115 1.2772663 0.57652467
-7.5901957 1.2720376 0.57588202
-7.61269 1.2722076 0.5757032
-7.651432 1.2726854 0.57539922
-7.6876988 1.2746668 0.5751487
-7.7714052 1.2768612 0.57451773
-7.7981863 1.2739843 0.57423657
-7.875639 1.2723542 0.57357162
-7.7994108 1.2707838 0.57415569
-7.772604 1.2711116 0.57438058
-7.7156887 1.2684244 0.57478315
-7.6807013 1.2683842 0.57506633
-7.6407251 1.266988 0.57535994
-7.5957355 1.2667264 0.57571936
-7.5526724 1.2683775 0.57610559
-7.5207696 1.2669532 0.57633305
-7.4722328 1.2666966 0.57672137
-7.4527073 1.2665646 0.576877
-7.4327183 1.2667018 0.57704234
-7.3927212 1.2644775 0.57731777
-7.3527431 1.2647519 0.5776484
-7.3196564 1.2652556 0.57792819
-7.2808886 1.2673513 0.57828939
-7.2690744 1.2674545 0.57838756
-7.2032652 1.2615471 0.57879096
-7.1197162 1.2618479 0.57947594
-7.0797582 1.2646648 0.57986277
-7.0273066 1.267581 0.5803532
-6.9998207 1.2677996 0.58058119
-6.9529786 1.2699956 0.58101016
-6.9222627 1.2694923 0.5812484
-6.9130001 1.2702701 0.58134079
-6.8823051 1.2723092 0.58163518
-6.8367815 1.2695438 0.58194351
-6.8023024 1.2679474 0.58218807
-6.793046 1.2685945 0.58227754
-6.713089 1.2691433 0.58293885
-6.6281652 1.2700649 0.58364874
-6.603714 1.2702388 0.5838511
-6.593154 1.2699668 0.58393085
-6.5630946 1.2694497 0.58416343
-6.5144658 1.2730062 0.58463705
-6.4732571 1.2757881 0.58503324
-6.43326 1.2735636 0.58530867
-6.4207664 1.2736493 0.58541197
-6.3932962 1.2740073 0.58564293
-6.3532839 1.2716136 0.58591473
-6.3495536 1.2712684 0.58593738
-6.3132677 1.2668903 0.58613497
-6.2732892 1.2671647 0.5864656
-3.9015627 1.2967795 0.60637712
-4.3097649 1.2968495 0.6030646
-3.8998606 1.299994 0.60646218
-3.8165009 1.2991961 0.60712123
-8.3711557 1.2827463 0.56977892
-8.3154917 1.2819123 0.57021236
-8.2886868 1.2798002 0.57038319
-8.2524195 1.2778188 0.57063371
-8.1674957 1.278875 0.57134658
-8.1262617 1.277402 0.57164872
-8.0512342 1.272444 0.57214803
-7.9955921 1.2740523 0.57263541
-7.9556322 1.2768184 0.57302111
-7.9275875 1.2755215 0.57322001
-7.8925581 1.2727884 0.57344389
-7.9312801 1.2707672 0.57308471
-7.9593239 1.2697158 0.57283378
-8.0124741 1.2694675 0.57239676
-8.0767536 1.267819 0.57183832
-8.1204796 1.2679464 0.57148618
-8.1299152 1.26765 0.57140303
-8.1711311 1.2666242 0.57104564
-8.3954468 1.2813783 0.56955141
-8.4366684 1.2804097 0.56919527
-8.320426 1.2741082 0.5699994
-8.3723364 1.2744979 0.56958658
-8.4004011 1.2760732 0.56939363
-8.4123335 1.2767227 0.56931114
-8.4354076 1.2786125 0.56916571
-8.4510937 1.2796994 0.56906241
-4.5877943 1.2991186 0.60085762
-4.6694412 1.300632 0.60022831
-4.7076793 1.2987133 0.59987533
-4.7904191 1.2976938 0.599181
-4.8275533 1.2958093 0.59883779
-4.8675261 1.2981731 0.59856564
-1.2789688 1.3152688 0.62807882
-1.1990781 1.3230358 0.62889951
-1.115696 1.3172399 0.62944806
-0.9991827 1.3037193 0.63009441
-1.0459962 1.3007222 0.62964797
-1.0842447 1.3013028 0.6293503
-1.1641684 1.3010325 0.62869543
-1.2041731 1.3108934 0.62858909
-4.5495453 1.2985382 0.60115528
-2.9521687 1.3096054 0.61436915
-2.9921184 1.3069566 0.61398613
-3.0720434 1.306656 0.61333054
-3.1119928 1.3040073 0.61294752
-3.1919179 1.3037066 0.61229199
-3.2170868 1.303721 0.61208797
-3.2318807 1.3035564 0.61196423
-3.3118055 1.3032558 0.61130869
-3.3769333 1.3031807 0.61077827
-3.4168952 1.3030456 0.6104508
-3.471643 1.3001561 0.60994232
-3.5367911 1.3051393 0.60952383
-3.5801673 1.3010745 0.60908157
-8.2754765 1.2771813 0.57043242
-8.2899055 1.2765495 0.57030129
-7.8793859 1.2727487 0.57354993
-0.843822 1.2998824 0.63127071
-0.86444569 1.2995466 0.63109583
-0.88613892 1.2987636 0.63090235
-0.9261117 1.3011274 0.63063025
-0.83766699 1.3149709 0.63165498
-0.91415358 1.3136327 0.63100439
0 0 0 1 0 0 0 1 0 0 0 1 0 0 0 0 0 741 1 0 0
