ply
format ascii 1.0
comment PCL generated
element vertex 594
property float x
property float y
property float z
element camera 1
property float view_px
property float view_py
property float view_pz
property float x_axisx
property float x_axisy
property float x_axisz
property float y_axisx
property float y_axisy
property float y_axisz
property float z_axisx
property float z_axisy
property float z_axisz
property float focal
property float scalex
property float scaley
property float centerx
property float centery
property int viewportx
property int viewporty
property float k1
property float k2
end_header
-11.177794 -0.81085449 -1.7335536
-11.275414 -0.77883136 -1.7230235
-11.292165 -0.74208426 -1.7168745
-11.250711 -0.70757186 -1.7146614
-11.215534 -0.73881 -1.7211928
-11.102756 -0.19262205 -1.6523293
-10.782967 -0.23016728 -1.6774654
-10.765344 -0.15174147 -1.6676664
-10.761253 -0.078433067 -1.6577356
-10.763161 -0.049743779 -1.6536307
-10.767063 0.07328409 -1.6362939
-10.767999 0.10726233 -1.6315145
-10.767962 0.14652957 -1.6260611
-10.778219 0.14738968 -1.6253026
-11.184661 0.38495508 -1.5669777
-11.181638 0.54074109 -1.5455209
-11.0256 0.74332869 -1.5270925
-11.024687 0.7444945 -1.5269874
-11.140869 1.0282863 -1.4803199
-11.143766 1.0345073 -1.4792751
-11.146812 1.0401139 -1.4783063
-11.179169 1.1010604 -1.4678228
-11.189142 1.1009349 -1.467219
-11.261938 1.0203787 -1.4738773
-11.276911 1.005465 -1.4750167
-11.322803 0.96034312 -1.4784274
-11.343761 0.91553563 -1.4833477
-11.362226 0.87075937 -1.4884188
-11.422591 0.69213325 -1.5094774
-11.339058 0.61863983 -1.5248919
-11.247428 0.39045137 -1.5623044
-11.242477 0.35124698 -1.5680599
-11.235036 0.31207401 -1.5739663
-11.229114 0.27815863 -1.5790473
-11.221159 0.18917188 -1.5919068
-11.218468 -0.12906833 -1.6362914
-11.172612 -0.17871757 -1.646046
-1.5346389 -1.1883923 -2.3866761
-1.4947269 -1.1878817 -2.3890913
-1.3574932 -1.1726017 -2.3955164
-1.2592494 -1.1628922 -2.4002869
-1.0552754 -1.1138245 -2.4061747
-1.0153635 -1.1133139 -2.4085898
-0.93553686 -1.1147454 -2.4137611
-0.89562464 -1.1142347 -2.4161763
-0.77687693 -1.1023996 -2.4219286
-0.73598719 -1.1023797 -2.4244728
-0.65615606 -1.1087173 -2.430326
-0.47894096 -1.1112915 -2.4417224
-0.38214779 -1.1073481 -2.4472036
-0.31653118 -1.113976 -2.4522119
-0.27451468 -1.1212848 -2.4558444
-0.23144722 -1.1336654 -2.4602473
-0.1915369 -1.1332865 -2.4626806
-0.1418767 -1.0926722 -2.4601309
-0.11884975 -0.92416859 -2.438153
-0.19837189 -0.88412827 -2.4276364
-0.23493195 -0.37892851 -2.3551655
-0.23384619 -0.36926538 -2.3538907
-0.23292112 -0.31658533 -2.3466287
-0.23295689 -0.27665821 -2.341079
-0.24589539 -0.19502054 -2.3289301
-0.039968014 0.11469281 -2.2987251
-0.0058999062 0.12546517 -2.2993505
0.012583733 0.13321455 -2.2994251
0.013534546 0.16751307 -2.2947187
0.022743225 0.22077805 -2.2878916
0.014424801 0.28041312 -2.2790878
0.0099363327 0.32968754 -2.2719619
0.0038743019 0.45253053 -2.2545161
0.012248516 0.56552285 -2.2393384
0.012156963 0.68342513 -2.2229512
0.013108253 0.71772361 -2.218245
0.15197325 0.99767768 -2.1879973
0.18049622 1.0835264 -2.1778462
0.1904974 1.1118152 -2.1745386
0.18958521 1.1273271 -2.1723266
0.1874876 1.1526945 -2.1686711
0.18906403 1.2474178 -2.1556084
0.18909454 1.2864059 -2.1501932
0.18735838 1.3197228 -2.1454561
0.15961885 1.343613 -2.1404088
0.14644194 1.3537084 -2.1381853
0.10749054 1.3752334 -2.1327682
0.10553455 1.3754126 -2.1326215
-0.014218807 1.3960428 -2.1222959
-0.054138184 1.405376 -2.1185124
-0.18882227 1.3791522 -2.1137667
-0.31353903 1.3628772 -2.1082594
-0.37921 1.3603498 -2.1045198
-0.43327093 1.3564883 -2.1016891
-0.51309252 1.3530478 -2.0971949
-0.55300474 1.3525558 -2.0947773
-0.59291506 1.3496072 -2.092701
-0.65859938 1.3532051 -2.0881097
-0.67274141 1.3510793 -2.0875242
-0.75256538 1.3500952 -2.0826886
-0.79247522 1.3471467 -2.0806124
-0.87229919 1.3461626 -2.0757768
-0.91221142 1.3456703 -2.0733593
-0.95212317 1.3451782 -2.0709414
-0.99203324 1.3422298 -2.0688651
-1.0319436 1.3392814 -2.0667889
-1.1117656 1.3358409 -2.0622947
-1.1516798 1.3378052 -2.0595357
-1.1774685 1.3392352 -2.0577307
-1.2315037 1.3368208 -2.0547001
-1.3113258 1.3333803 -2.0502062
-1.3911479 1.3299398 -2.0457122
-1.431062 1.3319041 -2.042953
-1.5108857 1.3309197 -2.0381176
-1.5776298 1.3388599 -2.0328569
-1.7768269 1.4231594 -2.0087364
-1.8167467 1.4203857 -2.0066352
-1.8965769 1.4172925 -2.0020924
-1.9364867 1.416973 -1.9996507
-2.0929511 1.4047823 -1.9915985
-2.1086528 1.4069626 -1.9903175
-2.1514437 1.3924174 -1.989673
-2.2947652 1.3744653 -1.9832399
-2.3490744 1.367255 -1.9808588
-2.3735433 1.3660984 -1.9794953
-2.4134433 1.3682332 -1.9767134
-2.4943249 1.3704138 -1.9713724
-2.5352764 1.3778224 -1.9677922
-2.694056 1.3246411 -1.9652909
-2.7738659 1.3264563 -1.9600674
-2.8148377 1.3289565 -1.957168
-2.8536959 1.3233631 -1.9555247
-2.9928603 1.3196093 -1.9473777
-3.0327802 1.3168356 -1.9452765
-3.1524997 1.3183314 -1.9376115
-3.1924195 1.3155577 -1.9355102
-3.2323194 1.3176923 -1.9327283
-3.3121595 1.3121451 -1.9285258
-3.3520694 1.3118256 -1.9260843
-3.3919792 1.3115062 -1.9236426
-3.4717989 1.3108672 -1.9187596
-3.5117192 1.3080935 -1.9166583
-3.5516188 1.3102282 -1.9138764
-3.6314688 1.3022268 -1.9100143
-3.6713989 1.2969989 -1.9082534
-3.7113187 1.2942252 -1.9061522
-3.7911487 1.2911321 -1.9016094
-3.8310585 1.2908125 -1.8991679
-3.90833 1.2899194 -1.8944788
-3.9971325 1.2886717 -1.8891207
-4.0306182 1.286761 -1.8873004
-4.1104484 1.2836679 -1.8827575
-4.1503477 1.2858026 -1.8799757
-4.2301579 1.2876178 -1.8747522
-4.2700577 1.2897525 -1.8719702
-4.3099775 1.2869788 -1.869869
-4.3498874 1.2866594 -1.8674273
-4.429687 1.2909288 -1.8618635
-4.4696074 1.2881551 -1.8597623
-4.5494366 1.2850618 -1.8552196
-4.5893469 1.2847424 -1.852778
-4.6356926 1.2808285 -1.8504349
-4.6691771 1.2816492 -1.8482351
-4.7090864 1.2813299 -1.8457936
-4.7489963 1.2810104 -1.843352
-4.8288264 1.2779173 -1.8388093
-4.8687363 1.2775977 -1.8363676
-4.948566 1.2745045 -1.8318249
-5.0682855 1.2760004 -1.8241597
-5.1755481 1.2915294 -1.8153208
-5.2553339 1.2879575 -1.8108473
-5.2952275 1.2898526 -1.808099
-5.3351202 1.2892936 -1.8056918
-5.4946928 1.2870576 -1.7960628
-5.5744791 1.2859398 -1.7912483
-5.7739449 1.2855991 -1.7788711
-5.813838 1.28504 -1.7764637
-5.8537316 1.2869351 -1.7737155
-5.9749861 1.2954428 -1.7649806
-6.0946631 1.2864039 -1.7587818
-6.2542362 1.286622 -1.7488117
-6.3340249 1.2953202 -1.7426332
-6.4075212 1.295182 -1.7380744
-6.4458404 1.2893465 -1.7364984
-6.5303431 1.2844263 -1.7319183
-6.6914997 1.321823 -1.716684
-6.9280066 1.3162675 -1.702724
-6.9610438 1.3095124 -1.7016047
-6.9659977 1.3085146 -1.7014349
-7.1318898 1.2964109 -1.6927831
-7.251565 1.2824641 -1.6872663
-7.2930298 1.2798197 -1.685051
-7.371244 1.2783333 -1.6803856
-7.6165218 1.3162241 -1.6598428
-7.6492043 1.3191277 -1.6574036
-7.6499186 1.3190678 -1.6573675
-7.7289944 1.3181221 -1.6525732
-7.7686987 1.3169621 -1.6502613
-7.8085938 1.3164594 -1.647846
-7.9320235 1.2884992 -1.6440425
-8.0517111 1.2845366 -1.6371379
-8.1314926 1.2933478 -1.630944
-8.2097673 1.2797222 -1.6279615
-8.3324881 1.2960916 -1.6180429
-8.3723831 1.2955889 -1.6156278
-8.4905453 1.2912772 -1.6088666
-8.5304356 1.2956828 -1.6057698
-8.5718555 1.2955291 -1.603211
-8.6470795 1.2812052 -1.6005155
-8.7268677 1.2826539 -1.5953443
-8.8096933 1.2995261 -1.5878409
-8.8480692 1.2913115 -1.5865918
-8.9692736 1.2975149 -1.5781802
-9.0904732 1.3086268 -1.5690869
-9.2116804 1.3099219 -1.5613569
-9.3313684 1.3059593 -1.5544522
-9.4111633 1.3000454 -1.5503036
-9.4510555 1.3019967 -1.5475476
-9.5293198 1.3006423 -1.5428607
-9.6060638 1.29403 -1.5389991
-9.7287903 1.3030367 -1.5301031
-9.848465 1.3113452 -1.5214942
-9.8898792 1.3185543 -1.5179129
-9.9297771 1.3155973 -1.5158385
-10.009558 1.3244085 -1.5096449
-10.049455 1.3214515 -1.5075705
-10.110817 1.3161347 -1.504487
-10.188896 1.3092144 -1.5005851
-10.201553 1.3097146 -1.4997271
-10.272891 1.3140922 -1.4946753
-10.33772 1.3132752 -1.4907507
-10.392575 1.3125839 -1.4874299
-10.488299 1.3061008 -1.482368
-10.508251 1.3009411 -1.481842
-10.548156 1.2906214 -1.4807904
-10.551483 1.2736443 -1.4829419
-10.384012 1.2768599 -1.4929267
-10.302698 1.2775162 -1.4979006
-10.221393 1.2659017 -1.5045788
-10.181496 1.2688587 -1.5066531
-10.08025 1.2624073 -1.5138561
-10.020399 1.2607038 -1.5178208
-9.8822937 1.2726328 -1.5247658
-9.7656364 1.2993815 -1.5283159
-9.7257404 1.2998843 -1.5307311
-9.560091 1.2661399 -1.5457377
-9.4404068 1.2676482 -1.5529833
-9.4005136 1.2656969 -1.5557394
-9.2853889 1.285432 -1.5601684
-9.2454929 1.288389 -1.5622426
-9.1212444 1.2741245 -1.5719639
-8.9662333 1.2845458 -1.5801715
-8.9263382 1.2850485 -1.5825866
-8.8020973 1.2634215 -1.5933305
-8.7223053 1.2668812 -1.59782
-8.6026201 1.2683897 -1.6050656
-8.4814167 1.2621862 -1.6134771
-8.4415245 1.2602347 -1.6162332
-8.3617315 1.2636944 -1.6207228
-8.2834702 1.2625948 -1.6257503
-8.1653032 1.2718151 -1.6318299
-8.0026855 1.2584026 -1.6438227
-7.9274702 1.2629098 -1.6478816
-7.8845263 1.2602599 -1.6509247
-7.8047342 1.2637197 -1.6554142
-7.7219043 1.2517561 -1.662236
-7.6835375 1.2501537 -1.6648484
-7.6022263 1.2459017 -1.670504
-7.565383 1.2471027 -1.6726321
-7.4846234 1.2457342 -1.6778526
-7.3649426 1.2425029 -1.6857564
-7.3281927 1.2364371 -1.6888884
-7.2452612 1.2368178 -1.6940013
-7.1638985 1.2228433 -1.7010109
-7.1224356 1.2328496 -1.7022034
-7.0442228 1.2367901 -1.7065277
-7.002758 1.2394345 -1.7087431
-6.9245443 1.2409209 -1.7134085
-6.8463354 1.2571315 -1.7160277
-6.8132715 1.2617215 -1.7174494
-6.7250843 1.2608937 -1.7230576
-6.6823082 1.256754 -1.7262974
-6.5639386 1.260307 -1.7331768
-6.5227351 1.2565207 -1.7362695
-6.4427538 1.264326 -1.740167
-6.363163 1.2636483 -1.7452188
-6.3232689 1.2592962 -1.7483084
-6.2833753 1.2573977 -1.7510573
-6.2434812 1.2530456 -1.7541468
-6.1636934 1.2443413 -1.7603261
-6.0836434 1.2470139 -1.7649411
-6.044014 1.2460066 -1.7675496
-6.0041208 1.2490153 -1.7696165
-5.924335 1.252579 -1.7740911
-5.8046532 1.2395228 -1.7833601
-5.7232995 1.247576 -1.7873087
-5.6450825 1.254011 -1.7912867
-5.6051888 1.2521125 -1.7940354
-5.5254025 1.2532227 -1.798851
-5.4855084 1.2513242 -1.8015997
-5.4440465 1.2465544 -1.8048451
-5.3658295 1.2529893 -1.8088231
-5.2678461 1.231577 -1.8179015
-5.2290096 1.2375901 -1.8194852
-5.1082282 1.2280238 -1.8283377
-5.0683093 1.2308116 -1.8304369
-4.9884706 1.2363869 -1.8346354
-4.9485612 1.2367239 -1.8370745
-4.9086418 1.2395116 -1.8391737
-4.8288131 1.2426363 -1.8437121
-4.7888942 1.2454242 -1.8458112
-4.7090855 1.2436475 -1.8510293
-4.6691561 1.2488859 -1.8527887
-4.6292467 1.2492229 -1.8552277
-4.549438 1.2474463 -1.8604459
-4.5095186 1.250234 -1.8625451
-4.4296899 1.2533587 -1.8670834
-4.3897905 1.2512451 -1.8698624
-4.270072 1.2498056 -1.8775196
-4.2301531 1.2525932 -1.8796189
-4.1503539 1.248366 -1.8851768
-4.1104445 1.248703 -1.8876159
-4.0306158 1.2518277 -1.8921542
-3.9119997 1.2487121 -1.8999757
-3.8710079 1.2458239 -1.9029303
-3.7911694 1.2513993 -1.9071287
-3.7512503 1.2541869 -1.909228
-3.671392 1.2646637 -1.9127465
-3.5516539 1.2681255 -1.919724
-3.4718256 1.2712502 -1.9242623
-3.4319162 1.2715871 -1.9267014
-3.3520775 1.2771627 -1.9308999
-3.3121879 1.2725984 -1.9340187
-3.2321944 1.2789589 -1.9381177
-3.1924303 1.2809614 -1.9403164
-3.1525111 1.2837492 -1.9424156
-3.0328126 1.2774082 -1.9507526
-2.9929128 1.2752945 -1.9535316
-2.9130547 1.2857714 -1.9570503
-2.8731554 1.2836577 -1.9598292
-2.7933266 1.2867824 -1.9643676
-2.7534273 1.2846688 -1.9671465
-2.7432461 1.2857406 -1.9676318
-2.6634278 1.2940937 -1.9714431
-2.503778 1.2936059 -1.9814553
-2.4239519 1.2921337 -1.9866322
-2.306185 1.3109835 -1.9913489
-2.1844873 1.3049117 -1.9997729
-2.1435938 1.3004017 -2.0029469
-2.0647535 1.3088443 -2.0066848
-1.9859073 1.3099182 -2.0114467
-1.9450154 1.3078644 -2.0142791
-1.9070573 1.3060794 -2.0168917
-1.8642061 1.2989337 -2.0205536
-1.8252757 1.3044281 -2.0222151
-1.7454479 1.3004997 -2.0277333
-1.6266932 1.3069782 -2.0342305
-1.5458896 1.3054166 -2.0394807
-1.4660673 1.3088571 -2.0439746
-1.373873 1.3193624 -2.0482578
-1.3492725 1.3204275 -2.0496421
-1.3083827 1.32083 -2.0521333
-1.2940531 1.3200012 -2.0531409
-1.2256136 1.3068076 -2.0592372
-1.1457875 1.3053355 -2.064414
-1.1058795 1.3107402 -2.066149
-0.98810673 1.322221 -2.0718899
-0.75074387 0.89308941 -2.1462994
-0.83755016 0.74653703 -2.1612544
-0.86495924 0.70689791 -2.1650548
-0.88137817 0.62307894 -2.175678
-0.90606833 0.51678008 -2.1889095
-0.88119507 0.38727435 -2.2084525
-0.87564468 0.35807028 -2.2128561
-0.8622613 0.30169749 -2.2215221
-0.86355257 0.15414144 -2.2419434
-0.86379623 0.15293571 -2.2420957
-0.86381626 0.11148262 -2.247854
-0.86373663 0.031759616 -2.2589359
-0.90162277 -0.25187558 -2.2959847
-0.90137529 -0.25445133 -2.2963581
-0.86243582 -0.25958222 -2.2994967
-0.62448645 -0.77997524 -2.3866227
-0.82186699 -0.9140265 -2.3929534
-0.86176205 -0.93170834 -2.392925
-0.8751955 -0.94854814 -2.394428
-1.1020768 -1.0691975 -2.397059
-1.1819005 -1.0702192 -2.3922288
-1.258775 -1.0874314 -2.3898318
-1.4213748 -1.0708306 -2.3773971
-1.5411155 -1.0674566 -2.3694696
-1.8214924 -1.0558227 -2.3503885
-1.9412279 -1.0573549 -2.3431432
-2.1008759 -1.0593979 -2.3334827
-2.1806998 -1.0604194 -2.3286524
-2.3004332 -1.0644046 -2.321748
-2.4201715 -1.0634838 -2.3141618
-2.4600811 -1.0664475 -2.3120875
-2.5399075 -1.0650159 -2.3069162
-2.9097068 -0.73729354 -2.2383473
-2.9105103 -0.67313188 -2.2293825
-2.9093654 -0.6563009 -2.2271154
-2.9082277 -0.38632548 -2.1896753
-2.8990953 -0.33190238 -2.1826825
-2.9088392 -0.21285909 -2.1655354
-2.9059167 -0.17488475 -2.1604412
-2.9258714 -0.17504218 -2.1592202
-3.110219 -0.20277745 -2.1515908
-3.2582836 -0.16186556 -2.1366837
-3.2707448 -0.15950964 -2.1355801
-3.3106651 -0.16227879 -2.1334782
-3.3397112 -0.20704201 -2.1378884
-3.4984045 -0.32083118 -2.1438136
-3.5102191 -0.32421577 -2.143548
-3.6274402 -0.33519363 -2.1377716
-3.6484573 -0.3325474 -2.1360948
-3.6694744 -0.32990113 -2.134418
-3.7104464 -0.32741231 -2.13152
-3.7910345 -0.31918985 -2.1253579
-3.8272705 -0.31289285 -2.1222258
-3.9127364 -0.31027558 -2.1165385
-3.993082 -0.30827627 -2.1112561
-4.0296431 -0.31029633 -2.1092594
-4.1132722 -0.30692038 -2.103581
-4.1530504 -0.30789247 -2.1012383
-4.2722678 -0.29886571 -2.0925581
-4.3521085 -0.30440396 -2.0883543
-4.3910909 -0.33942866 -2.0907927
-4.4086237 -0.35674661 -2.0921068
-4.3992491 -0.75461745 -2.1479716
-4.6334667 -1.0334365 -2.172122
-4.7920856 -1.0473167 -2.1641703
-4.8729568 -1.0426884 -2.1584897
-5.1727881 -0.66398108 -2.0871952
-5.1852183 -0.65426213 -2.0850704
-5.4606781 -0.36473548 -2.0276849
-5.4863148 -0.32455406 -2.0205052
-5.5180302 -0.31164655 -2.0167363
-5.5626884 -0.29821759 -2.0120885
-5.7222824 -0.15287231 -1.981953
-6.1087584 -0.13158295 -1.9549216
-6.1978221 -0.068171911 -1.9405634
-6.3606157 0.036687706 -1.9158537
-6.4419789 0.077678129 -1.9050905
-6.6797447 -0.058542162 -1.9092069
-7.0135212 -0.32453099 -1.9253731
-7.040596 -0.3345376 -1.925077
-7.0774484 -0.34534425 -1.9242829
-7.1553001 -0.38291684 -1.924654
-7.4959412 -0.31322795 -1.8937529
-7.5605059 -0.2216673 -1.8770096
-7.5755157 -0.18192485 -1.8705528
-7.5762749 -0.17951402 -1.8701705
-7.5972676 -0.18172139 -1.8691696
-7.6353664 -0.19742566 -1.8689784
-7.6503525 -0.23687585 -1.8735262
-7.6453915 -0.27606598 -1.8792803
-7.6402798 -0.31102416 -1.8844559
-7.6206679 -0.41498905 -1.9001226
-7.6209817 -0.45324191 -1.905418
-7.8192873 -0.73530579 -1.9322562
-8.1738119 -1.1371548 -1.9660068
-8.2137041 -1.1352214 -1.9632533
-8.4275923 -1.2027743 -1.9593163
-8.4504166 -1.201722 -1.9577483
-8.692421 -1.1169257 -1.9308922
-8.8143711 -1.098024 -1.9206698
-8.8151722 -1.0979143 -1.9206046
-8.8949585 -1.0965005 -1.9154383
-8.9348555 -1.0994734 -1.9133662
-9.0146446 -1.1005126 -1.9085406
-9.0967064 -1.0885202 -1.9017627
-9.2141151 -1.1006578 -1.8961359
-9.336071 -1.0891874 -1.8869456
-9.4143181 -1.0906663 -1.882277
-9.5332651 -1.0974557 -1.8758113
-9.6153297 -1.0903746 -1.8697157
-9.6552267 -1.0933481 -1.8676437
-9.8481512 -1.057529 -1.8506497
-9.9302292 -0.47266245 -1.7642746
-9.7882805 -0.46638784 -1.7722447
-9.7361422 -0.45850721 -1.7743975
-9.4901333 -0.45905069 -1.7897968
-9.3801346 -0.45863011 -1.7965901
-9.3486748 -0.46361923 -1.7992429
-9.3361816 -0.42420626 -1.7945449
-9.2972298 -0.33992746 -1.7852614
-9.2862854 -0.30988491 -1.7817689
-9.3337631 -0.20950718 -1.7648649
-9.4092121 -0.0028148107 -1.731447
-9.4169798 -0.0019100085 -1.7308373
-9.4577122 -0.017090384 -1.7304094
-9.7329655 -0.31463131 -1.7546051
-9.818821 -0.31179732 -1.7488633
-9.8588066 -0.30462298 -1.7453759
-9.9385834 -0.28848907 -1.7381649
-10.060229 -0.26912335 -1.7278969
-10.060246 -0.28630278 -1.7302828
-10.066745 -0.35931462 -1.7400224
-10.052745 -0.42057541 -1.7494061
-9.9716625 -0.47025639 -1.7613595
-9.9861965 -1.0550349 -1.8417045
-10.09939 -1.0994958 -1.8408312
-10.219078 -1.1034583 -1.8339264
-10.504341 -0.85012275 -1.7809587
-10.665595 -0.97596747 -1.7883993
-10.894165 -1.0317149 -1.7819076
-10.624648 -1.1434987 -1.814227
-10.583201 -1.1459063 -1.8171432
-10.431025 -1.1110376 -1.8217775
-10.33876 -1.1025125 -1.8263401
-10.259833 -1.1059122 -1.8317287
-10.179188 -1.107864 -1.8370233
-10.044214 -1.1458247 -1.850705
-9.9245338 -1.1491719 -1.8586249
-9.8555031 -1.1497052 -1.8629988
-9.6316576 -1.1709323 -1.8798915
-9.609251 -1.170818 -1.8812712
-9.5693569 -1.1702983 -1.8836842
-9.4097786 -1.1682197 -1.8933353
-9.3848104 -1.1677141 -1.8948203
-9.204895 -1.1427438 -1.9025577
-9.0468502 -1.1279266 -1.9103435
-8.7753296 -1.2248638 -1.940725
-8.7546139 -1.2272766 -1.9423506
-8.4301128 -1.2420574 -1.9646173
-8.4108381 -1.2394444 -1.9654548
-8.0447178 -1.4562337 -2.0183814
-8.0052156 -1.4666351 -2.0222871
-7.8870544 -1.4376189 -2.0256157
-7.8471489 -1.419927 -2.0256433
-7.6387882 -1.2527422 -2.015393
-7.6348953 -1.2487631 -2.0150826
-7.3944645 -1.1120226 -2.01106
-7.1503344 -1.1526057 -2.0319054
-6.9907684 -1.123368 -2.0377822
-6.9508753 -1.1276981 -2.0408688
-6.8960214 -1.141616 -2.0462193
-6.7960696 -1.1818751 -2.0580389
-6.7187729 -1.1522485 -2.0587375
-6.5606956 -1.1446365 -2.0675263
-6.4809103 -1.1434951 -2.0723376
-6.3588448 -1.1699126 -2.0836115
-6.275878 -1.1801398 -2.0902004
-6.1976843 -1.173314 -2.0941226
-6.0005794 -1.1142886 -2.0981991
-5.8354816 -1.0986818 -2.1063144
-5.795589 -1.098111 -2.1087201
-5.7158046 -1.0945191 -2.1131907
-5.596127 -1.0952573 -2.1207478
-5.5546436 -1.1028214 -2.124383
-5.438149 -1.08729 -2.1294813
-5.3567734 -1.0918329 -2.1351814
-5.2722149 -1.1150955 -2.1436806
-5.1525373 -1.1158336 -2.1512377
-4.9454446 -1.0874867 -2.1601989
-6.6795607 -1.0572695 -2.0479834
-6.4102983 -0.96027893 -2.0512795
-6.2448845 -0.82360965 -2.042594
-6.2009201 -0.62854826 -2.0182302
-6.6006846 -0.37133726 -1.9575918
-6.9169111 -0.6111806 -1.9712185
-1.5550866 -1.1859492 -2.3850629
-1.9382024 -1.1495893 -2.3561471
-1.9970675 -1.1753765 -2.3560631
-2.0569551 -1.1565185 -2.3497126
-2.0988333 -1.1462352 -2.3456752
-2.2185695 -1.1477674 -2.3384299
-2.2594645 -1.1428813 -2.3352036
-2.3003595 -1.137995 -2.3319774
-2.4931107 -1.1047369 -2.3153501
-2.5739155 -1.1028143 -2.3100498
-2.6946347 -1.0989497 -2.3019934
-2.7734778 -1.1029152 -2.2976332
-2.8133948 -1.0985199 -2.2945361
-2.9520442 -1.0587753 -2.2803774
-3.0307813 -1.0573 -2.2752681
-3.1095181 -1.0558246 -2.2701585
-3.1904411 -1.063468 -2.2661798
-3.3080463 -1.0700197 -2.2597647
-3.3479772 -1.0752432 -2.2580032
-3.5940888 -1.1265768 -2.2498055
-3.7551112 -1.2011166 -2.2501321
-3.8920531 -1.143295 -2.2335682
-4.0276728 -1.1170607 -2.2214754
-4.2289486 -1.1300539 -2.2107434
-4.2468691 -1.1278912 -2.2093267
-4.3486781 -1.1309983 -2.2034168
-4.368041 -1.1341133 -2.2026434
-4.406899 -1.1396861 -2.2009974
-4.426394 -1.142144 -2.2001245
-4.6261244 -1.0751511 -2.1783752
-10.664527 -1.1366007 -1.8107846
-10.744293 -1.1277122 -1.8045809
-10.862405 -1.1246113 -1.796793
-10.897282 -1.1102945 -1.7926314
-10.903769 -1.082945 -1.7884272
0 0 0 1 0 0 0 1 0 0 0 1 0 0 0 0 0 594 1 0 0
