ply
format ascii 1.0
comment PCL generated
element vertex 684
property float x
property float y
property float z
element camera 1
property float view_px
property float view_py
property float view_pz
property float x_axisx
property float x_axisy
property float x_axisz
property float y_axisx
property float y_axisy
property float y_axisz
property float z_axisx
property float z_axisy
property float z_axisz
property float focal
property float scalex
property float scaley
property float centerx
property float centery
property int viewportx
property int viewporty
property float k1
property float k2
end_header
-10.848271 -1.0963395 -1.6007582
-10.847433 -1.0969793 -1.6007679
-10.81146 -1.1159763 -1.6015351
-10.772365 -1.1355011 -1.6024158
-10.687368 -1.1233857 -1.6066178
-10.585806 -1.124575 -1.6109821
-10.528352 -1.1266967 -1.6133902
-10.41017 -1.1246377 -1.618613
-10.372708 -1.1249537 -1.6202279
-10.330243 -1.1266131 -1.622004
-10.249523 -1.1242381 -1.6256118
-10.199583 -1.1239133 -1.6277959
-10.088976 -1.1277277 -1.6324434
-9.9070473 -1.172868 -1.6384584
-9.8875389 -1.1737241 -1.6392703
-9.8679276 -1.1743592 -1.6400961
-9.8254786 -1.1740677 -1.6419532
-9.7244015 -1.1655637 -1.6467028
-9.6835661 -1.1634134 -1.6485677
-9.6615086 -1.1641419 -1.6494958
-9.6436653 -1.1632493 -1.6503087
-9.5841026 -1.1636102 -1.6528823
-9.4461765 -1.1412281 -1.6598151
-9.3036079 -1.1652038 -1.6650065
-9.2465935 -1.1656922 -1.667464
-9.1829205 -1.1678948 -1.6701391
-8.8463078 -1.2427984 -1.6816294
-8.8060236 -1.2825594 -1.6817137
-8.7431297 -1.2758576 -1.6847281
-8.626605 -1.2820971 -1.6895311
-8.4601402 -1.2827138 -1.6967402
-8.4479675 -1.2832903 -1.6972451
-8.2889194 -1.2583432 -1.7052033
-8.2216463 -1.2429084 -1.7087741
-7.9225426 -1.3458219 -1.7174603
-7.8828063 -1.3230896 -1.7201401
-7.8696337 -1.3115463 -1.7211964
-7.7417746 -1.1873653 -1.7319586
-7.5482798 -1.112569 -1.7435035
-7.4284563 -1.1091238 -1.7488556
-7.3885322 -1.1063113 -1.7507087
-7.3493385 -1.0997865 -1.7526857
-7.230505 -1.0857252 -1.7584398
-7.1905279 -1.0879166 -1.7600855
-7.0715394 -1.0888261 -1.7652189
-7.0316148 -1.0860273 -1.7670714
-6.9526548 -1.0797548 -1.7707661
-6.9108987 -1.0832955 -1.7724326
-6.8278203 -1.096391 -1.7754943
-6.7990046 -1.0933374 -1.7768748
-6.6665115 -1.1073022 -1.7820479
-6.3890142 -1.1707913 -1.7914474
-6.3490644 -1.170475 -1.793197
-6.309114 -1.1701586 -1.7949467
-6.1643696 -1.1284385 -1.8029863
-6.1522551 -1.1217631 -1.8037926
-6.1091576 -1.1022563 -1.8064834
-5.9530468 -1.0678465 -1.8147106
-5.8705821 -1.0793135 -1.817814
-5.6983395 -1.2083746 -1.8198905
-5.6917124 -1.2101382 -1.8201046
-5.58887 -1.2542726 -1.8227245
-5.4807849 -1.2520883 -1.8275137
-5.4711208 -1.2526951 -1.8279083
-5.4633064 -1.2519554 -1.8282789
-5.2607298 -1.2239406 -1.8382577
-5.220705 -1.2337533 -1.8395859
-5.1409144 -1.2134399 -1.8439052
-5.0210509 -1.2104279 -1.849241
-4.9423547 -1.1969062 -1.8532281
-4.8624673 -1.1915699 -1.8569238
-4.7810187 -1.1929872 -1.8604044
-4.7017264 -1.2129802 -1.8630127
-4.6182871 -1.1990978 -1.867221
-4.4581232 -1.1967425 -1.8742808
-4.3407202 -1.247076 -1.8772737
-4.221067 -1.2116135 -1.8839605
-4.1011066 -1.2235785 -1.8886728
-4.0611629 -1.2209104 -1.8905207
-3.8786693 -1.2767986 -1.8961097
-3.820719 -1.2965444 -1.8978007
-3.8005543 -1.2957425 -1.8987107
-3.7015238 -1.2782068 -1.9037498
-3.6032333 -1.2635348 -1.9086368
-3.5034528 -1.222629 -1.914688
-3.22365 -1.0803764 -1.9328114
-3.1426363 -1.0732409 -1.9366316
-3.1026769 -1.0730689 -1.9383755
-3.0627167 -1.0728968 -1.9401195
-2.9842772 -1.0782802 -1.943303
-2.9028614 -1.0747052 -1.9469913
-2.8046381 -1.0822499 -1.9509442
-2.6821992 -1.1414191 -1.9537855
-2.5639851 -1.1599127 -1.9581482
-2.5237489 -1.1578314 -1.9599843
-2.4441087 -1.1588176 -1.9634043
-2.4041498 -1.1584526 -1.9651563
-2.3242319 -1.1577225 -1.9686604
-2.2843015 -1.1548622 -1.9705157
-2.2443423 -1.1544971 -1.9722676
-2.2043555 -1.1566274 -1.9739163
-2.1643968 -1.1562625 -1.9756683
-2.1244376 -1.1558975 -1.9774203
-2.0445199 -1.1551673 -1.9809244
-2.0045896 -1.1523069 -1.9827797
-1.9246438 -1.1540723 -1.9861803
-1.8847129 -1.1512119 -1.9880357
-1.8447258 -1.1533424 -1.9896843
-1.8044896 -1.151261 -1.9915204
-1.7648079 -1.1526122 -1.9931884
-1.7248495 -1.1522472 -1.9949404
-1.6449597 -1.1490217 -1.9985478
-1.6046953 -1.1494359 -2.0002804
-1.523427 -1.157835 -2.0034604
-1.2860615 -1.0808561 -2.0170035
-1.2460744 -1.0829865 -2.0186522
-1.2061439 -1.080126 -2.0205076
-1.1661568 -1.0822564 -2.0221562
-1.1261981 -1.0818914 -2.0239081
-1.0462804 -1.0811614 -2.0274122
-1.0062933 -1.0832918 -2.0290608
-0.96605682 -1.0812105 -2.0308969
-0.92606974 -1.0833409 -2.0325456
-0.88641691 -1.0821967 -2.0343168
-0.84620857 -1.0776199 -2.0362563
-0.80627823 -1.0747596 -2.0381114
-0.72663784 -1.0757458 -2.0415316
-0.53924608 -1.0815209 -2.0494339
-0.52639532 -1.0791544 -2.0500917
-0.2210269 -1.0990272 -2.0625308
-0.043179512 -0.99108499 -2.0747848
-0.07814455 -0.99122339 -2.0732594
-0.20927572 -0.97807169 -2.0681114
-0.52391911 -0.91428596 -2.0571098
-0.60971832 -0.59614313 -2.0667157
-0.12920427 -0.35081393 -2.097883
-0.10937786 -0.32578337 -2.0997939
-0.029169559 -0.2569108 -2.1061666
0.32946253 -0.15003765 -2.1262333
0.014390469 0.22465225 -2.1282446
0.017421246 0.25026006 -2.1294496
0.031634331 0.37540191 -2.1353128
0.062441349 0.57380462 -2.1449678
0.014983177 0.73128742 -2.1495061
0.013680935 0.85100949 -2.1544676
0.032511711 0.97209585 -2.1603613
0.031626701 1.0517782 -2.1636627
0.10695887 1.352224 -2.1795301
0.10664606 1.3606128 -2.179868
0.10655069 1.3625776 -2.1799462
0.067489624 1.3881607 -2.1793208
-0.011830807 1.3867147 -2.1758127
-0.053474903 1.3786519 -2.173665
-0.13268709 1.367229 -2.1697433
-0.17277861 1.3604383 -2.1677163
-0.49855947 1.3331721 -2.1524143
-0.59113264 1.3446574 -2.1488721
-0.63100958 1.3368285 -2.146811
-0.75088739 1.3357896 -2.1415572
-0.79109097 1.3308314 -2.1396019
-0.91075039 1.3368984 -2.1346557
-0.95065498 1.3315637 -2.1326976
-0.99061441 1.3312174 -2.1309464
-1.1107907 1.3305552 -2.1256955
-1.1904094 1.3294859 -2.1221902
-1.2306406 1.3270221 -2.1203384
-1.3502731 1.3305949 -2.1152887
-1.3901777 1.3252602 -2.1133308
-1.4700961 1.3245676 -2.1098282
-1.550014 1.3238748 -2.1063259
-1.5899734 1.3235285 -2.1045747
-1.8176911 1.4003117 -2.0978959
-1.897697 1.3814937 -2.0936298
-1.9122164 1.379194 -2.0929024
-2.0323684 1.3819957 -2.0877976
-2.0970671 1.4010459 -2.0857842
-2.1120486 1.396113 -2.0849264
-2.1547463 1.3815112 -2.0824585
-2.2563 1.3598372 -2.0771363
-2.2966204 1.3603328 -2.0754046
-2.3365808 1.3601748 -2.0736613
-2.3765409 1.3600166 -2.0719178
-2.4168456 1.3580171 -2.0700824
-2.4967506 1.3552057 -2.0664916
-2.7504046 1.3457671 -2.0550716
-2.8342733 1.3240684 -2.0505171
-2.8738577 1.3207613 -2.0486579
-2.9547818 1.3099309 -2.0446868
-2.9961522 1.3073977 -2.0427825
-3.0750065 1.307615 -2.0393646
-3.1142769 1.3111395 -2.0378056
-3.1942282 1.3158134 -2.0345263
-3.2740221 1.3058617 -2.0306413
-3.3140898 1.3051281 -2.0288692
-3.355103 1.3096567 -2.0272765
-3.4339423 1.3073789 -2.0237544
-3.4735422 1.306567 -2.0219994
-3.5149126 1.3040339 -2.0200951
-3.5555625 1.3001931 -2.0181673
-3.5823143 1.2987766 -2.0169451
-3.6344171 1.3004104 -2.0147493
-3.7132564 1.2981325 -2.0112271
-3.7931609 1.2953211 -2.0076365
-3.8688378 1.3013225 -2.0045989
-3.9535468 1.325284 -2.0019217
-4.0133481 1.3025904 -1.9983714
-4.0186882 1.3007293 -1.9980612
-4.1537905 1.2808882 -1.9913578
-4.2326756 1.2860957 -1.9881475
-4.2747517 1.2823751 -1.9861628
-4.3136458 1.2827507 -1.9844881
-4.352571 1.2881165 -1.9830213
-4.3939419 1.2855834 -1.981117
-4.4342623 1.2860789 -1.9793854
-4.5127716 1.2881376 -1.9760594
-4.5937266 1.2822974 -1.9722961
-4.6329818 1.2833266 -1.9706331
-4.7129016 1.2830102 -1.9671464
-4.7532067 1.2810109 -1.9653108
-4.8723822 1.2817237 -1.9601611
-4.952271 1.2764173 -1.9564664
-4.9918709 1.2756052 -1.9547113
-5.0739064 1.2717264 -1.9509833
-5.1728334 1.2855715 -1.9472641
-5.1928139 1.2867563 -1.9464452
-5.2897997 1.2696838 -1.9415145
-5.3696756 1.26658 -1.9379127
-5.4105158 1.2669845 -1.9361547
-5.4496031 1.2684667 -1.934518
-5.5303946 1.2685667 -1.9310108
-5.5713673 1.2743529 -1.9294726
-5.6511884 1.2733531 -1.9259615
-5.6920877 1.2715951 -1.9241102
-5.7692871 1.2735181 -1.9208355
-5.8110714 1.2725086 -1.9189771
-5.8900299 1.2733139 -1.9155792
-5.9309497 1.2740816 -1.9138329
-6.0107985 1.2684766 -1.9101275
-6.0516701 1.2713238 -1.9084705
-6.0898352 1.2767829 -1.9070406
-6.1706538 1.2722373 -1.9033375
-6.2096882 1.27587 -1.9017932
-6.3080873 1.2883132 -1.8980381
-6.369751 1.2996051 -1.8958313
-6.4896812 1.3061781 -1.8908944
-6.570447 1.3037829 -1.8872838
-6.6104269 1.2987974 -1.8853371
-6.6512194 1.2941592 -1.8833698
-6.6910329 1.2886072 -1.8814067
-6.8088899 1.2867236 -1.8762054
-6.9349871 1.3139178 -1.8718648
-6.9696183 1.3143373 -1.8703772
-6.9745855 1.3135052 -1.8701265
-7.1604862 1.2802598 -1.8606533
-7.1697683 1.2816745 -1.8603091
-7.2095041 1.276721 -1.8583745
-7.2884111 1.2726445 -1.8547741
-7.3696842 1.2797933 -1.8515415
-7.4001904 1.2784154 -1.8501579
-7.4491563 1.2771266 -1.8479756
-7.4893742 1.2792155 -1.8463153
-7.5132389 1.2809139 -1.8453492
-7.5407047 1.2807047 -1.8441467
-7.6099219 1.2844725 -1.8412963
-7.7092056 1.3095096 -1.8380307
-7.7337685 1.3102748 -1.8369951
-7.8143859 1.3081317 -1.8334014
-7.8348713 1.3068422 -1.8324571
-8.0094681 1.2843692 -1.8239268
-8.0494204 1.2841092 -1.8221794
-8.0894184 1.2888397 -1.8206394
-8.1693687 1.29331 -1.8173518
-8.2092981 1.2905552 -1.815501
-8.2517395 1.2897196 -1.8136213
-8.3070679 1.2901444 -1.8112345
-8.3699446 1.2901556 -1.8085021
-8.4489422 1.2815111 -1.8047063
-8.4889174 1.2837462 -1.8030627
-8.5314064 1.2879006 -1.8013901
-8.6087742 1.2829666 -1.7978207
-8.6487274 1.2827069 -1.7960733
-8.6928902 1.2881407 -1.7943816
-8.7694674 1.2875571 -1.791029
-8.8102341 1.2854421 -1.7891685
-8.8493481 1.2845424 -1.7874309
-8.8885088 1.288633 -1.7859002
-8.9284849 1.2908684 -1.7842566
-9.0083666 1.2878535 -1.7806584
-9.0491791 1.2907284 -1.7790051
-9.1282921 1.2945592 -1.7757272
-9.2081738 1.2915446 -1.7721289
-9.2481499 1.2937797 -1.7704852
-9.2905912 1.2929441 -1.7686055
-9.3280535 1.2932601 -1.7669905
-9.3680058 1.2930002 -1.7652433
-9.4096107 1.2915246 -1.7633731
-9.4479103 1.2924805 -1.7617486
-9.4878855 1.2947158 -1.7601049
-9.5278378 1.294456 -1.7583576
-9.650713 1.302375 -1.7533491
-9.7218533 1.3019701 -1.7502402
-9.7709255 1.2979509 -1.7479389
-9.8532963 1.2943603 -1.7442083
-9.877429 1.2935581 -1.7431259
-9.9315243 1.2951142 -1.7408401
-9.9723148 1.292941 -1.738976
-10.031281 1.2794349 -1.7358472
-10.092871 1.2778308 -1.733103
-10.152044 1.2867804 -1.7309064
-10.232647 1.27193 -1.7267807
-10.471103 1.3140026 -1.7181804
-10.511847 1.3093925 -1.7162163
-10.570013 1.2983027 -1.7132235
-10.587469 1.2956938 -1.7123554
-10.627398 1.2929389 -1.7105045
-10.70721 1.2824391 -1.7065957
-10.781865 0.89584041 -1.6871467
-11.309828 0.96011269 -1.6668941
-11.331842 0.96101022 -1.6659749
-11.35313 0.92279828 -1.663448
-11.371922 0.88460279 -1.6610303
-11.374916 0.84835988 -1.6593812
-11.374544 0.8084389 -1.6577239
-11.369994 0.76669502 -1.656172
-11.376744 0.68680418 -1.65253
-11.345333 0.62092799 -1.651134
-11.253479 0.4099918 -1.6462848
-11.248114 0.3701033 -1.6448461
-11.244431 0.33205384 -1.6434113
-11.241564 0.29214907 -1.6418633
-11.22584 0.2124045 -1.6392043
-11.18759 0.12725626 -1.6372976
-11.179821 0.097364217 -1.6363823
-11.177198 0.083654106 -1.6359217
-11.217593 -0.13233261 -1.625113
-11.139257 -0.23729745 -1.6241181
-11.114101 -0.25709555 -1.6243815
-11.169711 -0.80701953 -1.5989145
-11.170483 -0.8189711 -1.5983801
-11.133021 -0.81928712 -1.5999949
-10.808203 -1.108555 -1.6019877
-10.648394 -1.1075157 -1.608977
-10.530934 -1.1172923 -1.6136723
-10.487677 -1.1146013 -1.6156651
-10.447724 -1.1143414 -1.6174123
-10.368658 -1.1131819 -1.6208974
-10.327868 -1.113562 -1.6226542
-10.288731 -1.1151574 -1.6242884
-10.207989 -1.1152775 -1.6277926
-10.168851 -1.1168729 -1.6294267
-10.088155 -1.1120028 -1.6331382
-10.048226 -1.1092479 -1.634989
-10.003267 -1.112324 -1.6368141
-9.9674377 -1.1143582 -1.6382861
-9.88346 -1.1065102 -1.6422648
-9.8443413 -1.1080014 -1.6439025
-9.7636051 -1.105687 -1.6475086
-9.7244854 -1.1071783 -1.6491463
-9.6862469 -1.1054447 -1.6508809
-9.6437502 -1.1048639 -1.6527523
-9.6038227 -1.1020942 -1.6546037
-9.5647507 -1.0985948 -1.6564486
-9.5730104 -0.50501698 -1.6809694
-9.7306566 -0.46588308 -1.675758
-9.8939667 -0.49477828 -1.667449
-9.954361 -0.49090314 -1.6649866
-9.9722042 -0.49179572 -1.6641736
-10.014482 -0.47663212 -1.6629717
-10.062052 -0.37009987 -1.6653695
-10.05664 -0.29272234 -1.668848
-10.056801 -0.27525687 -1.6695731
-9.9792461 -0.2877304 -1.672421
-9.8556423 -0.28662047 -1.6778395
-9.7746258 -0.29135057 -1.6811625
-9.4583111 -0.00061388314 -1.7070965
-9.4531612 -0.00025491416 -1.7073355
-9.4483242 -0.0005453825 -1.7075335
-9.4147835 -0.003115952 -1.7088835
-9.4079685 -0.004499115 -1.7091217
-9.2559652 -0.23582351 -1.7060322
-9.2335005 -0.40609717 -1.6998715
-9.2911549 -0.68950659 -1.6854866
-9.2920208 -0.72944009 -1.6837752
-9.2923489 -0.78360736 -1.6814904
-8.9679003 -1.1072621 -1.6820258
-8.9245701 -1.1049157 -1.6840074
-8.8871641 -1.1049478 -1.6856318
-8.8337269 -1.1150092 -1.6875325
-8.5761528 -1.1637278 -1.6966853
-8.5586739 -1.1636076 -1.6974499
-8.4538012 -1.1628875 -1.7020382
-8.0474834 -0.91184133 -1.7302203
-8.0474319 -0.91173095 -1.7302272
-7.8114028 -0.70400977 -1.7491922
-7.7718115 -0.66630578 -1.7524934
-7.6604633 -0.47690922 -1.7652713
-7.6358123 -0.30302751 -1.773631
-7.6318965 -0.20064569 -1.7780925
-7.6126909 -0.18542795 -1.7795651
-7.572979 -0.17063121 -1.7819113
-7.5568585 -0.2125333 -1.7808555
-7.1249771 -0.34448743 -1.7940953
-7.0768018 -0.32983041 -1.7968035
-7.0332661 -0.33472008 -1.7984906
-6.9533648 -0.33411264 -1.8019888
-6.6766472 -0.050035283 -1.8259227
-6.4391584 0.079713941 -1.841683
-6.3580027 0.044714779 -1.8437432
-6.1039934 -0.12802821 -1.8475425
-6.0513663 -0.1881305 -1.8473107
-5.7548666 -0.32250619 -1.8545649
-5.6785231 -0.31920061 -1.8580215
-5.5969462 -0.30996168 -1.8619543
-5.5553203 -0.30102649 -1.864138
-5.514812 -0.32249635 -1.8649987
-5.517715 -0.35615376 -1.8634617
-5.5579171 -0.39064866 -1.8602686
-5.5971155 -0.40421337 -1.8579963
-5.6361766 -0.40310907 -1.8563449
-5.6779056 -0.40626669 -1.854399
-5.7964721 -0.44323736 -1.8476962
-6.04671 -0.86710382 -1.8190539
-5.7489486 -1.05972 -1.8239218
-5.6698847 -1.0634283 -1.8272027
-5.5500584 -1.060022 -1.8325534
-5.4275889 -1.0561444 -1.8380387
-5.3893652 -1.0594819 -1.8395602
-5.258327 -1.0531813 -1.8455194
-5.2186966 -1.0573802 -1.8470658
-5.1487708 -1.0583341 -1.850065
-5.0991764 -1.0562823 -1.8523065
-5.0188961 -1.056613 -1.8557818
-4.9396806 -1.0575258 -1.8591864
-4.8597603 -1.0572189 -1.8626728
-4.8197851 -1.0595607 -1.8643121
-4.77948 -1.0575497 -1.8661481
-4.7395349 -1.0549012 -1.8679953
-4.6193099 -1.0525837 -1.8733177
-4.5800548 -1.0536498 -1.8749791
-4.3002706 -0.83579063 -1.8962708
-4.0230007 -0.39441943 -1.9268216
-3.9032979 -0.35368934 -1.9337314
-3.8233995 -0.35349852 -1.937212
-3.9036484 -0.31434825 -1.9353652
-3.9837408 -0.31558383 -1.9318323
-4.1037722 -0.31685671 -1.9265622
-4.1436892 -0.31677794 -1.9248306
-4.263494 -0.30395022 -1.9201612
-4.3433838 -0.30924726 -1.9164671
-4.3434248 -0.31719688 -1.916132
-11.123894 -0.81608737 -1.6005259
-11.099911 -0.26134849 -1.62482
-10.778738 -0.25318009 -1.6391213
-10.749908 -0.21480352 -1.6419829
-10.759378 -0.09139476 -1.646744
-10.763115 -0.047795549 -1.6484091
-10.767538 0.070095941 -1.6531582
-10.769592 0.1118561 -1.6548194
-10.769962 0.1517771 -1.6564765
-10.796778 0.66910928 -1.676995
-10.782415 0.68623877 -1.6783372
-10.7654 0.73625374 -1.6811732
-10.704391 0.85572702 -1.6888325
-10.703831 0.85700262 -1.6889102
-10.470121 1.2977048 -1.7175399
-10.450157 1.299082 -1.7184653
-5.2363329 1.2438956 -1.9427574
-5.1156974 1.244779 -1.9480375
-5.0757542 1.2474471 -1.9498854
-4.9962368 1.2513517 -1.953505
-4.9562764 1.2515236 -1.955249
-4.9159627 1.2556235 -1.957173
-4.8763895 1.2568599 -1.9589447
-4.8364296 1.2570317 -1.9606887
-4.7961159 1.2611319 -1.9626126
-4.7172899 1.254684 -1.9657683
-4.6374025 1.2600204 -1.9694641
-4.5567269 1.2607317 -1.9730003
-4.5164132 1.2648318 -1.9749243
-4.4368801 1.26624 -1.97844
-4.3965335 1.2653476 -1.9801562
-4.3173542 1.2628279 -1.9834919
-4.2766385 1.2633674 -1.9852841
-4.1974425 1.2583514 -1.9885159
-4.1571126 1.2599552 -1.9903359
-4.1167831 1.261559 -1.992156
-3.9980135 1.2577795 -1.9971596
-3.9173055 1.2534984 -2.0004878
-3.8769917 1.2575984 -2.0024118
-3.7974744 1.2615029 -2.0060315
-3.7571607 1.2656029 -2.0079556
-3.7176194 1.2718316 -2.0099351
-3.6776757 1.2744998 -2.0117831
-3.5977721 1.2773398 -2.0153749
-3.5574422 1.2789437 -2.017195
-3.5178847 1.2826761 -2.0190706
-3.4775391 1.2817837 -2.0207868
-3.4375792 1.2819556 -2.0225308
-3.3980052 1.2831919 -2.0243025
-3.3588018 1.2829965 -2.0259981
-3.3180695 1.2810398 -2.0276866
-3.2369013 1.281389 -2.031229
-3.1989625 1.2836843 -2.032974
-3.0783591 1.28956 -2.0384619
-3.037997 1.2861714 -2.0400741
-2.9980211 1.2838473 -2.0417142
-2.9185359 1.2927442 -2.0455418
-2.87819 1.2918518 -2.0472579
-2.7982864 1.2946918 -2.0508497
-2.7594368 1.2905684 -2.0523653
-2.6290996 1.3049242 -2.0586319
-2.5902822 1.3017892 -2.0601876
-2.5103912 1.3049759 -2.0637934
-2.4701059 1.3024513 -2.0654385
-2.3890731 1.3091198 -2.0692399
-2.3762319 1.3101138 -2.0698397
-2.3103783 1.3138134 -2.0728569
-2.256681 1.3062518 -2.0748737
-2.1907189 1.3077463 -2.0778031
-2.0571084 1.3006715 -2.0833137
-1.9511888 1.2999594 -2.0878873
-1.8970246 1.3051802 -2.0904603
-1.8710189 1.3080227 -2.0917096
-1.7908561 1.313327 -2.0954161
-1.7368546 1.3101492 -2.09763
-1.656605 1.3148021 -2.1013129
-1.6173346 1.3112775 -2.1028719
-1.5773592 1.3089405 -2.1045113
-1.5116591 1.3090219 -2.1073701
-1.4714553 1.31398 -2.1093254
-1.4172046 1.3164047 -2.1117849
-1.3515508 1.3125248 -2.1144757
-1.2973242 1.3168792 -2.1170151
-1.257364 1.3170375 -2.1187584
-1.2317009 1.3160579 -2.1198328
-1.1920137 1.3142867 -2.1214836
-1.1515107 1.3188679 -2.1234357
-1.0978839 1.3183239 -2.1257439
-1.0319052 1.3177893 -2.1285889
-0.74730301 0.87401462 -2.1223576
-0.83708143 0.76381469 -2.1138365
-0.86411905 0.72366923 -2.1109788
-0.86412001 0.69660962 -2.1098447
-0.87307835 0.6017431 -2.1054788
-0.90220737 0.52416283 -2.1009612
-0.90228224 0.52087462 -2.1008201
-0.87090921 0.40220636 -2.0972095
-0.87047577 0.36229897 -2.0955558
-0.81862783 0.18813722 -2.0905092
-0.81827736 0.12163337 -2.0877368
-0.92842817 -0.17658144 -2.0704498
-0.93799639 -0.18728946 -2.0695851
-0.94623613 -0.20676684 -2.0684106
-0.92901754 -0.25436574 -2.0671637
-0.80718613 -0.57078886 -2.059196
-0.82428455 -0.63323861 -2.0558352
-0.80650425 -0.71403402 -2.0532215
-0.8058157 -0.79156077 -2.0500019
-1.0824695 -1.0612124 -2.0266755
-1.162405 -1.0590317 -2.0232928
-1.2023804 -1.0566939 -2.0216532
-1.2426856 -1.0586586 -2.019819
-1.2823007 -1.0570085 -2.0181665
-1.363302 -1.0552599 -2.0147192
-1.4021809 -1.0574805 -2.0129364
-1.4425013 -1.05695 -2.0112064
-1.5221226 -1.0479715 -2.008122
-1.5627882 -1.0492486 -2.0063012
-1.6420031 -1.0484434 -2.002892
-1.6819632 -1.0486009 -2.0011487
-1.7226133 -1.0523732 -1.9992238
-1.761868 -1.0514107 -1.997558
-1.8018281 -1.051568 -1.9958147
-1.8817637 -1.0493875 -1.9924319
-1.9217086 -1.05204 -1.9905846
-1.9616685 -1.0521973 -1.9888413
-2.0415888 -1.052512 -1.9853545
-2.0815339 -1.0551646 -1.9835073
-2.161454 -1.0554792 -1.9800205
-2.2014294 -1.0531414 -1.9783812
-2.2813342 -1.0559512 -1.9747905
-2.36127 -1.0537707 -1.9714077
-2.4012296 -1.0539279 -1.9696643
-2.4811502 -1.0542426 -1.9661776
-2.5211103 -1.0544 -1.9644343
-2.6409905 -1.054872 -1.9592042
-2.6809506 -1.0550292 -1.9574609
-2.7404346 -1.0516379 -1.9550177
-2.8203702 -1.0494497 -1.9516352
-2.9405954 -1.0517673 -1.9463128
-3.0212049 -1.055789 -1.9426408
-3.0614946 -1.0602949 -1.9407008
-3.1014547 -1.0604483 -1.9389576
-3.2203159 -1.0528413 -1.9341104
-3.3012705 -1.0587204 -1.9303455
-3.3405411 -1.055159 -1.9287881
-3.4197564 -1.0542463 -1.9253834
-3.4611111 -1.059334 -1.9233727
-3.5410311 -1.0596409 -1.9198865
-3.6202772 -1.053738 -1.9166896
-3.6598926 -1.052034 -1.9150393
-3.7408166 -1.062903 -1.9110665
-3.8203921 -1.0613527 -1.907673
-3.860697 -1.0633636 -1.9058369
-3.9395981 -1.0556031 -1.902733
-3.979918 -1.0551188 -1.9010009
-4.1806545 -0.96043479 -1.8962451
-5.5721827 1.2675271 -1.9291511
-5.5330114 1.2657022 -1.930777
-5.4930344 1.2635113 -1.9324226
-5.4549346 1.2629422 -1.9340547
-5.4113536 1.2627026 -1.9359388
-5.276679 1.2447879 -1.9410412
-5.6129127 1.2650937 -1.9272788
-5.6528897 1.2672846 -1.9256331
-5.7319279 1.2684627 -1.9222473
-5.7346683 1.2682759 -1.9221203
-5.8125634 1.2535913 -1.9181194
-5.9325714 1.2676498 -1.9134928
-6.0124469 1.264546 -1.9098911
-6.0151916 1.2642885 -1.9097611
-6.0542212 1.2608266 -1.9079196
-6.0941982 1.2630143 -1.9062738
-6.1722245 1.2608335 -1.9027913
-6.2505293 1.2691275 -1.8997356
-6.2940307 1.2689627 -1.897838
-6.3304567 1.2710079 -1.8963405
-6.3711925 1.2685843 -1.8944684
-6.5345769 1.2627877 -1.8871244
-6.6917925 1.2768396 -1.8808805
-6.733541 1.2705717 -1.8788033
-6.8541822 1.2603287 -1.8731306
-6.9331102 1.2515692 -1.869333
-7.0111132 1.2469575 -1.8657495
-7.0533886 1.2444894 -1.8638086
-7.1726575 1.2347543 -1.8582169
-7.2535315 1.2422843 -1.8550175
-7.3706446 1.2417237 -1.8499041
-7.4933672 1.2529155 -1.8450394
-7.5738106 1.250505 -1.841442
-7.6540909 1.2548406 -1.8381346
-7.6949615 1.2576877 -1.8364776
-7.733736 1.261941 -1.8349707
-7.7474537 1.264042 -1.8344625
-7.8045359 1.2671161 -1.8321104
-7.8145242 1.2670512 -1.8316736
-7.8448849 1.2683636 -1.830409
-7.8935909 1.2658917 -1.8281885
-7.947309 1.2726513 -1.8261372
-8.0126791 1.2719576 -1.823267
-8.1071167 1.2715538 -1.8191456
-8.1741638 1.272198 -1.8162585
-8.2931833 1.2707785 -1.8110262
-8.3868265 1.2746236 -1.8071173
-8.4530382 1.2747293 -1.804244
-8.4667301 1.2740749 -1.8036215
-8.5466576 1.2760216 -1.8002293
-8.5866337 1.2782425 -1.7985849
-8.6265612 1.2754728 -1.7967335
-8.7064648 1.274924 -1.7932377
-8.7327499 1.2779006 -1.7922201
-8.8126316 1.2748859 -1.7886219
-8.8263445 1.2765962 -1.7880976
-8.9062719 1.2785428 -1.7847053
-8.9461994 1.2757732 -1.7828538
-9.0261278 1.2777196 -1.7794616
-9.0915756 1.2849027 -1.7769182
-9.1460304 1.2818871 -1.774425
-9.224268 1.2848698 -1.7711496
-9.2658863 1.281064 -1.7691814
-9.3058615 1.2832849 -1.767537
-9.3857412 1.2802409 -1.7639376
-9.4120073 1.2809687 -1.7628266
-9.4240036 1.2810025 -1.7623066
-9.4527979 1.2813485 -1.7610697
-9.505619 1.281913 -1.7587975
-9.5718393 1.2824243 -1.7559409
-9.6245708 1.2753695 -1.7533534
-9.7317181 1.2888702 -1.7492623
-9.8115997 1.2858555 -1.7456641
-9.8930864 1.2766351 -1.7417361
-10.010361 1.2664511 -1.7362121
-10.09201 1.2746962 -1.7330091
-10.192719 1.2746849 -1.7286316
0 0 0 1 0 0 0 1 0 0 0 1 0 0 0 0 0 684 1 0 0
