ply
format ascii 1.0
comment PCL generated
element vertex 455
property float x
property float y
property float z
element camera 1
property float view_px
property float view_py
property float view_pz
property float x_axisx
property float x_axisy
property float x_axisz
property float y_axisx
property float y_axisy
property float y_axisz
property float z_axisx
property float z_axisy
property float z_axisz
property float focal
property float scalex
property float scaley
property float centerx
property float centery
property int viewportx
property int viewporty
property float k1
property float k2
end_header
-10.686577 0.037307829 3.5180809
-10.719318 0.080809757 3.523227
-10.8811 0.51481199 3.5667109
-10.882137 0.52290183 3.5674272
-10.873899 0.59758824 3.5731914
-10.846571 0.65494072 3.5766168
-10.813144 0.67443836 3.5766313
-10.563564 0.94528109 3.5870655
-10.563929 1.1042463 3.6001866
-10.549131 1.183851 3.6060436
-10.365717 1.3151587 3.6081283
-10.303291 1.3082174 3.6045816
-10.086098 1.3050252 3.5939696
-9.7581911 1.3626069 3.5830922
-9.7444916 1.3666281 3.5827711
-9.6634369 1.4031633 3.5819206
-9.6490326 1.4126555 3.5820167
-9.4636889 1.3899751 3.571316
-9.4196672 1.3828298 3.5686293
-9.3807354 1.381319 3.5666499
-9.3438368 1.3810687 3.5648711
-9.3018627 1.3801513 3.5627954
-9.2239914 1.3746461 3.5586314
-9.0687485 1.374773 3.5512447
-9.0664425 1.3753784 3.5511849
-8.9860487 1.3745073 3.5472825
-8.9458504 1.3740718 3.5453312
-8.8042412 1.4167871 3.542105
-8.7877903 1.4200513 3.5415902
-8.6658649 1.3949813 3.5337141
-8.5849247 1.380134 3.5286336
-8.5471373 1.3796426 3.5267928
-8.5050344 1.3783361 3.5246789
-8.3810186 1.4010992 3.5206461
-8.3712254 1.4017687 3.5202348
-8.315856 1.4084898 3.5181506
-8.2779608 1.4150609 3.5168867
-8.2225952 1.4065582 3.5135477
-8.217474 1.4062119 3.5132751
-8.1816311 1.4037873 3.5113673
-8.1015997 1.3966323 3.5069642
-7.9841294 1.4084109 3.5023382
-7.9319911 1.4211546 3.5009043
-7.8681364 1.4347615 3.4989834
-7.7868624 1.4607774 3.4972553
-7.7608733 1.4654896 3.4964056
-7.7482638 1.4652076 3.4957814
-7.7073936 1.4504066 3.492614
-7.588006 1.42567 3.4848864
-7.5686002 1.4257617 3.4839692
-7.5482559 1.426597 3.4830689
-7.5289674 1.4270693 3.4821887
-7.447288 1.4219092 3.4778714
-7.3886113 1.4263623 3.4754429
-7.3679595 1.4243246 3.4742908
-7.3576651 1.4234056 3.4737246
-7.3267179 1.4204488 3.4720063
-7.2866516 1.4203608 3.4700899
-7.2792864 1.4208177 3.4697766
-7.2478223 1.4242599 3.4685612
-7.1669478 1.4216914 3.4644959
-7.0460968 1.4020493 3.4571185
-6.9661975 1.39522 3.4527485
-6.8869643 1.3831333 3.4479771
-6.7644572 1.3655587 3.4406912
-6.6836157 1.3803749 3.4380605
-6.6436634 1.3757186 3.4357731
-6.5645161 1.3762486 3.4320457
-6.365046 1.376116 3.4225304
-6.2861743 1.3923445 3.42011
-6.2462316 1.3926553 3.4182324
-6.1663418 1.390793 3.4142725
-6.0560884 1.4143442 3.4109604
-6.0435972 1.4094743 3.4099638
-5.8436179 1.3361237 3.3943889
-5.6478734 1.2912307 3.3813615
-5.5679836 1.2893685 3.3774016
-5.5280366 1.2871957 3.375319
-5.4481511 1.287817 3.3715639
-5.4072189 1.284938 3.3693762
-5.32829 1.2713645 3.3644965
-5.1115403 1.2740649 3.3543916
-5.0837188 1.2746642 3.3531153
-5.0279799 1.2825462 3.3511093
-4.9746318 1.2997174 3.3499827
-4.7887945 1.3846732 3.3481312
-4.6675806 1.3094769 3.3361568
-4.5885983 1.2833641 3.3302412
-4.515213 1.2634258 3.3251009
-4.2268543 1.0886105 3.2969511
-4.2273483 1.0655113 3.2950704
-4.3047147 0.5825721 3.2589471
-4.3043346 0.50231129 3.2523131
-4.2638693 0.34286335 3.2372415
-4.2634735 0.28724885 3.2326381
-4.2783375 0.2225529 3.2280133
-4.3027916 0.10216741 3.219255
-3.7530172 -0.063999221 3.1793621
-3.5236838 0.15493892 3.1864824
-3.4849093 0.27756444 3.1947432
-3.4053748 0.47688287 3.2073836
-3.3995655 0.5533132 3.213407
-3.4678607 0.75326544 3.2331436
-3.4679909 0.79320246 3.2364419
-3.3876684 0.9504565 3.2455773
-3.3638511 0.99386895 3.2480211
-3.3489339 1.0287572 3.2501862
-3.328084 1.0705245 3.2526357
-3.3085003 1.2892646 3.2697339
-3.1887405 1.3299086 3.2673779
-3.1090684 1.3509609 3.2653172
-3.0783496 1.3568135 3.2643359
-3.0710397 1.35745 3.26404
-2.9317107 1.3914564 3.2602046
-2.7913761 1.3593578 3.2508719
-2.6315536 1.3999152 3.2465999
-2.5115697 1.4020606 3.24106
-2.4310594 1.3789327 3.2353172
-2.2707586 1.3965583 3.2291322
-2.2582736 1.3966253 3.2285428
-2.230901 1.3973542 3.2272987
-2.2258129 1.3967993 3.2270105
-1.9926131 1.4247528 3.2182033
-1.9122064 1.4220786 3.2141519
-1.8727574 1.4253953 3.2125456
-1.7518964 1.4198325 3.2063282
-1.6719928 1.4202605 3.2025564
-1.5925918 1.4237915 3.199064
-1.3933368 1.4304487 3.1901188
-1.1517301 1.400227 3.1761155
-0.83400774 1.4259946 3.163101
-0.79305077 1.4224874 3.1608603
-0.7536006 1.4233202 3.1590493
-0.71364737 1.4210503 3.1569586
-0.59279013 1.4229394 3.1513557
-0.43398857 1.4300011 3.1443713
-0.10206366 1.365451 3.1232347
-0.054320812 1.363884 3.1208308
0.058050156 1.3817792 3.1169517
0.13794661 1.3672397 3.1119463
0.21784496 1.3576674 3.1073503
0.41792345 1.4039809 3.1016347
0.65731049 1.3571771 3.0863705
0.69725609 1.3449401 3.0834584
0.77766943 1.3248475 3.0779705
0.7926507 1.2850778 3.0739784
0.80260468 1.2056459 3.0669565
0.80508423 1.1659185 3.0635636
0.79203033 1.089553 3.0578907
0.78700161 1.0100532 3.0515769
0.78197384 0.93055326 3.0452631
0.77696228 0.89079195 3.0422244
0.77699518 0.81091875 3.0356386
0.76940298 0.73180354 3.0294788
0.76189518 0.69203097 3.0265579
0.75428391 0.4138267 3.0039878
0.73685455 0.37361276 3.0015032
0.65706873 0.33271959 3.0019341
0.4970355 0.27109131 3.0044792
0.41764212 0.2079526 3.0030575
0.33255863 -0.0096101612 2.9891772
0.33239698 -0.013610378 2.9888554
0.33265734 -0.056805745 2.9852822
0.33289051 -0.16858475 2.9760571
0.3055172 -0.21348958 2.9736595
0.17335558 -0.29887587 2.9729183
-0.011345387 -0.33495152 2.978745
0.27272558 -0.054743364 2.988308
0.28013325 -0.014947012 2.9912353
0.29207373 0.066757157 2.9974015
0.29728603 0.13318771 3.002629
0.31217813 0.18399958 3.006108
0.31412601 0.18711391 3.0062718
0.32775211 0.21002854 3.0075116
0.33721066 0.22566052 3.0083494
0.45710516 0.32058337 3.0104613
0.65667152 0.73347211 3.0349877
0.56666565 0.85327041 3.0491514
0.49661779 0.93342066 3.0590961
0.33659744 1.1331711 3.0831864
0.26664972 1.2127272 3.0930772
0.016981125 1.2761699 3.110203
-0.062915325 1.2907094 3.1152084
-0.43294525 1.3467926 3.1374626
-0.47340012 1.349681 3.1396282
-0.55330706 1.3567047 3.1440146
-0.59275627 1.3533881 3.1456208
-0.63270664 1.3506899 3.1473019
-0.71311522 1.3558482 3.1515584
-0.75256729 1.3599836 3.153779
-0.79302073 1.360388 3.15574
-0.8329711 1.3576899 3.1574211
-0.91237116 1.351675 3.1607084
-1.0322256 1.3485488 3.1661615
-1.1935349 1.3445802 3.1735203
-1.3118796 1.329662 3.1779296
-1.3603244 1.3281611 3.180114
-1.3921885 1.3243027 3.1813142
-1.512145 1.3391459 3.1882534
-1.5520983 1.3414158 3.1903443
-1.6729579 1.3444947 3.1963568
-1.7119069 1.3430433 3.1980929
-1.7518578 1.3403451 3.199774
-1.8717227 1.3595747 3.2070706
-1.9126768 1.3581138 3.2089014
-1.9910693 1.3434097 3.2114246
-2.0360224 1.3580726 3.2147751
-2.1299198 1.3668853 3.2199757
-2.1918414 1.3634481 3.2226427
-2.2322927 1.3588847 3.224194
-2.3121951 1.3559726 3.227761
-2.3553939 1.3613296 3.2302611
-2.5394065 1.324947 3.2360296
-2.5517659 1.3241044 3.2365491
-2.5923438 1.3228006 3.2383752
-2.6717446 1.3192698 3.2418673
-2.7921743 1.3397095 3.2492905
-2.8330705 1.3400199 3.2512646
-2.9110646 1.3456507 3.255445
-2.9928396 1.3363353 3.2585735
-8.0537386 -1.1566175 3.294215
-7.9732151 -1.1578978 3.2902727
-7.8921652 -1.121418 3.289418
-7.7301664 -1.1023065 3.2832744
-7.6792688 -1.1140083 3.2798848
-7.615324 -1.1326307 3.2753029
-7.4904532 -1.1225682 3.2701824
-7.4505043 -1.1247035 3.2681029
-7.2792463 -1.0976808 3.2621706
-7.2393045 -1.0973505 3.2602947
-7.1604357 -1.0931053 3.2568865
-7.0037122 -1.0810307 3.2504144
-6.9217987 -1.087539 3.245975
-6.8398962 -1.0890847 3.241945
-6.8009577 -1.0901326 3.2400033
-6.7200594 -1.0930564 3.2359078
-6.6022787 -1.0774524 3.2315819
-6.7241287 -1.0737557 3.2376926
-6.8019729 -1.0865482 3.2403471
-6.8494043 -1.0869404 3.2425749
-6.8828716 -1.0836242 3.2444429
-6.9637704 -1.0807005 3.2485385
-8.2511435 -1.1654782 3.3028905
-8.3278608 -1.1720964 3.3060002
-8.3461342 -1.1659105 3.3073809
-8.4889946 -1.1312797 3.3170426
-8.5688782 -1.1319766 3.3207912
-8.6089382 -1.0901036 3.3261518
-8.6542234 -0.88190013 3.3454721
-8.7433758 -0.69568348 3.3650701
-8.7464447 -0.68619204 3.3659987
-8.7499533 -0.6591748 3.3683929
-8.754158 -0.60678184 3.3729122
-8.8977757 -0.3992278 3.3968644
-9.1975832 -0.21960811 3.4259558
-9.2949409 -0.22045745 3.4305246
-9.3324003 -0.2158169 3.4326921
-9.6917162 -0.50010747 3.426378
-9.7242165 -0.61841744 3.418174
-9.7293549 -0.6651414 3.4145675
-9.7407818 -0.74729651 3.4083397
-10.217356 -0.90846652 3.4177618
-10.239779 -0.86930257 3.4220586
-10.241024 -0.84342307 3.4242511
-10.250074 -0.78951222 3.4291263
-10.261211 -0.74671984 3.4331844
-10.281309 -0.68975717 3.4388375
-10.322914 -0.59140497 3.4489274
-10.341628 -0.50893396 3.4566174
-10.364541 -0.46093535 3.4616656
-10.484041 -0.28275871 3.4820468
-10.518057 -0.22905286 3.4880948
-10.523088 -0.21170749 3.4897642
-5.9312696 -0.12288557 3.2782967
-5.8768616 -0.35706007 3.2564008
-5.8602338 -0.43273544 3.2493706
-5.8555403 -0.51928812 3.242012
-5.845768 -0.59726578 3.2351186
-5.8457699 -0.71547616 3.2253745
-5.8584647 -0.7936396 3.2195363
-6.1240063 -1.0624599 3.2100294
-6.2038794 -1.0680834 3.2133715
-6.2847729 -1.0676409 3.2172623
-6.3646569 -1.0683017 3.2210143
-6.4804134 -1.0885932 3.2248571
-6.4000802 -1.0919821 3.2207501
-6.3200059 -1.0919937 3.2169337
-6.2008252 -1.0837996 3.2119305
-6.1209464 -1.0806577 3.2083833
-6.0810146 -1.0753646 3.206917
-6.0011573 -1.0622971 3.2041893
-5.9232869 -1.0619117 3.2005107
-5.7213821 -0.96703631 3.1987112
-5.6412449 -0.96727186 3.1948733
-5.521419 -0.966281 3.1892457
-5.4441781 -0.96613652 3.1855772
-5.4417253 -0.96494812 3.1855583
-5.3221736 -0.92358309 3.1832716
-5.2825465 -0.80392224 3.1912475
-5.2829046 -0.7238456 3.1978652
-4.6945968 -0.670452 3.1742351
-4.6629734 -0.73415899 3.1674769
-4.6219277 -0.81396526 3.1589427
-4.5414448 -0.75110656 3.1602893
-4.182478 -0.78615934 3.140296
-4.1418014 -0.82773501 3.1349306
-3.6064975 -0.97696787 3.0971231
-3.5829649 -1.0209881 3.0923731
-3.5430305 -1.0317634 3.0895822
-3.4981177 -1.0190005 3.0884943
-3.2783542 -1.0570652 3.0748854
-3.2633615 -1.0644025 3.0735662
-3.1035411 -1.0880213 3.0640042
-3.0635977 -1.0877162 3.0621262
-3.011158 -1.0947676 3.0590463
-2.9437442 -1.0992205 3.0554669
-2.8638623 -1.0961267 3.0519159
-2.7690012 -1.092918 3.0476604
-2.6641126 -1.1119885 3.0410907
-2.4688182 -1.0850532 3.0340056
-2.348974 -1.0595753 3.0303955
-2.3087134 -1.0489031 3.029357
-2.2287514 -0.96958274 3.0320854
-2.1888988 -0.88949531 3.0367885
-2.1889215 -0.77046853 3.0466011
-1.9497406 -0.42903823 3.0633492
-1.9500012 -0.40759963 3.065129
-1.9500191 -0.36785859 3.0684059
-1.9298458 -0.25009722 3.0771518
-1.9448638 -0.17069523 3.0844126
-1.9294512 -0.014787599 3.09653
-1.9499493 0.030466855 3.1012371
-2.0700276 0.42825934 3.1397493
-1.99108 0.52621818 3.1440625
-1.9652371 0.60021579 3.148931
-1.9914834 0.64758211 3.1540861
-2.0331979 0.68368632 3.1590497
-2.0716677 0.70832062 3.1629133
-2.1115398 0.544164 3.1512816
-2.1112812 0.52770883 3.1499128
-2.1506214 0.36522371 3.1383934
-2.4288242 0.19621813 3.1377175
-2.4694335 0.19510823 3.1395609
-2.5093143 0.18376495 3.1405263
-2.5573142 0.16296676 3.1410987
-2.5902188 0.11032499 3.1383274
-3.1035056 0.026682466 3.1558895
-3.2888575 0.40137184 3.1956074
-3.2689869 0.45865336 3.1993823
-3.2481682 0.51780838 3.2032666
-3.2482386 0.55755204 3.2065461
-3.2593229 0.6400587 3.2138755
-3.257854 0.68291551 3.2173383
-3.2691584 0.72257477 3.2211461
-3.3587878 0.95416284 3.2445068
-8.118515 -1.1575791 3.2972221
-8.1599302 -1.1611131 3.2989042
-7.0107164 -0.12821947 3.3292902
-6.9838071 -0.095479771 3.3307066
-6.9242115 -0.093864188 3.3280003
-6.9238782 -0.10242848 3.3272784
-6.9250154 -0.13042994 3.3250244
-6.9332457 -0.16728164 3.3223789
-7.2442203 -0.52830207 3.3074365
-7.2850723 -0.60422826 3.3031242
-4.2222114 -0.45634365 3.1693764
-3.745033 -0.26304263 3.1625743
-3.7529421 -0.1037416 3.1760824
-4.32831 0.014210686 3.2132204
-5.8568172 0.34300509 3.3131533
-5.8474569 0.43214351 3.3200552
-5.8610806 0.51470822 3.3275104
-5.8537436 0.59423852 3.3337164
-5.8569093 0.6672923 3.3398893
-5.8615375 0.75312442 3.3471851
-5.8542762 0.87239075 3.3566704
-5.8879719 1.0069537 3.3693683
-5.9030023 1.0341557 3.3723266
-6.2088256 1.2727948 3.40657
-6.3679295 1.3409821 3.4197717
-6.4078817 1.3456384 3.4220591
-6.487772 1.3475006 3.4260192
-6.5286899 1.3429292 3.427592
-6.5811286 1.3499719 3.4306712
-6.6815019 1.3427964 3.4348621
-6.7283788 1.3289584 3.435955
-6.7683215 1.3286477 3.4378326
-6.8462462 1.3315809 3.4417872
-6.9281011 1.3323722 3.4457529
-7.0080051 1.3416848 3.4503276
-7.0484743 1.3399422 3.4521122
-7.0829654 1.3375323 3.453557
-7.1628461 1.3344275 3.4571073
-7.2456765 1.3309579 3.460768
-7.2826548 1.3235614 3.4619203
-7.4823532 1.3145577 3.4706931
-7.5012283 1.3166959 3.4717686
-7.5561748 1.3261597 3.4751668
-7.6160874 1.3256452 3.4779792
-7.6662021 1.341024 3.4816349
-7.6746507 1.3438791 3.4822726
-7.946733 1.3340908 3.4944298
-8.0245256 1.3344338 3.4981649
-8.0668983 1.3414867 3.5007651
-8.1025505 1.3433273 3.5026157
-8.3311758 1.36237 3.5150788
-8.3820658 1.3427005 3.5158823
-8.4209909 1.3417274 3.5176566
-8.461956 1.3444984 3.5198369
-8.540802 1.3357307 3.522871
-8.6227522 1.3487242 3.5278468
-8.7016058 1.3424405 3.531086
-8.7805119 1.3560275 3.5359657
-8.8279505 1.358104 3.5383973
-8.9103298 1.3573965 3.5422642
-8.983285 1.3611705 3.5460513
-9.0262699 1.3602343 3.5480223
-9.0672264 1.3605214 3.5499976
-9.1430378 1.354831 3.5531406
-9.1799297 1.3525975 3.5547144
-9.3068838 1.3609474 3.5614517
-9.4869881 1.3524444 3.5693324
-9.7327061 0.99889582 3.5518966
-9.7110462 0.92271918 3.5445852
-9.7099152 0.87986338 3.5409987
-9.6957455 0.80362248 3.5340388
-9.7304783 0.72383881 3.5291171
-9.7601109 0.60435623 3.5206797
-9.7621756 0.44536769 3.5076725
-9.7787943 0.36378783 3.5017395
-9.7799015 0.32774395 3.4988213
-9.7796021 0.28741828 3.4954827
-9.6855059 -0.015652761 3.4660165
-9.5319834 -0.10469721 3.4513614
-9.3376427 -0.15529282 3.4379311
-9.02075 0.098219901 3.4437292
-8.6605892 0.058571503 3.4233
-8.6601257 0.042351484 3.421941
-8.6600008 -0.024508312 3.4164238
-8.4393787 -0.32903701 3.3808088
-8.4068136 -0.36849165 3.3760047
-8.2551184 -0.52046686 3.3562493
-8.1318798 -0.56795973 3.3464622
-7.7758751 -0.67613828 3.3205822
-7.7364445 -0.67420793 3.3188624
-7.5648623 -0.63293958 3.3140888
-7.2854156 -0.56114852 3.3066916
-7.2448545 -0.52606171 3.3076513
-3.7437503 -0.5017345 3.1428373
-4.1427741 -0.7850768 3.1384933
-5.8965721 -0.0034899563 3.2864854
-5.862422 0.12667972 3.2955883
-5.8625898 0.2060841 3.3021417
-5.8527384 0.30649763 3.3099496
-5.9368939 -0.072450534 3.282722
0 0 0 1 0 0 0 1 0 0 0 1 0 0 0 0 0 455 1 0 0
