ply
format ascii 1.0
comment PCL generated
element vertex 497
property float x
property float y
property float z
element camera 1
property float view_px
property float view_py
property float view_pz
property float x_axisx
property float x_axisy
property float x_axisz
property float y_axisx
property float y_axisy
property float y_axisz
property float z_axisx
property float z_axisy
property float z_axisz
property float focal
property float scalex
property float scaley
property float centerx
property float centery
property int viewportx
property int viewporty
property float k1
property float k2
end_header
-1.274127 1.3826919 -5.4515257
-1.1185341 1.4457357 -5.5488238
-1.0958343 1.4498662 -5.5643754
-1.1040854 1.4507219 -5.5580916
-1.2811379 1.4709173 -5.4227614
-1.3795433 1.3898454 -5.3722548
-1.481286 1.3600305 -5.3055768
-1.5461888 1.3364668 -5.2642589
-1.6097698 1.3300852 -5.2193108
-1.6640973 1.3226522 -5.1814346
-1.8732176 1.3803279 -5.0125384
-1.92839 1.3657228 -4.9759622
-2.0181489 1.3639923 -4.9105597
-2.0716314 1.3637316 -4.8713832
-2.153069 1.3590058 -4.8128881
-2.193728 1.3509399 -4.7852116
-2.2346854 1.3435721 -4.7571292
-2.2687726 1.3417724 -4.7325974
-2.3161392 1.3419354 -4.6977959
-2.3431625 1.3394142 -4.6786404
-2.4150648 1.336028 -4.6267843
-2.5538316 1.322916 -4.5284657
-2.6218872 1.3276552 -4.4772568
-2.6667666 1.32679 -4.4445553
-2.7210941 1.319357 -4.4066792
-2.8281746 1.3487504 -4.3202329
-2.8711486 1.354552 -4.2871447
-2.947566 1.3507727 -4.2320805
-2.9809332 1.3514463 -4.2074151
-3.0707011 1.3493928 -4.1420922
-3.1697969 1.3416109 -4.0714579
-3.2149582 1.3386743 -4.039104
-3.2685993 1.336218 -4.0003991
-3.3850098 1.3350899 -3.9152775
-3.4474862 1.3388076 -3.8684363
-3.5017135 1.3315728 -3.8305807
-3.5553546 1.3291162 -3.7918758
-3.6274829 1.3237571 -3.7403817
-3.6905456 1.3226962 -3.6943893
-3.7791097 1.3311589 -3.6271343
-3.7970109 1.3330344 -3.6134963
-3.8706048 1.315729 -3.5641251
-3.941854 1.3175374 -3.5113575
-4.046854 1.3398217 -3.4283412
-4.1465359 1.3272612 -3.3585563
-4.181078 1.3277495 -3.3330777
-4.2456312 1.3194791 -3.2879219
-4.2723913 1.3172952 -3.2688699
-4.3365402 1.3088279 -3.2240636
-4.3984299 1.3173239 -3.1763732
-4.4256907 1.3125119 -3.1576576
-4.5636249 1.3142363 -3.0559778
-4.5837479 1.3143256 -3.0411873
-4.6393762 1.3098537 -3.001564
-4.7115045 1.3044946 -2.9500699
-4.7681389 1.2862293 -2.9134011
-4.7941647 1.2828908 -2.8951969
-4.9311132 1.2621354 -2.8002586
-5.0478172 1.2586181 -2.7155614
-4.9137983 1.2554812 -2.8147459
-4.8252344 1.2470187 -2.8820009
-4.7258458 1.2571901 -2.9522104
-4.6809778 1.2577373 -2.9849889
-4.6273365 1.2601938 -3.023694
-4.5830541 1.2559625 -3.0573215
-4.5208712 1.2498555 -3.1045871
-4.4029951 1.2629297 -3.1875858
-4.3478885 1.2773323 -3.2241681
-4.2349272 1.2872913 -3.3043938
-4.1605215 1.2742625 -3.3624818
-4.0642023 1.2828345 -3.4308674
-3.9983637 1.2831054 -3.4791081
-3.9450157 1.2831727 -3.5182376
-3.8999696 1.2808727 -3.5519085
-3.8822463 1.2818441 -3.5646541
-3.7936819 1.2733817 -3.6319094
-3.7209675 1.2835195 -3.6825542
-3.674634 1.2960128 -3.7132096
-3.5829079 1.321915 -3.7735844
-3.4247909 1.2892255 -3.8983645
-3.3808019 1.2826049 -3.9324164
-3.3254023 1.2993968 -3.968574
-3.2717612 1.3018532 -4.0072789
-3.2257202 1.3119572 -4.0383592
-3.1547644 1.3077596 -4.0915513
-3.091702 1.3088205 -4.1375432
-2.9096103 1.2627448 -4.2834997
-2.8733406 1.2562526 -4.3118534
-2.8469124 1.2563303 -4.3312259
-2.8013158 1.2619486 -4.3631811
-2.7528195 1.2709647 -4.3963542
-2.7159796 1.277216 -4.4217143
-2.6273475 1.2693835 -4.4888506
-2.57302 1.2768165 -4.5267267
-2.5457149 1.2817283 -4.5454488
-2.5008359 1.2825936 -4.5781498
-2.391758 1.3065197 -4.6517868
-2.3085761 1.3265395 -4.7074671
-2.2428336 1.3321164 -4.7542171
-2.1742196 1.3267444 -4.806005
-2.0654769 1.3363819 -4.8832216
-1.9949288 1.3397125 -4.9340987
-1.9462929 1.3574132 -4.9650497
-8.1723757 -1.2510376 -1.0946053
-8.1100388 -1.2593501 -1.1425744
-8.0212269 -1.2107973 -1.1947467
-7.9896188 -1.1877949 -1.2117832
-7.7585106 -1.1137209 -1.3615421
-7.7146783 -1.1225264 -1.3960643
-7.6027093 -1.109638 -1.4747783
-7.5890779 -1.1114807 -1.4852744
-7.5352407 -1.103817 -1.5227292
-7.4942112 -1.0870095 -1.5483375
-7.3054147 -1.0563633 -1.6786741
-7.040709 -0.84792554 -1.8171154
-6.9976907 -0.40886396 -1.7311374
-7.0072341 -0.39197648 -1.7196132
-7.0343289 -0.31243727 -1.6784366
-6.9865165 -0.31574494 -1.7144077
-6.7435102 -0.33620197 -1.8982052
-6.490622 -0.027335785 -2.0010881
-6.4748807 0.029144868 -1.9975184
-6.460495 0.038837992 -2.0054801
-6.4083948 0.032244734 -2.0454769
-6.2860994 -0.010540627 -2.1466732
-6.0529385 0.026282124 -2.3079114
-6.024642 0.034813188 -2.3263917
-6.0041728 0.0041859001 -2.3496118
-5.9927292 -0.0099588186 -2.3617961
-5.7203031 -0.055299591 -2.5738444
-5.6876621 -0.042437766 -2.5943537
-5.6794372 -0.039901737 -2.59971
-5.6550436 -0.045625053 -2.6191425
-5.3202896 -0.092695527 -2.8773909
-5.27952 -0.12558921 -2.9161143
-5.270762 -0.13573352 -2.9252572
-5.0405188 -0.26686382 -3.1293187
-4.727479 -0.031297348 -3.2959657
-4.6767721 0.021713555 -3.3189828
-4.6248083 0.10568685 -3.3346334
-4.5856066 0.13944799 -3.3543611
-4.5523462 0.11544528 -3.3851941
-4.4854884 0.077801399 -3.4443331
-4.3590126 0.0045458749 -3.5567546
-4.3266954 -0.0037812442 -3.5826988
-4.2024384 -0.01896888 -3.6779461
-4.0873346 0.0093543008 -3.754828
-4.0558152 -0.0021345988 -3.781033
-4.052701 -0.0039231181 -3.7837973
-4.0311675 -0.023596615 -3.8048658
-4.0256414 -0.043227073 -3.8141766
-4.1381817 -0.18845284 -3.7704725
-4.1668797 -0.23273596 -3.7612691
-4.2552862 -0.41232952 -3.7444758
-4.2656555 -0.53606439 -3.7699928
-4.2787199 -0.58061922 -3.7723346
-4.3082495 -0.69319415 -3.7808042
-4.0928755 -1.0356388 -4.0305276
-4.0485916 -1.0398597 -4.0641532
-3.9767556 -1.0368832 -4.1160707
-3.7611396 -0.9762159 -4.2580504
-3.7406952 -0.97261029 -4.2720876
-3.6747773 -0.95901799 -4.3168201
-3.4665284 -1.0341338 -4.4897456
-3.4489188 -1.038383 -4.5038056
-3.4032304 -1.0488615 -4.5401373
-3.3450689 -1.054953 -4.5844479
-3.3136575 -1.0515044 -4.6065745
-3.1613419 -1.0350618 -4.713944
-3.1435082 -1.0414219 -4.7287331
-3.0361013 -1.0504247 -4.8099599
-2.9781795 -1.0328443 -4.8477573
-2.8849158 -1.0435443 -4.9190598
-2.8630085 -1.048239 -4.9363923
-2.802331 -1.0605048 -4.9842024
-2.8311324 -1.0602337 -4.9629946
-2.89116 -1.0603269 -4.9189706
-2.962255 -1.0742692 -4.870533
-2.9892077 -1.0793077 -4.8521032
-3.0546222 -1.0756124 -4.803112
-3.143913 -1.0705791 -4.7362418
-3.2042744 -1.0795254 -4.6943431
-3.2965105 -1.089412 -4.6293058
-3.3234637 -1.0944506 -4.6108766
-3.3594131 -1.0841211 -4.5817308
-3.457823 -1.0904864 -4.5112205
-3.5289974 -1.0894226 -4.4587069
-3.6873851 -1.1393853 -4.3558564
-3.820611 -1.0942422 -4.2460074
-3.9615948 -1.1224154 -4.1500945
-3.9922619 -1.1278237 -4.1290383
-4.0485625 -1.1129153 -4.0837331
-4.1868725 -1.0886495 -3.9757428
-4.2311563 -1.0844289 -3.9421172
-4.374536 -1.0879922 -3.8378572
-4.4364295 -1.0795223 -3.7901716
-4.5252895 -1.0734705 -3.7233448
-4.6058969 -1.0783353 -3.6654963
-4.6378932 -1.0663167 -3.6387992
-4.6725292 -1.0302756 -3.6037345
-4.6324477 -0.95783448 -3.6137524
-4.886652 -0.5421474 -3.3159266
-4.90868 -0.54621106 -3.3008502
-4.9671259 -0.535137 -3.254997
-5.0066819 -0.46185198 -3.2063508
-5.2989998 -0.42133003 -2.9809957
-5.526412 -0.71767354 -2.8934546
-5.5282974 -0.7539804 -2.9017911
-5.3270807 -1.0357302 -3.1248763
-5.2106686 -1.0345851 -3.2099946
-5.2601233 -1.0637236 -3.181505
-5.3142133 -1.073877 -3.1445312
-5.4951468 -1.1613743 -3.0351849
-5.5015435 -1.1677263 -3.0321913
-5.6050172 -1.1819985 -2.9600821
-5.6544008 -1.1861173 -2.9249463
-5.8254771 -1.1698862 -2.795063
-5.8989782 -1.1439196 -2.7341752
-5.9375491 -1.1286236 -2.7017765
-6.109602 -1.0968841 -2.5670245
-6.1645827 -1.1141875 -2.5313113
-6.1828094 -1.1119616 -2.5173407
-6.2894993 -1.0987544 -2.4355142
-6.3352079 -1.1106542 -2.4051585
-6.418622 -1.1595844 -2.357048
-6.4615655 -1.1862658 -2.3326786
-6.5250683 -1.2084887 -2.2920289
-6.5504665 -1.1843336 -2.2669244
-6.801352 -1.1779325 -2.0811081
-6.8380151 -1.1332655 -2.0422459
-6.892117 -1.0606593 -1.9831072
-7.8731213 -1.0601178 -1.2630888
-7.917243 -1.0536997 -1.2289937
-8.061059 -1.0628511 -1.1259093
-8.1060486 -1.0635949 -1.0930947
-8.2230911 -1.0701082 -1.0089513
-8.2689486 -1.078014 -0.97741699
-8.3404226 -1.0790087 -0.92523462
-8.3680649 -1.0888089 -0.90757424
-8.4892159 -1.1492536 -0.83485401
-8.5789061 -1.1483539 -0.76879776
-8.6897774 -1.1424986 -0.68587148
-8.7098827 -1.1376715 -0.66982585
-8.7408848 -1.1330804 -0.64584696
-8.8564749 -1.1296787 -0.5601145
-8.9410152 -1.1063157 -0.49182284
-9.0771198 -0.87661624 -0.33045268
-9.1023331 -0.71205878 -0.26789546
-9.0977039 -0.67386132 -0.26106632
-9.0981493 -0.63660628 -0.25076556
-9.0474148 -0.39321423 -0.22283423
-9.0601187 -0.34083313 -0.19948888
-9.0693245 -0.31266296 -0.18519163
-9.0859928 -0.29586992 -0.16846442
-9.1477928 -0.2652359 -0.11491311
-9.2614985 -0.13933289 0.0022320747
-9.2816505 -0.12613009 0.020554662
-9.3135109 -0.10465266 0.049683928
-9.3452702 -0.080213249 0.079532266
-9.4532766 -0.080381304 0.15874362
-9.4891586 -0.082072333 0.18462145
-9.5675468 -0.13010873 0.22928369
-9.6213169 -0.1738783 0.25702226
-9.8522406 -0.25632623 0.40440452
-9.9456024 -0.31618786 0.45688879
-9.9292603 -0.36222211 0.43257225
-9.9197521 -0.40573063 0.41394687
-9.8543367 -0.44584316 0.3552053
-9.7601938 -0.66750401 0.22677886
-10.004688 -1.0651698 0.2997297
-10.050831 -1.0755346 0.33081484
-10.078476 -1.0853194 0.34848094
-10.100868 -1.0946399 0.36241758
-10.160832 -1.1098969 0.40233552
-10.21612 -1.1294664 0.43766725
-10.25176 -1.1389025 0.46129405
-10.224978 -1.1362829 0.44234264
-10.189627 -1.1292353 0.41828787
-10.045298 -1.1354268 0.31071973
-9.9345417 -1.1276455 0.23152864
-9.8567581 -1.127754 0.17442083
-9.8189459 -1.1330689 0.14525104
-9.674551 -1.1191429 0.043020487
-9.6122131 -1.1274555 -0.004948616
-9.5313129 -1.1147661 -0.060917497
-9.4954338 -1.1183465 -0.088204741
-9.4601288 -1.1161588 -0.11352646
-9.3058796 -1.1631056 -0.23928499
-9.1466026 -1.2546768 -0.38067973
-9.128233 -1.2738279 -0.39928615
-8.9948473 -1.3031771 -0.50502419
-8.8729286 -1.3464172 -0.60606593
-8.6780348 -1.3114457 -0.73971874
-8.5404034 -1.2672194 -0.82887381
-8.5207405 -1.257177 -0.84061396
-8.3998566 -1.2099504 -0.91667688
-10.942046 -0.77296174 1.0658039
-10.93107 -0.78705204 1.0539781
-10.843603 -0.78665751 0.98989856
-10.67727 -0.83595079 0.85464442
-10.667233 -0.6802761 0.88895667
-10.7176 -0.41933569 0.99577487
-10.689578 -0.2867842 1.0106987
-10.60733 -0.00016932935 1.0270771
-10.609076 0.047042303 1.0409969
-10.722103 0.28772095 1.1883727
-10.689562 0.53243726 1.2300085
-10.693878 0.54421008 1.2363282
-10.7259 0.62737262 1.2820901
-10.716974 1.1366979 1.4118968
-10.576825 1.2133389 1.3295721
-10.494877 1.2892153 1.2897509
-10.281083 1.3054231 1.1372052
-10.517365 1.3224164 1.3151413
-10.593763 1.3440437 1.3769935
-10.643252 1.3470742 1.4141206
-10.672059 1.3277333 1.4300812
-10.918858 1.2485763 1.5899936
-10.924445 1.2487739 1.5941464
-10.972225 1.2210445 1.6217839
-11.063149 1.1668584 1.6739987
-11.077666 0.97736216 1.6339198
-11.082673 0.88069558 1.611714
-11.106791 0.74728888 1.5936972
-11.108228 0.73534745 1.591554
-11.100688 0.70171571 1.5770174
-11.047045 0.6644271 1.52767
-10.941397 0.60104573 1.4331759
-10.927907 0.58868331 1.4199678
-10.841016 0.34453809 1.2908434
-10.841593 0.22495583 1.2592522
-10.937901 0.009769246 1.2723147
-10.955301 -0.089142092 1.2586027
-10.951663 -0.1928321 1.2281729
-10.950562 -0.25064749 1.2118865
-10.937753 -0.3088029 1.1869179
-10.994368 -0.6337539 1.141467
-10.961432 -0.72827005 1.0919939
-8.578269 1.3150474 -0.10976458
-8.4450169 1.3031504 -0.21073127
-8.3203363 1.2868254 -0.30659413
-8.2405663 1.2899076 -0.36430514
-8.1376028 1.2943116 -0.43868232
-8.0526018 1.2928034 -0.50146079
-7.9192052 1.297787 -0.59801453
-7.8914189 1.2930797 -0.61966497
-7.8287907 1.2873056 -0.6671679
-7.7567296 1.2931248 -0.71848959
-7.7380667 1.2968212 -0.73119491
-7.6319675 1.2970182 -0.80899918
-7.5873032 1.2853317 -0.84490299
-7.4338803 1.2995741 -0.9536736
-7.4156394 1.297752 -0.96754706
-7.3438668 1.3012835 -1.019269
-7.2726669 1.3000396 -1.0718496
-7.2011805 1.3011833 -1.1240009
-7.0675902 1.2918085 -1.2245412
-7.0049138 1.2860655 -1.2720711
-6.9596214 1.289308 -1.3044394
-6.8346043 1.2958053 -1.394439
-6.7277794 1.2837536 -1.476055
-6.6166158 1.2871474 -1.5567197
-6.5383701 1.298835 -1.6110082
-6.5301323 1.3009462 -1.6164881
-6.4668841 1.2999786 -1.6631594
-6.4139252 1.3005569 -1.7018666
-6.395112 1.3035103 -1.7148813
-6.3247695 1.295103 -1.7687503
-6.3609166 1.2807636 -1.7460638
-6.4011559 1.2804251 -1.7166264
-6.4324031 1.2796199 -1.6939126
-6.4867916 1.2671026 -1.6573524
-6.5403223 1.261749 -1.6195042
-6.5983534 1.2602212 -1.5773293
-6.6670551 1.2409247 -1.5320814
-6.6932487 1.2430235 -1.5122982
-6.8012176 1.2455239 -1.4323999
-6.9977207 1.2378827 -1.2902492
-7.0333457 1.2486904 -1.2612138
-7.1128335 1.2681946 -1.1976631
-7.1578403 1.2673399 -1.1648653
-7.3099084 1.2557776 -1.056371
-7.3372455 1.2483252 -1.0383058
-7.5353012 1.0539724 -0.94500208
-7.5965271 1.0262985 -0.90748268
-7.641232 1.0278759 -0.87425536
-7.692266 1.0626922 -0.82748502
-7.7168956 1.0784495 -0.80519313
-7.7746358 1.1248263 -0.75040656
-7.8330321 1.146208 -0.70183033
-7.9570837 1.2345335 -0.58715332
-7.9921083 1.2399832 -0.55999267
-8.0638409 1.2466617 -0.50556636
-8.144474 1.2364143 -0.44914067
-8.1880283 1.247545 -0.41419959
-8.377718 1.2303189 -0.27961481
-8.495059 1.2213001 -0.19592309
-8.5750351 1.2360477 -0.13328719
-8.5929585 1.2402447 -0.11901164
-8.6188774 1.2447903 -0.09877491
-8.7097168 1.2358588 -0.034506559
-8.7422972 1.2329087 -0.01138854
-8.8157005 1.2350779 0.04305625
-8.8913565 1.2281051 0.096706629
-8.9754467 1.2467434 0.16340292
-9.019289 1.2554859 0.19791555
-9.0642805 1.2546749 0.23071384
-9.0824909 1.2564832 0.24456131
-9.1972446 1.2689602 0.33210909
-9.3137226 1.2671065 0.41708612
-9.3863602 1.2565106 0.46755111
-9.437335 1.2727668 0.50930989
-9.6529093 1.3207409 0.6803447
-9.4284763 1.2795833 0.50463426
-9.3481321 1.2874423 0.44778025
-9.2404308 1.3026975 0.37283194
-9.1948633 1.3082856 0.34088993
-9.1606617 1.3057795 0.31512129
-9.0516043 1.3127587 0.23696196
-8.9647818 1.2881086 0.16665137
-8.9203644 1.284143 0.13299572
-8.83887 1.3015554 0.077855706
-8.812088 1.3041751 0.058904409
-8.7232542 1.2962438 -0.0084066391
-8.6511927 1.3020631 -0.059728384
-8.6053381 1.3100393 -0.091241598
-7.7737746 -1.0674444 -1.3379523
-7.7260756 -1.0609616 -1.3712188
-7.506403 -0.93245882 -1.4980147
-2.8853335 -0.41174957 -4.7496095
-2.8966379 -0.33005947 -4.7194438
-2.8850927 -0.2523959 -4.7071242
-2.8710833 -0.10985615 -4.6792436
-2.8567929 -0.019805714 -4.6656218
-2.8195996 0.047045209 -4.6750174
-2.8188753 0.048741139 -4.6750951
-2.7513394 0.21064711 -4.6813083
-2.7358322 0.14661029 -4.7098317
-2.7242594 0.094828807 -4.7321868
-2.7249455 0.074391611 -4.7371545
-2.7328911 -0.071367748 -4.7703466
-2.7279582 -0.12793422 -4.7891102
-2.7369957 -0.20443112 -4.802958
-2.7392855 -0.24347454 -4.8117309
-2.7419486 -0.32196042 -4.8307886
-2.7473059 -0.36738086 -4.8390174
-2.7954288 -0.37761253 -4.8064432
-2.8600655 -0.40702593 -4.7668867
-6.8378263 -0.63062274 -1.9078171
-6.7485948 -1.0397091 -2.0828166
-6.7065544 -1.0530705 -2.1172435
-6.6564507 -1.0563428 -2.1548865
-6.6508656 -1.0565823 -2.1590488
-6.4074593 -0.93938786 -2.3062885
-6.3158636 -0.73644203 -2.31917
-6.3122134 -0.69787222 -2.3115225
-6.3074613 -0.65973938 -2.304801
-6.5737138 -0.38464409 -2.0357728
-6.600759 -0.38972086 -2.0172861
-5.7431455 1.2857921 -2.1980462
-5.6893268 1.2935262 -2.2354684
-5.6449003 1.2895545 -2.2691321
-5.5207272 1.2683201 -2.365937
-5.5742583 1.2629732 -2.3280866
-5.6824703 1.2427304 -2.2540987
-5.7545242 1.236867 -2.2027941
-5.8242788 1.250102 -2.1480644
-5.8610373 1.2514559 -2.120728
-5.7978258 1.2708961 -2.1619086
-10.183714 1.2638127 1.0546149
-10.024261 1.2497486 0.93384063
-9.9112797 1.2654717 0.85514319
-9.8944359 1.2667412 0.84312236
-9.8282709 1.2929152 0.80157721
-9.7782364 1.3120868 0.76999366
-9.72439 1.3197302 0.73252714
-9.765419 1.3243619 0.76387465
-9.8009443 1.3177791 0.78818142
-9.8767834 1.3060606 0.8406955
-9.9543514 1.3023468 0.89662158
-10.019892 1.3236828 0.95042789
-10.027655 1.3247076 0.95639884
-10.099422 1.3213092 1.0081538
-10.141924 1.3139304 1.0373658
-10.235284 1.3034291 1.1030635
-10.26232 1.3083831 1.1242284
-5.9145684 1.2461092 -2.0828774
-5.976655 1.2567265 -2.0344751
-6.0484219 1.2532504 -1.9827425
-6.1028152 1.2407415 -1.9461768
-6.0136752 1.2351851 -2.0130763
-5.9419088 1.2386612 -2.0648088
-1.3996534 1.3723751 -5.362175
-1.4992342 1.3238528 -5.3020916
-1.592195 1.3260385 -5.2332907
-1.6919656 1.3129588 -5.1635795
-1.3625321 1.3810172 -5.3871017
0 0 0 1 0 0 0 1 0 0 0 1 0 0 0 0 0 497 1 0 0
