ply
format ascii 1.0
comment PCL generated
element vertex 469
property float x
property float y
property float z
element camera 1
property float view_px
property float view_py
property float view_pz
property float x_axisx
property float x_axisy
property float x_axisz
property float y_axisx
property float y_axisy
property float y_axisz
property float z_axisx
property float z_axisy
property float z_axisz
property float focal
property float scalex
property float scaley
property float centerx
property float centery
property int viewportx
property int viewporty
property float k1
property float k2
end_header
-5.2589064 -0.42493427 1.3164418
-5.4590755 -0.39565384 1.3675735
-5.901813 -0.4107936 1.4541088
-5.9352794 -0.38268614 1.4703729
-5.9800048 -0.37663797 1.4816334
-6.1088009 -0.36324182 1.5127239
-6.1536617 -0.35195479 1.5257536
-6.1981287 -0.34138113 1.5384649
-6.2376027 -0.34234399 1.546309
-6.3150983 -0.35688761 1.5575026
-6.4379783 -0.36169362 1.5813193
-6.4910884 -0.35873929 1.5932857
-6.6054153 -0.35466442 1.6182854
-6.6574006 -0.34156266 1.6333919
-6.697506 -0.37886655 1.6292871
-6.9122739 -0.80520111 1.5319977
-7.111846 -1.1120404 1.471284
-7.2535906 -1.1451401 1.489598
-7.3097224 -1.1409091 1.5026135
-7.3796282 -1.1367375 1.5184581
-7.4711151 -1.1171937 1.5438757
-7.4936099 -1.1126815 1.5500278
-7.573359 -1.0981773 1.5713427
-7.6300507 -1.07876 1.5895219
-7.6932688 -1.0466008 1.613286
-7.7073278 -1.0437776 1.6171321
-8.0043802 -0.68150336 1.7989841
-7.67173 -0.35671291 1.8381411
-7.6290016 -0.32919267 1.8384511
-7.6080017 -0.32018769 1.8371011
-7.5893841 -0.35660732 1.8211452
-7.5922518 -0.36073533 1.8203661
-7.6291041 -0.36146155 1.8277466
-10.451855 -1.1289815 2.1564381
-10.572695 -1.0675795 2.2018394
-10.590672 -1.0474635 2.212244
-10.597603 -1.0259289 2.2208352
-10.617492 -0.97814274 2.2408321
-10.58532 -0.85488737 2.2751467
-10.573583 -0.81808972 2.2849503
-10.566681 -0.78159124 2.2956543
-10.65513 -0.51216078 2.4035029
-10.790359 -0.37166506 2.4781699
-10.781637 -0.28497967 2.5051789
-10.777762 -0.21710618 2.526938
-10.792995 0.049472541 2.618696
-10.793747 0.056402296 2.6211548
-10.799543 0.14602152 2.6521418
-11.012852 0.58807528 2.8431916
-11.022971 0.61106348 2.8529253
-10.79939 1.0301604 2.9459863
-10.797714 1.059575 2.9554167
-10.797888 1.1248276 2.9771419
-10.713882 1.1774778 2.977268
-10.681072 1.1980704 2.9773269
-10.593725 1.2508032 2.9767892
-10.557091 1.2832338 2.9799919
-10.536043 1.290434 2.9780321
-10.404295 1.3188472 2.960228
-10.288219 1.3260021 2.9385991
-10.213966 1.2866744 2.9101701
-9.8933401 1.3528432 2.8658514
-9.8068924 1.3365692 2.8425627
-9.691884 1.3481605 2.8226295
-9.6350899 1.3494527 2.8113127
-9.5504627 1.3546889 2.7955503
-9.5069408 1.3573816 2.7874441
-9.3819857 1.3515897 2.7596757
-9.2209387 1.3497051 2.7257414
-9.1408186 1.3644824 2.7140827
-9.121027 1.3694098 2.711627
-9.0664501 1.3547559 2.6954689
-9.1763391 1.3338541 2.7112486
-9.2538414 1.3268051 2.7249348
-9.3695145 1.3264097 2.7487268
-9.408329 1.3217542 2.7552073
-9.4920044 1.3284262 2.7747307
-9.6013746 1.3165718 2.7934108
-9.7948084 1.3046038 2.8294387
-9.8859997 1.2995112 2.8466065
-10.233429 1.2466122 2.9008791
-10.509689 1.134886 2.9208794
-10.626089 0.85197914 2.8509188
-10.627351 0.75613856 2.8193235
-10.626009 0.73195183 2.8110068
-10.624222 0.68418062 2.7947586
-10.628702 0.64782906 2.7836025
-10.595488 0.4694995 2.7174585
-10.714561 0.36746207 2.7081695
-6.4071732 1.3306226 2.1374521
-6.5342894 1.3734465 2.1779764
-6.6157441 1.3885418 2.1998405
-6.6516733 1.3811479 2.2048137
-6.8953133 1.3477268 2.2440951
-6.9037495 1.3494208 2.2464027
-6.974256 1.3382941 2.2572868
-7.0730033 1.3389468 2.2779267
-7.091898 1.3414707 2.2826734
-7.2129374 1.3308333 2.3041711
-7.3287387 1.328176 2.3272381
-7.3897505 1.3193452 2.3369215
-7.3994217 1.3187469 2.3387227
-7.5019989 1.3268802 2.3626413
-7.5791125 1.3266166 2.3785024
-7.5987711 1.3249923 2.3820283
-7.7171931 1.3135656 2.4027224
-7.7921486 1.308928 2.4166834
-7.811492 1.3077313 2.4202862
-7.8829527 1.2846994 2.4274104
-7.9992719 1.2729949 2.4475772
-8.0828171 1.2819285 2.4678254
-8.2378225 1.2678304 2.4951978
-8.3148079 1.2698288 2.5117843
-8.3926983 1.2559942 2.5232954
-8.4244375 1.2534508 2.5290141
-8.5084991 1.253337 2.5463624
-8.6244307 1.248418 2.5687044
-8.8276405 1.364444 2.6492982
-8.9827766 1.348084 2.6759455
-8.6208019 1.1855353 2.5470524
-8.5472307 1.1286541 2.5129299
-8.4593277 1.0743335 2.4766941
-8.4225826 1.0427996 2.4586129
-8.3252182 1.0600929 2.4442241
-8.0636559 1.2520751 2.4539399
-7.9051056 1.2597274 2.4236917
-7.863533 1.2593695 2.4149747
-7.7790356 1.2623436 2.3984873
-7.7030039 1.2484375 2.37814
-7.5674477 1.2607057 2.354182
-7.4847431 1.2408479 2.3304765
-7.4651003 1.2422926 2.3268943
-7.3747277 1.2639835 2.315413
-7.2076335 1.246178 2.274936
-6.9305239 1.2515081 2.2193956
-6.846848 1.2448678 2.1998823
-6.7370906 1.2634784 2.1833682
-6.6210303 1.2706606 2.1617517
-6.5759125 1.2638888 2.1501694
-6.459723 1.2733334 2.1292782
-6.2928872 1.2510031 2.0873508
-6.0990663 1.2697608 2.0534992
-5.9712224 1.2771261 2.0295067
-5.8919945 1.276974 2.0130701
-5.8534369 1.2771056 2.0051394
-5.7618146 1.2782665 1.9865756
-5.6606493 1.2777637 1.9654853
-5.6157889 1.2664669 1.9524524
-5.512722 1.2897185 1.9388645
-5.4287872 1.2876033 1.9208019
-5.3453693 1.2764379 1.8998381
-5.3066826 1.2788321 1.8926326
-5.1453753 1.2815049 1.8601592
-5.1187367 1.2751995 1.852554
-5.0555253 1.2611737 1.8348186
-4.9597116 1.2758845 1.8198919
-4.8101349 1.302682 1.7978635
-4.6881733 1.2953863 1.7702141
-4.482729 1.2831812 1.723667
-4.3227005 1.2667098 1.6850948
-4.2840858 1.2665862 1.6770674
-4.2065816 1.270865 1.6624601
-4.1678295 1.2730044 1.6551565
-4.1289401 1.2774068 1.6485767
-4.0064306 1.279163 1.6238229
-3.8516967 1.2831947 1.5931606
-3.7412827 1.3010638 1.5762641
-3.6248896 1.309745 1.5550771
-3.4913809 1.2772841 1.516675
-3.3753989 1.2791762 1.4933164
-3.3366466 1.2813157 1.4860127
-3.2592797 1.2833314 1.4706817
-3.1102507 1.301077 1.4457576
-3.0270414 1.2916418 1.4254121
-2.8995121 1.268369 1.3913007
-2.7330933 1.2494986 1.3506095
-2.6745539 1.2594959 1.3418252
-2.5578864 1.2727032 1.3220859
-2.4803824 1.2769819 1.3074785
-2.4028783 1.2812607 1.2928714
-2.3253741 1.2855394 1.278264
-2.2089813 1.2942207 1.257077
-2.1642499 1.2871721 1.2454827
-2.0807664 1.2822629 1.2265849
-1.8870063 1.2929599 1.1900667
-1.7590659 1.276476 1.1581268
-1.6040578 1.2850336 1.1289122
-1.4939175 1.2983769 1.110568
-1.4551656 1.3005162 1.1032643
-1.3719563 1.291081 1.0829189
-1.3332038 1.2932204 1.075615
-1.2615423 1.3089502 1.0660224
-1.1070819 1.3084557 1.0339123
-0.96759415 1.266807 0.9912197
-0.85174942 1.2664361 0.96713728
-0.6235466 0.90562451 0.80001104
-0.61413765 0.83347356 0.77408302
-0.57945633 0.74016345 0.73589516
-0.57607508 0.66228926 0.70931143
-0.57411289 0.64072287 0.70173723
-0.57342768 0.46434018 0.64296818
-0.53056526 0.34667191 0.59499198
-0.49967909 0.22319159 0.54756081
-0.49968004 0.18268946 0.53409863
-0.4985981 0.20009562 0.53966045
-0.49675703 0.25796816 0.55851573
-0.48400974 0.40964261 0.60629392
-0.47620487 0.47047392 0.62489933
-0.15001154 0.75364208 0.65155697
0.35650349 0.5848794 0.49070436
0.38840532 0.50796604 0.45854133
0.39403296 0.62235391 0.49539846
0.40085173 0.72933745 0.52954811
0.42311049 0.81018126 0.55181599
0.44964504 0.95286322 0.5937537
0.45750093 0.99234366 0.60525173
0.4668026 1.0289197 0.61548537
0.46023941 1.1125404 0.64463717
0.46003008 1.173365 0.66489774
0.48949575 1.2748185 0.69252551
0.50801182 1.3180654 0.70307064
0.50548267 1.3231481 0.70528316
0.47744894 1.3895093 0.73313868
0.39709568 1.4207714 0.76014858
0.27378464 1.4681751 0.80140829
0.1719079 1.4673692 0.82221073
0.11545324 1.4655181 0.83327144
-0.12816811 1.4135586 0.86638689
-0.16049719 1.41837 0.87467253
-0.49275398 1.3564001 0.92279232
-0.53150654 1.3542607 0.93009603
-0.57039547 1.3498583 0.93667579
-0.64817381 1.3410536 0.94983536
-0.84777594 1.3418075 0.99136794
-0.93098545 1.3512428 1.0117136
-1.0086265 1.3447009 1.0255971
-1.1189036 1.3290948 1.0432174
-1.2018385 1.3430561 1.0650107
-1.317821 1.3411638 1.0883694
-1.4395082 1.3529857 1.1174663
-1.6056526 1.3763821 1.1596051
-1.6830199 1.3743663 1.1749363
-1.7216346 1.37449 1.1829638
-1.7930226 1.363286 1.1940043
-1.8317747 1.3611467 1.201308
-1.9215114 1.3707179 1.2230488
-2.0769305 1.3553715 1.2500918
-2.1215246 1.3646829 1.2624098
-2.2320759 1.3445507 1.2785825
-2.3601532 1.3587717 1.3097985
-2.4376574 1.3544929 1.3244058
-2.6569102 1.3496518 1.3681428
-2.7151747 1.344179 1.3783741
-2.8452392 1.3207148 1.397475
-3.011658 1.3395852 1.4381661
-3.056252 1.348897 1.4504843
-3.1720972 1.3492677 1.4745668
-3.2497382 1.3427259 1.4884502
-3.3711514 1.3590738 1.5189948
-3.532002 1.3619673 1.553224
-3.7318785 1.3581952 1.5933089
-3.8868866 1.3496376 1.6225234
-3.9699593 1.3613359 1.643593
-4.090785 1.3591762 1.6678644
-4.2083135 1.3599505 1.6924292
-4.3344092 1.3339528 1.7098672
-4.484735 1.3677408 1.7521884
-4.6068335 1.3727735 1.7791138
-4.844914 1.3759142 1.8293979
-4.9556017 1.3535191 1.8448466
-5.1163154 1.3586754 1.8797995
-5.1607723 1.3702501 1.8928413
-5.4216146 1.3471391 1.9391074
-5.5308552 1.3375784 1.9585228
-5.6212215 1.3488597 1.9809623
-5.6602955 1.3396784 1.9859918
-5.7763553 1.3324962 2.0076082
-5.8597732 1.3436612 2.0285718
-5.9690142 1.3341005 2.0479875
-6.0145197 1.334085 2.0573938
-6.2529426 1.3311491 2.1057289
-0.74574757 -1.1080019 0.15598166
-0.82352686 -1.116804 0.16914237
-1.0289669 -1.1045337 0.21571028
-1.2280183 -1.0946956 0.26014841
-1.3049722 -1.0899231 0.27765036
-1.1952429 -1.0833375 0.25714505
-1.156354 -1.0789366 0.25056481
-1.0078731 -1.0702124 0.22275555
-0.9245286 -1.0774169 0.20312357
-0.77549839 -1.0596431 0.17820859
-0.68727207 -1.0739142 0.15521801
-0.53632164 -1.0447189 0.1337024
-0.1926322 -0.68401766 0.18251252
-0.18185806 -0.61400056 0.2035569
-0.15095615 -0.58634835 0.206357
0.082961559 -0.39815024 0.22053242
0.12775183 -0.34781697 0.22799897
0.18513107 -0.2937668 0.23409724
0.26809263 -0.21926817 0.24170136
0.29910707 -0.2170596 0.23602104
0.63941097 -0.12659466 0.19570839
0.65109491 -0.1494967 0.18567955
0.62918425 -0.18755974 0.17755949
0.28405666 -0.57849056 0.11899889
0.25622082 -0.62788785 0.10833693
0.23067331 -0.67200792 0.09895587
0.19516659 -0.7873801 0.067951083
0.1992774 -0.9071877 0.027278423
0.20050573 -0.95498049 0.011138678
0.19501638 -0.98437786 0.0025026798
0.18898821 -1.0734433 -0.025854826
0.18912458 -1.0914314 -0.03186202
0.10632658 -1.0752072 -0.0093448162
0.022158146 -1.0816129 0.0059337616
-0.040192127 -1.0957228 0.014139175
-0.078944206 -1.0978622 0.021442771
-0.1458354 -1.0838948 0.039919972
-0.1768961 -1.071807 0.050361753
-0.50629711 -1.0885528 0.11292279
-0.58991575 -1.0858732 0.13110769
-7.2901955 -1.2861258 1.4503068
-7.0468607 -1.3570142 1.3764176
-7.0343232 -1.3525512 1.375308
-6.7584476 -1.2198335 1.3623648
-6.6256289 -1.1948047 1.3432143
-6.5756531 -1.1886246 1.3349324
-6.5730305 -1.1883793 1.3344715
-6.534215 -1.1837268 1.3279901
-6.3548241 -1.1780773 1.2927661
-6.312252 -1.187251 1.280912
-6.2897573 -1.1917632 1.2747598
-6.1874714 -1.1913468 1.2537434
-6.0357451 -1.1646031 1.2312524
-5.8556557 -1.1984375 1.18276
-5.7900686 -1.2264822 1.1598734
-5.7537994 -1.224242 1.1531168
-5.5259171 -1.1622864 1.126579
-5.4176273 -1.1972421 1.0925636
-5.1751981 -1.1241729 1.0667114
-5.0595269 -1.1237924 1.0429146
-4.9010158 -1.1189603 1.0117372
-4.8233767 -1.1123862 0.99786496
-4.5072594 -1.1024214 0.93579733
-4.4240589 -1.1121788 0.91534644
-4.3026023 -1.1143591 0.88950193
-4.2580118 -1.1240203 0.87706834
-4.2134204 -1.1336817 0.86463469
-4.1300802 -1.1411836 0.8449046
-3.9773197 -1.1686343 0.80418622
-3.93857 -1.1664749 0.79688966
-3.912235 -1.1591719 0.79387045
-3.7100689 -1.1650822 0.7500937
-3.635879 -1.1743749 0.7316609
-3.5196304 -1.167897 0.70977139
-3.3317237 -1.14528 0.67842591
-3.2483833 -1.1527818 0.65869582
-3.1708841 -1.1484634 0.64410275
-3.093385 -1.1441448 0.62950969
-2.9343472 -1.123374 0.60352123
-2.8955979 -1.1212146 0.59622478
-2.8568482 -1.1190553 0.58892828
-2.7793491 -1.1147368 0.57433522
-2.7604733 -1.1076119 0.5727995
-2.5633142 -1.0339035 0.55652255
-2.4930766 -1.0300336 0.54328215
-2.4128234 -1.0116488 0.53279501
-2.3342242 -1.0095229 0.51724559
-2.6365886 -0.68460488 0.68777949
-2.4756947 -0.47593781 0.72386146
-2.4084325 -0.42985231 0.72526842
-2.3879595 -0.4106783 0.72740734
-2.3334806 -0.35982633 0.73304248
-2.3718209 -0.3551715 0.74251932
-2.4658422 -0.3200855 0.77362698
-2.5295265 -0.29057491 0.7966072
-2.5390773 -0.28884536 0.79915738
-2.6678593 -0.28377131 0.82747883
-2.7903688 -0.28519511 0.85234314
-2.8292038 -0.28210467 0.86140227
-2.8433697 -0.28365317 0.86381739
-2.9900978 -0.28642651 0.893242
-3.1121876 -0.28108382 0.92026865
-3.2670462 -0.28746551 0.95017552
-3.3502467 -0.27770805 0.97062635
-3.4219046 -0.2938472 0.98008239
-3.583024 -0.29517481 1.012964
-3.739428 -0.29335159 1.0459177
-3.782613 -0.29415071 1.0545837
-3.8947911 -0.30124998 1.0754248
-4.0312171 -0.27696881 1.1117113
-4.2106581 -0.27577198 1.1492214
-4.2348766 -0.27712151 1.1537817
-4.5807743 -0.27210432 1.2269883
-4.5854778 -0.27011874 1.2286211
-4.6005669 -0.28525785 1.2267097
-4.4330945 -0.46684429 1.131716
-4.3673477 -0.59490204 1.0755534
-4.5868979 -1.0218368 0.97905356
-4.7031469 -1.0283146 1.0009432
-4.863986 -1.0251313 1.0352662
-4.9743938 -1.0434297 1.0520186
-5.103652 -1.0438951 1.0785974
-5.3414669 -0.67090166 1.2517607
-5.3392444 -0.66244137 1.2541132
-5.174334 -0.42413652 1.2992156
-8.5452805 -1.1477622 1.7558753
-8.7056837 -1.1345978 1.7934259
-8.7897472 -1.1347449 1.8107631
-8.9505386 -1.1283679 1.8461378
-9.0214806 -1.1423219 1.8561718
-9.0663404 -1.1310252 1.869205
-9.266593 -1.1406169 1.9074332
-9.3435793 -1.1386178 1.9240202
-9.4209528 -1.1434059 1.938431
-9.5431862 -1.1368973 1.9658749
-9.6728849 -1.1393223 1.9918933
-9.7436972 -1.1510139 2.0026526
-9.8277607 -1.151161 2.01999
-9.8854179 -1.1479654 2.0329766
-9.9888096 -1.1493088 2.0539138
-10.092232 -1.1506537 2.0748568
-10.135515 -1.1422141 2.0866141
-2.2122631 -1.0168173 0.4895969
-2.0958707 -1.0081487 0.46840584
-2.0571187 -1.0060135 0.46110076
-1.9797523 -1.0040066 0.44576681
-1.8183722 -1.0810778 0.38677251
-1.61973 -1.0774512 0.3468945
-1.9353776 -1.1873183 0.37565881
-2.0147028 -1.1677555 0.39856738
-1.4326344 -1.0688509 0.31105781
-1.3940194 -1.0689746 0.30303025
-7.9525127 -1.4265569 1.5406108
-8.0352201 -1.4790957 1.5402532
-8.0420399 -1.4767171 1.5424541
-8.1636858 -1.3754848 1.6012614
-8.1985912 -1.269431 1.6437316
-7.3861361 -1.2785232 1.4726763
-7.5071163 -1.2269799 1.5148301
-7.9196386 -1.3736781 1.5513879
-10.587706 -0.24145466 2.4795372
-10.539881 -0.3128536 2.4459138
-10.011659 -0.25591251 2.3555927
-10.0016 -0.24852663 2.3559673
-9.9821129 -0.2450664 2.3530872
-9.8815117 -0.28331396 2.3195677
-9.3849697 -0.27963972 2.2180936
-9.3334198 -0.29557759 2.2021346
-9.2953787 -0.30449578 2.1913023
-9.245636 -0.35210782 2.1651888
-9.1597891 -0.44257483 2.1173639
-8.6677895 -0.35918343 2.0433261
-8.5442648 -0.34306753 2.0231352
-8.428463 -0.3404102 2.0000682
-8.3829565 -0.34039479 1.9906619
-8.2670259 -0.33547503 1.9683201
-8.2216492 -0.33772194 1.9581883
-8.1451797 -0.34877101 1.9387002
-1.4592936 -1.0871656 0.31048393
-1.4206791 -1.0872893 0.3024565
-1.3435874 -1.0897994 0.28567791
-10.787661 0.067224532 2.623493
-10.77528 0.027484894 2.6077237
-10.766684 0.0037453771 2.5980549
-10.723688 -0.071729004 2.5640759
-10.661068 -0.15181498 2.5245051
-10.645224 -0.16490732 2.5168765
-1.5038857 -1.0778224 0.32281208
0 0 0 1 0 0 0 1 0 0 0 1 0 0 0 0 0 469 1 0 0
