ply
format ascii 1.0
comment PCL generated
element vertex 1446
property float x
property float y
property float z
element camera 0
property float view_px
property float view_py
property float view_pz
property float x_axisx
property float x_axisy
property float x_axisz
property float y_axisx
property float y_axisy
property float y_axisz
property float z_axisx
property float z_axisy
property float z_axisz
property float focal
property float scalex
property float scaley
property float centerx
property float centery
property int viewportx
property int viewporty
property float k1
property float k2
end_header
-10.108748 1.3573169 3.3521631
-11.318977 1.180029 -3.3453839
-11.31891 1.1700295 -3.3453145
-11.31276 1.0972877 -3.0260992
-9.886776 1.3399315 3.667372
-9.8927937 1.2372395 3.7071288
-11.588728 0.16714604 -4.2125797
-11.592196 0.19513479 -4.2422805
-11.640868 0.11789368 -4.4864783
-11.591825 0.12684764 -4.2522368
-11.437798 -0.56793886 -4.4940915
-11.474178 -0.70324409 -4.493732
-11.517182 -0.52833062 -4.557024
-11.516337 -0.56841153 -4.535944
-11.52698 -0.12723781 -4.1615524
-11.50701 -0.32796407 -3.8825073
-11.566087 0.017277017 -4.0802436
-11.519148 -0.36805579 -3.8773518
-11.544179 -0.32848817 -4.5705938
-11.519372 -0.30578181 -4.5711098
-11.5586 -0.39860961 -4.5705152
-11.593184 0.0096412599 -4.2079759
-10.047942 1.1169028 3.5524995
-10.018004 1.1170944 3.5493519
-9.8789339 1.3588256 3.6219637
-9.8617086 1.3589884 3.6090877
-9.9874477 1.3542606 3.3442318
-9.9671774 0.97740203 3.5477312
-9.9410324 1.0786833 3.557193
-11.476501 1.3506898 -4.1639791
-10.712812 1.3045506 -0.097714782
-10.710976 1.3041828 -0.017736793
-11.140732 1.3375857 -3.1503093
-11.516562 1.2729934 -4.1830711
-9.8825121 0.91714448 3.7457225
-9.9089508 0.59713489 3.7050922
-11.40875 -0.28952977 -3.1644044
-11.383895 0.020387948 -3.0840416
-11.376308 -0.36993378 -2.9653091
-11.383988 0.035387587 -3.0839961
-11.315948 -0.24664533 -3.9265375
-11.481904 1.2534273 -4.4040146
-11.545321 1.2329038 -4.2424183
-11.53895 1.1896893 -4.2609282
-11.528366 -0.36821958 -3.8421383
-11.310246 0.91231358 -3.0235896
-11.343468 0.60819179 -4.3010402
-11.24509 0.14634174 -3.9397976
-11.453782 -0.76889461 -4.2944236
-11.455505 -0.72825342 -4.4542718
-11.430635 -0.78087568 -4.3750582
-11.55499 -1.055775 -3.8835435
-11.345875 -1.0081691 -4.2579699
-11.074115 1.337743 -3.1917627
-11.035164 1.3384675 -3.1250935
-11.076511 1.2575886 -3.2111468
-11.279273 1.3043942 -4.2889366
-11.47959 -0.28045112 -4.57198
-11.510706 -0.44821352 -4.5718746
-11.394815 -0.28888416 -4.1739559
-11.407087 -0.24865773 -4.2535248
-11.310303 0.050637294 -3.9777169
-11.381554 0.91414636 -4.5668778
-11.390596 0.8341856 -4.6467571
-11.39396 0.99416953 -4.6465168
-11.38961 1.1141949 -4.6465063
-11.396981 0.99406374 -4.5664177
-11.388495 0.99406511 -4.5266151
-11.521597 0.15187488 -4.6092873
-11.481335 0.23363976 -4.605093
-11.531614 0.63283575 -4.123311
-11.483409 0.55117297 -3.7374625
-11.53029 0.54364002 -4.0564766
-9.8892756 1.0382657 3.7409561
-9.7798271 1.3596325 3.579807
-9.778677 0.95943147 3.6282203
-9.8654985 0.83841783 3.7396543
-9.8173847 0.75917751 3.6282723
-9.7766514 0.99948585 3.6183312
-9.8196726 0.87944919 3.558778
-9.8177242 0.7192868 3.6006162
-9.8187695 0.67952389 3.540468
-10.176441 1.3310914 2.7897732
-10.237633 1.3548068 2.4312272
-10.215462 1.3281087 2.8306973
-10.1746 1.3382323 2.8697846
-10.538815 1.3067377 0.99774122
-10.584402 1.295011 0.75870085
-10.542554 1.2999555 0.83775306
-10.400502 1.3201009 1.0345309
-10.535987 1.3086994 1.1177177
-10.581537 1.2919729 0.878654
-10.541605 1.2997761 0.87774134
-10.381767 1.3159894 0.87402153
-10.809242 0.89203405 -1.8178657
-10.696945 1.090004 -1.2193712
-11.194663 1.1797336 -3.1480212
-10.645152 0.64859086 -0.84748924
-10.631163 0.64838403 -0.78279382
-9.9717426 -0.41660839 3.5369318
-9.9238377 -0.37725818 3.5362709
-10.084703 -0.2182374 3.5426519
-10.37134 -1.1362675 2.3700714
-10.415854 -1.1407315 2.171015
-10.413209 -1.1287347 2.2910371
-10.337516 -1.1647915 2.0891049
-10.374078 -1.1357648 2.2501037
-9.8948593 0.63834679 3.7094972
-10.117968 -0.53755313 3.2921913
-9.9032326 0.47716847 3.7045214
-10.718664 0.32926005 -1.102339
-10.772949 0.44983333 -1.304343
-10.729816 0.4092983 -1.1267215
-10.786029 0.36971787 -1.30066
-10.728601 0.28923389 -1.1122977
-10.728368 0.24924693 -1.1149876
-10.815354 0.3299422 -1.3926946
-10.825191 0.57155401 -1.7439532
-10.790655 0.4100658 -1.3803899
-10.727274 1.0099699 -1.2590536
-10.191645 -0.37460503 1.7289913
-10.146258 -0.57798731 2.0071778
-10.113213 -0.49843419 2.1668
-10.095586 -0.65727699 3.2513077
-10.126842 0.14151192 3.54476
-10.125836 -0.018492647 3.5466907
-9.7798786 -0.016570196 3.9739468
-10.121446 0.036445163 3.5500619
-10.620816 0.10710999 -0.50544488
-10.623134 0.047671124 -0.62569803
-11.061449 0.044543758 -2.971123
-11.135567 0.17678908 -3.2622094
-11.102808 0.031981546 -3.0352545
-11.06131 0.022044308 -2.9711912
-11.146867 0.14282851 -3.1016827
-11.118078 0.53606713 -3.38517
-11.113764 0.52415204 -3.3051581
-11.114814 0.55136675 -3.3453391
-11.1919 0.17558575 -3.3810124
-11.431834 -0.75322133 -4.4149332
-10.95373 -1.0884542 -0.9034065
-10.991917 -1.0841169 -0.82248765
-10.995736 -1.063382 -0.98234808
-10.93422 0.33091384 -1.7775654
-10.660847 1.2974542 0.42120063
-10.506677 1.337235 0.17777693
-11.204043 1.2555282 -3.3846669
-11.513049 -1.0832553 -3.8045371
-11.552132 -1.0861212 -3.763665
-10.15208 -1.0964856 2.9309018
-10.13167 -1.0964334 2.9504831
-10.165588 -0.97780132 3.279165
-10.298167 -1.102808 2.8486702
-10.323231 -1.1249743 2.7291172
-10.208058 -0.93810189 3.2926848
-11.595565 0.4527095 -4.3219681
-11.575337 0.4072327 -4.2145743
-11.637616 -0.44935846 -4.5462818
-11.640008 0.012898177 -4.486908
-11.636848 -0.40953517 -4.501132
-11.552809 -0.27470371 -4.2900896
-10.015039 1.3980701 3.3027761
-9.9485826 1.3946766 3.3035381
-9.9594793 1.3997687 3.2637851
-9.8439426 1.3590529 3.6212056
-11.436835 1.3534192 -4.1774607
-11.490088 1.2730702 -4.1237073
-11.495565 1.2010863 -4.1019068
-9.8821163 0.7972036 3.7302635
-9.885251 0.95712823 3.7459309
-9.8393269 0.63907421 3.6182735
-11.509377 -1.1012173 -3.6446307
-11.429399 -1.1007165 -3.6464105
-11.466763 -1.0938139 -3.5255282
-11.472339 -1.0894548 -3.3253415
-10.903474 -1.1126821 -0.46455252
-10.823388 -1.1270922 -0.46645838
-10.821551 -1.1274601 -0.38648045
-11.381083 -1.0890576 -3.2698581
-11.196357 0.52527696 -3.4234095
-11.290697 -0.24560791 -2.5667562
-11.430831 0.13594411 -3.3627322
-11.470085 -0.3689833 -3.470845
-11.391836 0.41519904 -3.2458525
-11.388872 0.25582784 -3.1572623
-11.420036 0.15089072 -3.3229194
-11.394127 0.030687623 -3.203814
-11.3497 -0.4468596 -3.9263647
-11.359839 -0.48687065 -3.943759
-11.30036 -0.28727549 -3.6869421
-11.395612 0.57430404 -3.3719325
-11.439232 0.49267974 -3.5629585
-11.441706 0.55450237 -3.6583683
-11.393591 0.50732195 -3.2989821
-11.351009 0.63871312 -3.1407955
-11.391521 0.29504502 -3.2675118
-11.523828 1.2457889 -4.4830098
-11.476801 -0.6882655 -4.4936099
-11.443137 -0.60684097 -4.1247964
-11.4296 -0.78853089 -4.3351011
-11.594149 -0.34722129 -4.3693891
-11.600492 0.63286412 -4.4817181
-11.598577 0.63278788 -4.4042416
-11.526686 1.2259073 -4.6029954
-11.372295 0.95410782 -4.4870429
-11.300061 1.2184733 -4.3063135
-11.338138 1.1941625 -4.3676143
-11.524076 0.14935426 -4.6092367
-11.445413 0.23356657 -4.3659077
-11.603336 0.61048245 -4.6017065
-11.570558 0.63280308 -4.2823973
-9.7938519 1.3588897 3.7401474
-9.8978634 1.4003321 3.222441
-9.9588299 1.3546835 2.9047501
-9.9183207 1.3637677 2.8838074
-9.9188957 1.3338858 2.8487117
-9.866643 1.3598828 3.3816431
-9.8236666 1.2996726 3.5005028
-9.881999 1.4002723 3.2621062
-9.9191332 1.3989329 3.2281868
-9.92696 0.95762706 3.5517886
-9.9665775 0.87740469 3.5473454
-10.424175 1.0452549 0.19204354
-10.506343 1.1649255 0.13696575
-9.9174986 1.3173988 3.6279428
-10.014612 1.3344464 2.8659713
-10.006459 0.87714291 3.5532086
-9.8852129 0.63790655 3.5421917
-9.8583002 0.59927624 3.5385091
-9.9251251 0.59769249 3.5354035
-10.809242 1.1699615 -0.85632586
-10.598692 1.2482512 -0.70075846
-10.619332 1.1221853 0.53947341
-10.502548 1.2977591 0.8367939
-10.425228 1.1465896 0.67423487
-10.286406 1.2862271 1.5118105
-10.415914 1.3166252 1.7550893
-10.194569 1.3557379 2.0325944
-10.165457 1.2819583 1.548933
-10.505432 1.303297 0.71685243
-10.42354 1.3010453 0.79492235
-10.429401 1.3246208 0.55509782
-10.417978 1.3174683 1.0349336
-10.822657 0.8921259 -1.8575681
-10.82686 0.78854632 -1.8728751
-10.784415 0.7713927 -1.646444
-10.695544 1.1496338 -1.1391072
-10.851016 1.1281066 -1.0556133
-10.989659 1.3004525 -2.8832462
-11.074504 1.3384188 -3.094234
-11.076881 1.3777249 -3.1919866
-11.151327 1.2972382 -3.1898038
-10.626745 0.72841781 -0.78252715
-10.724695 0.68941188 -1.1405547
-10.810274 0.93302232 -0.97742474
-10.803096 0.64700997 -0.75634474
-10.810751 0.88818496 -1.0126296
-11.373821 -1.0496933 -3.0448499
-11.137115 -1.0830828 -3.0927286
-11.327636 -1.0256082 -2.6482091
-11.417117 -1.072336 -3.0864615
-11.132615 -1.0084569 -1.6991475
-11.148039 -1.03465 -1.7720147
-11.13337 -1.0307722 -1.7392436
-11.351962 -0.80788726 -4.3370667
-11.353487 -0.80806357 -4.2970185
-11.350239 -0.84577799 -4.2875967
-11.270364 -1.0945994 -3.6899447
-11.432117 -1.0928698 -3.7663572
-11.349109 -1.0877665 -3.6306567
-10.125936 -0.87760502 3.2911894
-10.079855 -1.0963337 2.8837259
-9.972105 -0.36160985 3.5370872
-10.125296 -0.17842004 3.5261261
-10.326398 -0.944646 2.6499238
-10.341132 -1.1020856 2.6095893
-10.324363 -0.94252312 2.7399104
-10.323539 -1.0225619 2.7495587
-10.281553 -1.0226265 2.8361237
-10.326226 -0.82234955 2.6979454
-10.326556 -0.8622328 2.6702783
-10.326626 -0.82227623 2.6804502
-9.984787 0.083784096 2.7260044
-9.9924088 -0.024776392 2.6861527
-9.9932976 0.04392112 2.6685498
-9.891984 0.10351354 3.6841309
-9.7651882 0.038082577 3.9743884
-9.8921928 0.14350578 3.686743
-9.9230375 -0.53722847 3.5282037
-10.320189 -0.86244643 2.7301481
-10.284578 -0.66257727 2.8226979
-10.067372 0.59678912 3.5484803
-10.044105 0.47691974 3.5500309
-9.9651155 0.59744936 3.536268
-9.9234695 0.35766158 3.5444753
-9.8174934 0.47203988 3.5371234
-9.8833714 0.35788605 3.54861
-9.8838511 0.43788394 3.5489185
-10.086323 0.061747 3.5461466
-10.042109 0.11695722 3.5411437
-10.086801 0.141745 3.5464313
-9.9020615 0.55833972 3.6993363
-11.239766 -1.0061485 -2.2900198
-11.238257 -0.97137332 -2.2124333
-11.275616 -1.0112518 -2.329246
-10.996604 -1.0899944 -2.1743975
-10.781883 0.69100487 -1.5618489
-10.78124 0.67340207 -1.5394385
-10.72907 0.40914887 -1.0942305
-10.729819 0.10974658 -1.2231253
-10.743717 0.050024666 -1.3031026
-10.78231 0.82089645 -1.5387354
-10.774122 0.071616068 -1.4223373
-10.774076 0.065366313 -1.4223671
-10.160696 -0.77795619 3.3322608
-9.9278145 -0.65631652 3.2628362
-10.181399 -1.1379142 1.9256117
-10.135004 -1.1412851 2.2046137
-10.140969 -0.73825568 2.0764043
-10.107292 -1.1390991 2.3240225
-11.347833 -0.88801867 -4.2974672
-11.274066 -1.0716374 -3.8498359
-11.330458 -1.008532 -4.1383104
-10.631945 0.17165461 -0.42487079
-10.674988 0.10861791 -0.90430248
-10.711538 0.28893054 -1.0226665
-10.715956 0.20889674 -1.0229331
-10.643129 0.48842451 -0.81076229
-10.641706 0.50561345 -0.7431975
-10.637033 -0.012057833 -0.70567501
-10.630826 -0.052203417 -0.66599137
-10.680568 -0.17140371 -0.91046381
-10.651787 -0.17197829 -0.74608266
-10.621296 0.047303248 -0.5457201
-10.635118 0.22970423 -0.54456359
-10.706621 -0.17085665 -1.0649052
-10.681288 -0.056431055 -0.904917
-11.098685 -0.48880315 -2.771786
-11.024255 0.031306885 -2.6519094
-11.052494 0.020394325 -2.8227839
-11.027296 -0.48956811 -2.3732779
-10.968815 0.024542138 -2.3069913
-10.993917 0.030769654 -2.4125266
-10.957897 0.024909236 -2.2647195
-10.983101 -0.44989681 -2.1740973
-11.088023 -0.28967276 -2.4613698
-11.127144 -0.44922316 -2.6910176
-11.12143 -0.24979046 -2.4905181
-11.046435 0.022382066 -2.5428572
-11.12354 1.2074156 -3.54986
-11.244343 0.091468595 -3.9219196
-11.277155 0.12863681 -3.5788853
-11.279461 0.13289118 -3.6838927
-11.095806 1.2176017 -3.1904399
-11.140857 1.0970292 -3.2286191
-11.033111 1.2990551 -3.0423367
-11.153043 1.1955624 -3.0690138
-11.142677 -0.24805251 -3.1076944
-11.189724 -0.48888838 -2.9297986
-11.131424 -0.44900757 -2.7709417
-10.903522 0.050372891 -1.6195174
-10.910357 0.050703939 -1.6993808
-10.915647 -0.68973488 -1.6226432
-10.929399 -0.76945603 -1.7027159
-10.93463 -0.7295059 -1.6999112
-10.949845 -0.48941165 -1.7409688
-10.993196 -0.81032878 -2.0548847
-10.895419 -1.0485783 -1.8373164
-10.955155 -1.0424728 -2.0964131
-10.999286 -0.49048352 -2.0138142
-10.956798 -1.064741 -2.176461
-11.098709 -1.0107501 -2.1331344
-11.244142 -1.01807 -2.4900067
-11.279006 -1.0111518 -2.3691802
-11.202027 -1.0106016 -2.3933988
-10.993845 -1.0712496 -0.90240598
-10.566166 0.14388986 0.25367594
-10.56597 0.24370916 0.29414129
-10.420162 -0.055991024 0.44945729
-10.750208 -0.41785622 0.3353411
-10.690458 -0.014219947 0.45335746
-10.775372 -0.37702787 0.1235491
-10.703983 1.2253982 0.26181638
-10.673491 1.282933 0.30139148
-11.017553 0.72858369 -1.4124736
-10.947305 0.76872647 -1.335131
-11.017106 0.68829441 -1.3514025
-10.853528 0.96884841 -1.2163318
-10.785448 0.28972089 -1.3010414
-11.134051 0.49958077 -2.8644314
-11.138048 0.57844108 -3.024946
-11.124822 0.50019771 -2.784615
-11.120883 0.49827537 -3.0647588
-9.9048109 1.1571656 3.7070901
-11.433991 -1.077639 -3.8462915
-10.281008 -1.0576776 2.8484676
-11.462564 -1.0893632 -3.3355613
-11.466918 -0.78155279 -3.4446018
-11.416892 -1.0099169 -3.0587792
-11.354504 -1.0105338 -2.7275872
-11.416862 -0.96995413 -3.0461612
-11.514829 0.48957625 -3.9363966
-11.550811 0.48522946 -4.1229815
-11.643012 0.5527662 -4.6007824
-11.595828 0.19277991 -4.3897381
-11.573654 0.39946544 -4.2545657
-11.568918 0.23271702 -4.2028069
-11.637416 -0.42192769 -4.5286746
-11.636703 -0.44950426 -4.5087934
-11.413444 -0.32616618 -4.2846861
-11.452861 0.14747813 -4.2954011
-11.434906 -0.20888752 -4.2526927
-11.433115 -0.24120986 -4.2928743
-11.473716 -0.16654482 -4.291595
-11.390975 -0.26618811 -4.2139735
-9.9865808 1.3541033 3.3842223
-9.9846849 1.3287896 3.4641011
-11.396787 1.3536339 -4.1759496
-11.403053 1.2789006 -4.4459505
-9.9069319 0.67714798 3.7053468
-9.9205332 0.71722001 3.6657808
-9.8787651 0.95833308 3.7404139
-10.167691 -1.1429276 2.5254385
-10.085623 -1.1402113 2.6161017
-10.127666 -1.1476256 2.5245054
-11.470263 -1.1033512 -3.685518
-11.43734 0.42064464 -3.4974711
-11.39549 0.53175282 -3.3791351
-11.269868 0.53368288 -3.5819192
-11.112999 0.53943527 -3.2652731
-11.112765 0.53700638 -3.2552583
-11.238029 -0.89146918 -2.1796992
-11.19313 -0.73198861 -1.9151715
-11.319222 -0.25030178 -2.7261746
-11.334396 -0.36527729 -2.7661791
-11.328132 -0.049991086 -2.845427
-11.523681 0.0096593499 -3.912792
-11.423947 -0.54438627 -3.244823
-11.388086 -0.36976516 -3.0450664
-11.379016 -0.56975669 -3.030843
-11.440589 0.51728809 -3.6181178
-11.382509 0.57378095 -3.4597349
-11.357649 0.59394348 -3.4604163
-11.396321 0.52646911 -3.4190898
-11.349542 0.5490014 -3.1001799
-11.35189 0.57579017 -3.200345
-11.37828 0.67407137 -4.4871707
-11.363807 0.67406058 -4.4075041
-11.47949 0.44101852 -4.4848981
-11.464976 0.43350783 -4.4052396
-11.470871 0.23356244 -4.4853153
-11.498659 1.144953 -4.2614822
-11.360812 1.3139069 -4.2468996
-11.536054 0.52832407 -4.0962534
-11.467499 -0.54417413 -3.4038923
-11.435177 -0.56793761 -4.4891539
-11.261521 0.13234754 -3.7793014
-11.280767 0.14999989 -3.7389998
-11.280517 0.11250168 -3.738739
-11.269552 -0.24756679 -3.5274732
-11.254468 0.57239199 -3.7825787
-11.271856 0.41116565 -3.9410987
-11.623075 -0.4096356 -4.4489517
-11.593739 -0.39721915 -4.3695936
-11.599608 -0.40960455 -4.4095111
-11.34346 -0.84779906 -4.1382022
-11.343938 -0.88864082 -4.137516
-11.336406 -1.0064209 -4.0483088
-11.316325 -1.0466138 -3.9438462
-11.25829 1.2118032 -4.2271495
-11.363901 1.1540667 -4.4070292
-11.325569 0.050450478 -3.9898884
-11.432401 -0.20652556 -4.203898
-11.321306 -0.20666316 -3.9313037
-11.605274 0.59283757 -4.4816394
-11.599411 0.5928303 -4.4467735
-11.375533 0.99400133 -4.406899
-11.349178 1.0881525 -4.3043246
-11.393062 0.91403919 -4.5265813
-9.7786694 1.1194742 3.6188471
-9.8928299 1.3584558 3.3925064
-9.9456434 1.3417063 3.4232953
-9.8948784 1.3937716 3.3076618
-9.9093475 1.3775942 3.2626102
-9.9307032 1.3636568 2.8890913
-9.9998407 1.3409162 2.8105719
-10.190241 1.3566592 2.1100183
-10.010438 1.2950219 2.330533
-10.199288 1.3564039 2.1502435
-10.225315 1.3549353 2.4234333
-9.9801588 0.91845763 3.5499098
-9.9789162 0.75842309 3.5592558
-9.9651928 0.63742036 3.5439203
-9.9901323 0.63725907 3.5469601
-9.8859558 0.79786509 3.5528066
-10.808363 1.1672891 -0.81884813
-10.749357 1.1269485 -0.65784478
-10.597774 1.2480673 -0.66076952
-10.459411 0.84430683 0.33571768
-10.619004 1.0028176 0.40638065
-10.583323 0.60301477 0.41622543
-10.416018 0.62424773 0.41248012
-10.416389 0.604352 0.38989103
-10.41758 0.80481112 0.29331386
-10.400876 0.60435897 0.41204083
-10.415363 0.53425115 0.41205108
-10.622215 0.047487188 -0.58570904
-10.610029 -0.093195036 -0.42659229
-10.622072 0.027480908 -0.5858041
-10.454062 1.1990976 1.1627958
-10.628843 1.2805715 0.56713486
-10.20829 1.2821931 1.4299157
-10.568153 1.2079034 -0.58161283
-10.337466 1.3265746 0.57395017
-10.516046 1.1668683 -0.28541744
-10.562938 1.1779414 -0.5818705
-10.579826 0.96800441 -0.62245917
-10.559802 0.92768651 -0.52557802
-10.343603 1.3066521 0.79305077
-10.370175 1.2863377 1.3537524
-10.377891 1.3202492 1.0389965
-10.378246 1.3203164 1.0240009
-10.545382 1.2979938 0.71777678
-10.446877 1.3219881 0.55550063
-10.381165 1.3320155 0.41493535
-10.783912 0.78876555 -1.6188682
-10.827548 0.61196637 -1.8337377
-10.829092 0.74853188 -1.8725426
-10.708829 0.56952691 -1.1414707
-10.730106 0.4492968 -1.1265309
-10.937136 0.76876563 -1.3278624
-10.726342 1.1690258 -1.0582888
-10.849145 1.0883104 -1.0958502
-11.019004 0.72861475 -1.4211924
-11.018001 0.40889135 -1.480202
-10.979917 0.52938831 -1.5255346
-10.90873 -0.51502091 -0.50169343
-10.751633 0.0059538856 -0.4628945
-10.907811 -0.51520485 -0.46170443
-10.98841 1.2758086 -2.8330853
-11.031704 1.2995164 -2.9773538
-11.151412 1.2111295 -2.9891391
-11.122371 1.3379841 -3.1106992
-10.762115 1.1263896 -0.56002778
-10.750938 1.1267462 -0.61779851
-10.807006 1.1145957 -0.77661014
-10.648927 1.1211419 -0.86023283
-10.647785 0.92921942 -0.98117459
-10.724276 0.84960812 -1.1798383
-10.785036 0.80782491 -0.89855862
-10.762981 1.0641564 -0.61780983
-10.713827 0.14574739 -0.6231634
-10.722252 0.14712605 -0.66297442
-10.717693 0.33447886 -0.62220663
-10.756516 0.046872053 -0.66264856
-11.022298 0.20797458 -1.295977
-11.034361 0.14787774 -1.2959762
-10.75929 0.04992377 -0.7826035
-10.742178 0.44756302 -0.78116763
-10.647496 0.48826125 -0.7831552
-10.666445 0.28716502 -0.58359057
-10.770871 -0.24980566 -1.3838797
-10.771034 -0.22730651 -1.3837724
-11.325839 -1.0283393 -2.5682371
-11.34661 -0.93060434 -2.6875219
-11.239132 -0.7314586 -2.1842132
-11.246782 -1.022723 -2.6099916
-10.928585 -1.052315 -1.1038723
-10.917487 -1.0774243 -1.0642319
-11.007121 -1.0111766 -1.4619771
-10.738495 -0.97625291 0.012416244
-10.817057 -0.98856914 -0.14587939
-10.751538 -0.93577635 -0.10713065
-10.906302 -1.1021307 -0.5844717
-10.866223 -1.1143355 -0.58544844
-10.86896 -1.1162837 -0.70542723
-10.782499 -1.1244817 -0.42737466
-11.308118 -1.0876462 -3.5865581
-11.269505 -1.0897151 -3.6499395
-11.226061 -1.0724276 -3.4908171
-11.227551 -1.0472548 -3.5507262
-10.18043 -1.1455814 1.9655683
-10.040667 -1.1108636 2.8427598
-10.14324 -0.73831642 2.0864584
-10.173185 -1.1394223 2.2855144
-10.131353 -1.1419554 2.3645706
-10.132513 -1.139246 2.314595
-9.8535042 -0.020929791 3.5754368
-9.8141594 0.23921254 3.621156
-9.853878 -0.095820665 3.5352347
-9.8920269 -0.37607867 3.5353115
-9.9067602 -0.41617715 3.5355237
-10.003819 -0.37774149 3.5379274
-10.166853 -1.1330956 2.5654714
-10.291307 -1.1431633 2.368216
-10.252306 -1.1326941 2.327359
-10.327775 -1.1266363 2.5291603
-10.325218 -0.942366 2.7024205
-10.168641 -1.1377603 2.4854712
-10.535187 -1.1393646 1.653605
-10.458673 -1.1280313 2.0520134
-10.461431 -1.1250286 1.9320567
-10.485935 -1.0998642 1.8527
-10.324064 -0.98252153 2.7397358
-10.32307 -1.0625918 2.7568824
-9.9915447 -0.019949041 2.7261789
-9.9924641 -0.017276675 2.6861851
-9.9922304 0.020127647 2.708843
-10.003263 0.31718573 3.5435503
-10.082895 0.27668193 3.5501235
-9.8525867 -0.028536752 3.6154063
-9.8520908 -0.37580657 3.531945
-9.9092865 -0.016525738 3.656678
-9.9316216 -0.43634248 3.5360086
-9.8917637 -0.41607761 3.5351985
-10.28553 -0.54257137 2.8207219
-9.8848953 0.55793667 3.534385
-9.9096775 0.15728045 3.6634586
-9.9074173 0.19729458 3.6635587
-9.8556194 0.45146605 3.6178892
-9.815486 0.31935763 3.5839908
-9.8166494 0.39947322 3.5543239
-9.814332 0.2492319 3.6161978
-9.9083776 0.35729033 3.6641762
-9.8938923 0.31855282 3.6582062
-10.042914 0.26943454 3.5467308
-11.288239 -0.57065785 -2.5477459
-11.270125 -0.57096863 -2.4081151
-11.199379 -0.61161697 -2.0497181
-10.78072 0.72821605 -1.4991874
-10.760245 0.57048303 -1.4203615
-10.729695 0.092240207 -1.2232084
-10.897462 0.030219499 -1.5797383
-10.160087 -0.902165 2.9388845
-10.087327 -0.78472847 3.2506993
-10.138313 -0.89768004 3.2913773
-10.139139 -0.70863384 2.1665108
-10.140754 -0.69835144 2.0990727
-10.145125 -0.69850439 2.1266792
-10.144135 -0.61832094 2.0869818
-11.290729 -0.68649381 -3.928371
-11.317634 -0.64677531 -3.8901477
-11.320375 -0.68740666 -3.6876533
-10.623991 -0.052534461 -0.58612812
-10.614785 -0.25304183 -0.46722925
-10.642501 0.52823907 -0.77058268
-10.665991 0.028492257 -0.86486685
-10.636835 0.047820471 -0.67789686
-10.661026 0.067957334 -0.74476671
-10.716199 0.36870673 -0.98218155
-10.728729 0.40804291 -0.86168003
-10.736518 0.44798613 -0.8613174
-10.615947 0.28639284 -0.34468865
-10.613157 0.24641278 -0.34493667
-10.620235 0.027113028 -0.50582623
-10.616237 -0.053049445 -0.46627593
-10.724 -0.3132962 -1.105172
-10.827081 -1.1238567 -0.62640226
-10.904392 -1.1124982 -0.50454146
-10.946545 -1.0674267 -0.58338773
-10.824362 -1.1194086 -0.50641155
-10.955204 0.026596658 -2.0247281
-10.991098 -0.17079118 -1.893042
-10.969629 -0.20898101 -1.8592571
-10.950974 0.027180932 -1.9448031
-10.910559 -1.0677999 -1.8974296
-10.95522 -1.0499581 -2.1014347
-11.002757 -0.28985846 -2.2257099
-11.031279 0.14359394 -2.3840048
-11.044422 0.031544201 -2.7714896
-11.097857 0.22121006 -2.6631868
-11.08753 0.3015556 -2.6239705
-11.11262 0.3005566 -2.7434514
-11.135212 0.29957393 -2.8629861
-11.110059 0.4208512 -2.7043507
-11.055059 0.018735014 -2.6912696
-11.00397 -0.12983343 -2.2352226
-11.07809 1.1693828 -3.3105121
-11.22579 0.81508332 -3.4248302
-11.122552 0.61798567 -3.105583
-11.239955 0.93471187 -3.4653833
-11.21656 0.81570029 -3.3450139
-11.130091 1.096543 -3.3088691
-11.03386 1.3138413 -3.0724332
-11.192104 1.1780678 -3.0305345
-10.983848 1.2422301 -2.632894
-10.942161 1.2480593 -2.5538173
-10.982133 1.2452979 -2.5529325
-10.11786 1.2783267 1.8678799
-11.138144 -1.0604677 -3.1326504
-11.093904 -1.0282962 -2.9334924
-11.134892 -1.0109315 -2.9725394
-11.252204 -0.68843412 -3.2090542
-10.934006 -0.69717956 -1.6622666
-10.996381 -0.25071937 -1.9281641
-11.090684 -0.64409596 -1.4983801
-11.093715 -0.22661182 -1.49639
-11.104045 -0.6515038 -1.5381181
-11.061752 -0.37156928 -1.45778
-11.020544 -0.65317702 -1.0599132
-10.910277 -1.0503509 -1.879881
-10.994866 -0.80046034 -2.0148089
-11.03071 -0.6903196 -2.1337221
-11.198917 -1.0010138 -2.2509046
-11.287678 -1.0203578 -2.6490839
-10.997054 -1.0082002 -1.0220749
-11.043152 -0.92489433 -1.2606982
-10.619269 0.52618134 -0.30349839
-10.617352 0.6061967 -0.30317438
-10.799793 0.62637848 -0.61897808
-10.619039 0.60809135 -0.70323586
-10.574967 0.32383481 0.25470567
-10.582384 0.40416282 0.17522371
-10.579013 0.2841858 0.1745944
-10.594556 0.324644 0.055104852
-10.583059 0.24453677 0.094483137
-10.6844 0.14473507 -0.10370231
-10.684253 0.12474287 -0.10379791
-10.764587 0.24300858 0.13865674
-10.704225 0.32688728 -0.58254004
-10.663551 1.2830181 0.2986629
-10.65825 1.0423145 0.45247614
-10.419455 0.88454825 0.34623802
-10.377785 1.1191556 0.4939003
-10.378281 1.1242474 0.47392964
-10.420377 0.9721024 0.33415866
-10.611177 0.60547942 -0.14327598
-10.614645 0.36289945 0.3908335
-10.616908 0.28295305 0.37551367
-11.200645 1.2554374 -3.4009941
-10.854446 0.96903235 -1.2563207
-10.928229 0.76905775 -1.3755785
-10.95916 -0.59310526 -0.98102498
-10.959706 -0.57302552 -0.99842477
-10.801072 0.24979588 -1.3408771
-10.789156 0.32988492 -1.3407824
-11.138515 0.41955188 -2.8637667
-11.120616 0.45827729 -3.0644805
-11.143576 0.29924095 -2.902813
-11.12292 0.459932 -2.8243806
-11.141344 0.54133952 -2.7845497
-11.146878 0.41921887 -2.9035935
-11.146924 0.37831426 -3.0333354
-11.109361 0.49803764 -3.110018
-10.986495 1.2488778 -2.7529149
-10.985629 1.2491618 -2.7129254
-11.190937 0.85776365 -3.073297
-11.35495 -1.0695227 -3.8880384
-11.484203 0.41061175 -3.8164678
-11.484953 0.53062379 -3.8148031
-11.454514 0.57024872 -3.8982646
-11.638688 0.15268633 -4.5137563
-11.483027 0.3534534 -4.4448843
-11.598258 0.58528614 -4.4017959
-11.416989 0.23345266 -4.1265373
-11.333122 0.57159454 -4.1809735
-11.319743 0.56946033 -4.1412377
-11.509116 -0.04900831 -4.3702998
-11.479909 -0.76737654 -4.0244169
-11.557057 -0.86566406 -3.9229577
-11.480292 -0.77731848 -4.0444422
-11.481123 -0.52707767 -4.1237197
-11.556383 -0.83078051 -3.8828619
-11.568248 -0.3521359 -4.2813139
-11.467661 -0.56675154 -4.2041545
-11.567028 -0.32860589 -4.2493544
-11.59628 -0.32441115 -4.4492726
-11.488055 -0.0094870403 -4.2106109
-11.456033 -0.16655174 -4.2432661
-9.9856167 1.3389465 3.4241512
-11.324095 1.2843741 -4.4879093
-11.323133 1.2893348 -4.447916
-11.280181 1.2894338 -4.3289413
-9.9066916 0.63714904 3.7051923
-9.8857164 0.75786614 3.5526521
-10.296615 -1.164657 2.1281826
-10.264952 -1.1478474 1.7674341
-11.149397 0.65058827 -3.065223
-11.071133 0.22194146 -2.5837498
-11.046429 0.15068498 -2.4910302
-11.048274 0.18292603 -2.4639368
-11.134956 -0.68596929 -1.6976101
-11.132648 -0.75133467 -1.6179421
-11.178347 -0.72302669 -1.8568276
-11.15013 -0.69715822 -1.7709922
-11.206793 -1.0224726 -2.6108813
-11.335367 -0.37014708 -2.8111827
-11.302197 -0.29043818 -2.6466498
-11.361447 0.2167031 -3.0575526
-11.343559 0.41737592 -2.9793439
-11.521292 0.03189113 -3.8611438
-11.383163 -0.16954964 -3.1046121
-11.377444 -0.58994412 -2.9659202
-11.37513 -0.82005417 -2.9266272
-11.41999 -0.75222808 -3.1254821
-11.379046 -0.60971963 -3.0434611
-11.379086 -0.6122123 -3.0459681
-11.418884 -0.84979075 -3.1032832
-11.418247 -0.88984036 -3.0859087
-11.375389 -0.84999561 -2.946713
-11.42149 -0.68958509 -3.1752799
-11.288829 -0.24744511 -3.6070635
-11.29447 -0.2873598 -3.6470635
-11.285192 -0.2875441 -3.5672505
-11.334187 -0.12675779 -3.9257846
-11.439556 0.49257326 -3.5779545
-11.382416 0.79409534 -4.5269623
-11.401667 0.65648884 -4.5266218
-11.372293 0.67405921 -4.4473062
-11.538084 1.1899734 -4.2209387
-11.499525 1.1446691 -4.3014722
-11.355429 1.3288022 -4.1269813
-11.252316 1.2262903 -3.9473097
-11.24783 0.49118331 -3.9621921
-11.332361 0.67405248 -4.2482324
-11.516557 -0.37338808 -3.7623961
-11.516253 -0.36843157 -3.7473848
-11.516754 -0.36836654 -3.7698791
-11.515984 -0.7531476 -3.8435271
-11.468451 -0.53405881 -3.4438519
-11.469172 -0.56144249 -3.4839251
-11.468157 -0.58155763 -3.443996
-11.510046 -0.76890606 -3.5811391
-11.469484 -0.52892882 -3.4888253
-11.469732 -0.48892981 -3.4887042
-11.52483 1.2483282 -4.522995
-11.464856 -0.68849361 -4.4138775
-11.470735 -0.64886862 -4.3335557
-11.494623 -0.64841235 -4.493021
-11.221167 1.0162259 -3.2663174
-11.282089 1.0572189 -3.0652382
-11.214499 0.89654833 -3.2256017
-11.29265 0.89742869 -3.0238647
-11.365443 0.79409808 -4.4473577
-11.243338 0.1363149 -3.927047
-11.512551 -0.76858085 -3.6936107
-11.475503 -1.0477166 -3.9052954
-11.516296 -1.0078957 -3.9292781
-11.471844 -0.52726197 -4.0439072
-11.345786 -0.84635609 -4.0876474
-11.355012 -0.80823982 -4.2569699
-11.336578 -1.0060583 -4.168334
-11.36531 -0.80623537 -4.1671166
-11.351352 -0.92590737 -4.2477932
-11.33864 1.0883955 -4.2795482
-11.364584 1.1941978 -4.5270095
-11.430404 0.16845983 -4.1760054
-11.442997 0.16754256 -4.2957573
-11.386336 0.87411988 -4.5667987
-9.8116474 1.1195856 3.5395434
-9.9365387 1.383827 3.2285073
-10.192918 1.3566738 2.1025796
-10.354826 1.2609683 1.9934597
-9.8201313 0.95943701 3.5616033
-9.8211174 1.0794728 3.5520942
-9.9262943 0.83763951 3.5488265
-9.8863821 0.87785363 3.5556142
-10.599828 1.3257648 -0.18023419
-10.613872 1.2860422 -0.2601161
-10.691092 1.284901 -0.13831496
-10.757601 0.82842964 -0.45897418
-10.530964 1.2051262 0.057694435
-10.53909 1.1652564 0.017686844
-10.546844 1.1657714 -0.10216534
-10.282573 1.2805097 1.6717403
-10.2007 1.2807579 1.7498217
-10.320682 1.2823473 1.7526758
-10.238827 1.2850955 1.8307691
-10.138103 1.314232 2.7137659
-10.100094 1.3099169 2.62782
-10.097699 1.3144569 2.7303135
-10.056704 1.3145698 2.7718537
-10.018165 1.3026652 2.7058666
-9.8870478 0.99784112 3.5585768
-9.9989281 1.3407824 2.8505609
-10.01558 1.3371257 2.8259947
-10.055511 1.3293226 2.8269074
-10.046209 0.83690089 3.5539186
-10.842309 1.0879793 -1.015987
-10.836682 1.1278307 -0.97592199
-10.597635 0.40462255 0.055543542
-10.539689 1.2969174 0.95770621
-10.616212 1.2893295 0.62019241
-10.658767 1.1372764 0.46042681
-10.30261 1.2992765 0.83205652
-10.598029 1.2486374 -0.78079367
-10.348137 1.1527345 0.55239832
-10.35946 1.1224616 0.59254277
-10.422443 0.92508703 0.22896123
-10.250157 1.2797484 1.3508749
-10.211043 1.2702317 1.3098927
-10.255906 1.2883246 1.1109803
-10.515009 1.1267204 -0.25311708
-10.572281 1.0878712 -0.58207017
-10.386475 1.3118865 0.67405677
-10.372036 1.2816967 1.2737525
-10.411056 1.2787139 1.3146765
-10.428731 1.3219975 0.58257806
-10.377437 1.3237799 0.57485533
-10.535389 1.2997345 0.65839469
-10.508279 1.3038353 0.59688771
-10.617167 1.2945132 0.58022726
-10.617672 1.2836407 0.50016713
-10.783443 0.81113821 -1.5912685
-10.783608 0.73129076 -1.6241409
-10.826978 0.65179241 -1.7960575
-10.851759 0.63347483 -1.1378934
-10.812485 0.85857695 -1.0977491
-10.767056 0.48833385 -0.98046303
-10.767282 0.44843885 -1.0031476
-10.784246 0.60744625 -0.81947672
-10.774843 0.5282771 -0.98010039
-10.851396 0.58347672 -1.1381317
-10.694626 1.1494498 -1.0991184
-10.811926 1.1605136 -0.97634029
-10.80315 0.81093347 -1.5783135
-10.824175 0.77105206 -1.6355296
-11.008533 -0.56406152 -1.3798662
-11.046305 -0.65165049 -1.4194124
-11.009884 -0.65271705 -1.1401776
-10.909044 -0.5349282 -0.52178323
-10.912422 -0.51178527 -0.66163731
-10.754389 0.006505698 -0.5828613
-10.755854 0.026769347 -0.64025009
-11.114764 1.3380686 -3.1058633
-11.009438 1.3003926 -2.8728149
-10.89781 1.2447408 -2.3547022
-10.941278 1.2458434 -2.5138104
-10.646134 0.72866833 -0.86460304
-10.724358 0.76922488 -1.1001844
-10.807104 1.0474753 -0.85693836
-10.764566 0.92717898 -0.73093414
-10.807381 1.0872117 -0.80173433
-10.765937 0.84757292 -0.81629199
-10.765312 0.87989926 -0.77864748
-10.781951 0.81083935 -1.5262865
-10.714151 0.64891684 -1.0209504
-10.76565 0.8000862 -0.81901771
-10.815879 -0.051469117 -1.1018572
-10.883971 -0.31197482 -1.1014915
-11.054112 -0.012079552 -1.3362691
-10.885107 -0.28179201 -1.1413374
-10.824005 -0.091338903 -1.1418649
-10.748412 -0.21021166 -1.2641807
-10.727742 -0.050438315 -1.1838987
-10.759591 -0.034889057 -0.82299763
-10.805659 0.028440557 -1.0667149
-10.762399 0.028079905 -0.92517138
-10.805541 -0.011523433 -1.0744034
-10.688883 0.048903037 -0.98428011
-10.685614 0.068729714 -0.94425285
-10.72048 0.32754821 -0.74595821
-10.709817 0.24760766 -0.74281985
-10.719476 0.32734701 -0.70222032
-10.718557 0.32716307 -0.66223133
-10.766698 0.3285009 -1.016216
-10.877409 -1.0896292 -1.0652086
-10.898965 -1.0924788 -1.0247157
-10.839063 -0.77146035 -1.1446476
-10.712917 -1.0818707 -0.86889672
-10.783762 -0.49257421 -0.82454777
-10.801014 -0.46924746 -1.0240986
-10.790803 -1.1178265 -0.78725135
-10.750005 -1.1027163 -0.74810809
-10.730083 -1.0925694 -0.748519
-10.691369 -0.17131642 -0.94522488
-10.693031 -0.25190201 -0.82552475
-11.298009 -1.0764689 -3.1291363
-11.216364 -1.0487074 -3.0483537
-11.008867 -1.0233083 -1.5420146
-10.788965 -1.1181943 -0.70727348
-10.787092 -1.123562 -0.6273194
-10.830754 -1.1231209 -0.78635806
-10.667291 -1.100179 -0.62996364
-10.813597 -0.49697763 0.053856254
-10.771377 -0.41724938 0.17578661
-10.769233 -0.67780972 0.2945714
-10.758753 -0.61792225 0.33461702
-10.596666 -1.0182782 1.3004205
-10.599127 -0.82559699 1.2562721
-10.549863 -1.0916256 1.5741186
-10.71363 -0.77530378 -0.14727414
-10.785219 -1.1289297 -0.54736537
-10.746258 -1.1134517 -0.58819997
-10.57376 -1.1347556 -0.052113175
-11.422352 -1.0891417 -3.3264537
-11.303259 -1.0907749 -3.3691208
-10.463218 -1.1296933 1.8520565
-10.124201 -1.1232967 2.6845715
-10.04333 -1.1203605 2.7227485
-10.299502 -1.144155 2.0083025
-10.218668 -1.1362189 2.0465016
-9.8543739 -0.13572584 3.5001304
-9.9281998 -0.64376539 3.247884
-9.9131289 -0.65617448 3.2475288
-10.324647 -0.93498147 2.7299459
-10.29045 -1.1358312 2.4082377
-10.289594 -1.128499 2.4482596
-10.130404 -1.1471227 2.4045379
-10.416804 -1.1355641 2.1310477
-10.146336 -0.65833831 2.0868645
-10.390411 -1.1452481 1.5302441
-10.310416 -1.147144 1.5284104
-10.473108 -1.1478491 1.4120884
-10.429506 -1.1432177 1.5711555
-10.469075 -1.1386036 1.5920832
-10.355023 -1.1391083 1.3294086
-10.393187 -1.1397455 1.4102983
-10.347723 -1.1404489 1.649322
-10.348654 -1.1377815 1.6093438
-10.505293 -1.0984061 1.7718761
-10.506839 -1.1318249 1.6930003
-10.504436 -1.0873293 1.813164
-10.322771 -1.1025903 2.7567079
-10.0044 -0.29772636 3.5332129
-9.9644613 -0.29747614 3.5298851
-10.003024 0.27718678 3.5433962
-9.9640474 0.43743497 3.5406497
-9.9366331 0.35874391 3.5442636
-9.9327049 -0.29632607 3.5289056
-9.9066982 0.077297755 3.6630962
-9.8984222 -0.057501048 3.6493657
-9.9730034 -0.21662039 3.5399959
-9.9314899 -0.45634198 3.5359523
-10.112701 0.23650996 3.5481184
-9.8169699 0.55934072 3.5874674
-9.8549328 0.20913048 3.5769112
-9.8555984 0.27916774 3.5671985
-11.00024 -0.50750494 -2.1738822
-11.23811 -0.85149181 -2.1720798
-11.268248 -0.21083042 -2.4471254
-11.260107 -0.17090008 -2.4071813
-10.721778 0.44866684 -0.98168552
-10.728678 0.52889138 -1.0386738
-10.773735 0.050327938 -1.4124416
-10.765406 0.030238945 -1.3827169
-10.312298 -1.139309 1.4484649
-10.187618 -0.45725065 1.7685637
-10.126959 -0.84496862 3.2513139
-10.287241 -0.54225713 2.7457421
-10.286614 -0.54986161 2.7707026
-10.287 -0.58224517 2.7430685
-10.047676 -0.81998426 2.6315818
-10.042492 -1.1105285 2.7627814
-10.043658 -0.90060967 2.7811925
-10.137538 -0.67897016 2.2466199
-10.089827 -0.66011423 2.5907025
-9.8840027 -0.37699082 3.5279443
-10.00498 -0.61559141 2.9295022
-9.9280357 -0.67126471 3.2477863
-10.015022 -0.60815203 2.9297359
-10.048976 -0.24056131 2.7665756
-10.636693 0.027814187 -0.67799193
-10.678001 0.088221006 -0.82430559
-10.664492 -0.051688641 -0.82525927
-10.616961 0.046953786 -0.46579951
-10.68076 -1.0925874 -0.66963023
-10.748003 -0.61260009 -0.50333345
-10.662237 -0.29281998 -0.58635497
-10.632735 -0.22510156 -0.58672106
-10.644951 -0.17230934 -0.66621941
-10.629375 -0.29317379 -0.46207732
-10.947409 -1.0747424 -0.62341243
-10.992908 -1.0739335 -0.8624289
-10.912732 -1.1008431 -0.86439431
-10.946804 0.030095082 -2.0934975
-11.074661 -0.24974 -2.4115393
-11.002509 -0.3298575 -2.225831
-11.104477 -0.44944483 -2.5714929
-11.075939 -1.0489112 -2.693892
-11.128533 -1.0317403 -2.6926711
-11.091387 -1.0036438 -2.8134472
-11.04648 -1.0789696 -2.6146152
-10.938581 1.231696 -2.3937373
-10.896062 1.2428089 -2.2747056
-10.940396 1.2436274 -2.4738033
-10.843342 0.58833492 -1.8861005
-10.843877 0.66833115 -1.886657
-11.079434 0.3418867 -2.5844219
-11.084701 0.38185209 -2.5845916
-11.172182 -0.36956459 -2.6697791
-11.174019 -0.36932614 -2.7522583
-11.009929 0.050790891 -2.452122
-11.076838 1.2173953 -3.2383614
-11.120944 1.2082675 -3.4298913
-11.158774 1.0959728 -3.3632584
-11.238384 0.81416601 -3.5445819
-11.259717 1.0140257 -3.5455394
-11.263207 0.77316892 -3.6637845
-11.259905 0.65319097 -3.6630039
-11.207332 0.8163172 -3.2651973
-11.210964 0.85601503 -3.3054109
-11.211026 0.73573679 -3.3445656
-11.112119 1.2587646 -3.0078323
-11.128357 0.54073107 -2.7048059
-11.18014 0.54061848 -2.6711757
-11.182816 0.57982683 -2.7826748
-10.984714 1.2419461 -2.6728837
-9.9363108 1.3054134 2.7839601
-10.111293 1.2870705 2.1478443
-10.19977 1.2830784 1.7898216
-10.176638 1.278627 1.7092297
-10.278759 1.2772923 1.8316815
-11.277693 -0.60859257 -3.2082558
-11.274302 -0.60869259 -3.1683216
-11.1361 -0.20757896 -3.2502596
-11.267372 -0.68816555 -3.3287458
-10.895169 -1.043636 -1.8247961
-10.893295 -1.0490036 -1.7448419
-10.894341 -1.0313203 -1.7847475
-10.890576 -1.0445557 -1.6248513
-10.93098 -0.76965839 -1.6626695
-10.946718 -0.4495787 -1.7008466
-10.956877 -0.20945916 -1.7395196
-10.981383 -0.52926326 -1.8204496
-10.96395 -0.49098945 -1.7745425
-10.980093 -0.48906243 -1.8603052
-10.92307 -0.4347648 -1.1011583
-11.002586 -0.6251629 -1.1402185
-11.023662 -0.33051261 -2.0528185
-11.025913 -0.3705273 -2.0528841
-11.02391 -0.29051358 -2.0526974
-10.94244 -1.0502568 -1.9766889
-10.995447 -0.85034347 -2.0549502
-11.177181 -1.0708336 -3.0918009
-11.175984 -1.0485075 -3.0317481
-11.422998 -0.92987072 -3.0859187
-11.418852 -1.0796045 -3.1664641
-11.088387 -0.83427262 -1.4592967
-11.04627 -0.87434435 -1.3804266
-11.045401 -0.85205215 -1.3353319
-11.132314 -0.97107339 -1.6739756
-10.958739 -1.0300368 -1.1030772
-10.93588 0.02811455 -1.8251055
-10.946743 0.0277652 -1.8648783
-10.965343 0.30708587 -1.9464796
-10.942974 0.25122952 -1.8577526
-10.959809 0.22712237 -1.9460316
-10.827258 0.57196784 -1.8339283
-10.84175 0.52872825 -1.8306977
-10.936429 0.29089695 -1.7776986
-10.942394 0.17123257 -1.8581339
-11.040215 0.43520889 -1.7857276
-11.007699 0.25018051 -1.736238
-11.041246 0.42735431 -1.8356625
-11.023748 0.48992294 -1.7047584
-10.6339 0.48683578 -0.46338695
-10.634975 0.40587309 -0.26368022
-10.630514 0.35359585 -0.30403399
-10.618082 0.68466693 0.017290473
-10.606538 0.72437119 0.097229719
-10.637656 0.84471589 -0.021534562
-10.568808 0.16387773 0.25382841
-10.591766 0.28466395 0.054856896
-10.600486 0.16555138 -0.14554524
-10.588686 0.2046854 0.054418206
-10.835802 -0.41524488 -0.342866
-10.82055 -0.41570461 -0.22318578
-10.493225 1.2785219 1.2240987
-10.501977 1.2782105 1.2768202
-10.450838 1.2509116 1.3154957
-10.395112 1.2786484 1.3543096
-10.600863 0.038558293 1.0335355
-10.608658 0.038557451 1.0212169
-10.607103 -0.457627 1.1379642
-10.659263 0.80287546 0.33136523
-10.658916 0.76286548 0.33367395
-10.386857 1.1097534 0.59313583
-10.421004 0.88485867 0.27875674
-10.616549 0.56505781 -0.063316703
-10.615514 0.60582888 -0.22319651
-10.614514 0.68602818 -0.26286149
-10.653134 0.23499471 0.41613603
-10.628702 0.038906809 0.91416287
-10.609637 -0.17730549 0.43574667
-11.187879 1.2556078 -3.3887684
-11.162715 1.2149377 -3.5090551
-11.17031 1.214053 -3.6289153
-11.210561 1.22212 -3.8681631
-11.297562 0.89099568 -3.9439495
-11.183769 1.2128519 -3.7886567
-10.847901 1.0086998 -1.1762668
-10.957225 -0.73328388 -0.94170332
-10.87398 -0.69340885 -0.78838986
-10.982812 -0.81271076 -1.1015246
-10.998057 -0.93311107 -1.0417119
-10.814577 0.26238728 -1.3805199
-10.773392 0.097688183 -1.3822235
-11.107229 0.50114769 -2.6649718
-11.101097 0.46146625 -2.6248124
-11.098 0.50176466 -2.5851552
-11.08437 0.46213225 -2.5451586
-11.353061 -1.0872535 -3.8081117
-11.273634 -1.0101485 -2.6893771
-11.201082 -0.52908128 -2.889652
-11.166756 -0.96875155 -2.9316978
-11.13325 -0.98866332 -2.8924916
-11.449575 -0.729307 -3.3248069
-11.529759 0.48869586 -4.0485959
-11.572622 0.40732002 -4.2046309
-11.530319 0.41836199 -4.0955968
-11.502064 0.44965988 -3.9363894
-11.597623 0.46778795 -4.401927
-11.574519 0.39918146 -4.2945552
-11.318377 0.60919082 -4.1815596
-11.097135 0.50204861 -2.5451658
-10.984201 0.58266807 -1.6952374
-11.46434 -0.64947003 -4.1736655
-11.440039 -0.16770196 -4.5524983
-11.448442 -0.18150443 -4.2434783
-11.494909 -0.086672828 -4.2821794
-10.687126 -1.0970205 0.25074613
-10.814384 -1.1039326 -0.066449642
-10.622255 -0.77582818 0.69685864
-10.671844 0.022918656 0.29555786
-10.653849 0.080361433 0.33541954
-10.731422 -0.37752649 0.29508424
-10.671892 -0.096892834 0.2549969
-11.266162 -0.24766678 -3.4875391
-11.182447 -1.0826395 -3.3317778
-11.271951 -0.72855836 -3.2087305
-11.39357 0.37454429 -3.3380499
-11.431737 0.13855967 -3.4027145
-11.428043 -0.31404495 -3.3640957
-11.407313 -0.28903601 -3.324475
-11.143617 0.77784729 -3.106262
-11.076086 -0.37129349 -1.5374713
-11.051593 -0.25170711 -1.4124498
-11.207714 -1.0173571 -2.650856
-11.29316 -0.13537933 -2.6464026
-11.347784 0.49696532 -3.0348318
-11.305509 0.59318072 -2.9013953
-11.201255 -0.52871877 -3.0096772
-11.275168 -0.72882092 -3.1286397
-11.515836 -0.34600437 -3.7223229
-11.459896 -0.32863864 -3.5634785
-11.474267 -0.31348601 -3.6431346
-11.144539 0.29812145 -3.0628254
-11.378894 -0.40990514 -2.980371
-11.419608 -0.84969682 -3.1357749
-11.374177 -0.83016956 -2.8866675
-11.386552 -0.26902691 -3.2848694
-11.174424 -0.3667756 -2.7697463
-11.27106 -0.72867399 -3.1687407
-11.317552 -0.24711743 -3.7739649
-11.336712 -0.42242903 -2.8863227
-11.403657 0.65906751 -4.6065946
-11.484482 0.35362434 -4.604897
-11.488798 0.31346619 -4.4847932
-11.454626 1.1891323 -4.0626979
-11.355107 0.91411114 -4.4074826
-11.430447 0.22842422 -4.1662221
-11.468594 -0.52904445 -3.4488356
-11.39362 1.1141284 -4.6063948
-11.480413 -0.56911051 -4.2929978
-11.356832 0.67400903 -4.327652
-11.333515 -0.7273683 -3.7274864
-11.514221 -0.76836407 -3.7685916
-11.556949 -0.92812645 -3.9356439
-11.472982 -0.48714733 -4.0837755
-11.467488 -0.56711406 -4.0841293
-11.352145 -0.8865177 -4.0476117
-11.350957 -0.84602487 -4.207561
-11.464533 -0.81213939 -4.1342816
-11.385656 1.1140375 -4.4865551
-11.291824 0.15363275 -3.9659271
-9.8222122 1.1995282 3.5375865
-9.9616222 1.3986746 3.2291052
-9.8868618 0.95785153 3.5559232
-9.9791727 0.79842186 3.5594189
-10.591412 1.3256361 -0.14041722
-10.594141 1.3256637 -0.15035713
-10.509523 1.3502864 0.057869673
-10.553052 1.2059169 -0.14184904
-10.573559 1.20691 -0.38143879
-10.684663 1.2836136 0.14160776
-10.704222 1.2029794 0.24421394
-10.703198 1.1630937 0.22150087
-9.8876352 1.0778576 3.5538867
-10.355794 1.2636476 1.9534831
-10.316849 1.2766299 1.9126055
-10.318272 1.2768991 1.8526232
-10.147597 1.3010489 2.3088148
-10.261773 1.2865626 2.5515285
-10.056385 1.3195024 2.7868726
-10.598879 0.48423323 0.1359601
-10.451741 1.1991502 1.1552386
-10.421605 1.2956867 0.87487555
-10.256858 1.2810154 1.0684578
-10.420732 1.3055069 0.91491055
-10.676781 1.0823336 0.42057705
-10.257804 1.2886833 1.0310037
-10.299746 1.2962383 0.95200968
-10.340719 1.3011141 0.91299224
-10.576571 1.2080321 -0.6214298
-10.349445 1.3277277 0.55321455
-10.515238 1.1267664 -0.26311433
-10.565784 1.007727 -0.54257721
-10.331566 1.3223034 0.67280078
-10.335538 1.3137071 0.65386844
-10.345538 1.3120106 0.71309757
-10.330132 1.2791415 1.3527699
-10.576278 1.2971238 0.61931098
-10.548247 1.3010318 0.59782362
-10.507311 1.3011559 0.6368643
-10.380192 1.3243318 0.45488846
-10.421329 1.3242671 0.40581954
-10.421302 1.0995976 0.33476639
-10.781784 0.7483992 -1.539081
-10.828129 0.69196332 -1.8333564
-10.826572 0.61177093 -1.7912494
-10.829535 0.88883322 -1.1772401
-10.848854 1.0483119 -1.096041
-10.8739 -0.68843204 -0.7833674
-10.755917 -0.035624802 -0.66304183
-10.715126 0.10679653 -0.58330184
-11.026518 1.2536161 -2.7520823
-10.613911 0.80832291 -0.74244344
-10.623488 0.96844554 -0.78149778
-10.601385 0.76794976 -0.64539039
-10.652865 0.84879935 -0.90140605
-10.733819 0.7870369 -1.179907
-10.734683 0.77972108 -1.2199316
-10.766629 0.88765186 -0.83359647
-10.815514 1.1272238 -0.81636751
-10.736093 1.1253299 -0.29805887
-10.718568 0.96984273 -1.2194272
-10.780738 0.73071593 -1.4991754
-10.809015 0.63321763 -1.0188438
-10.717278 0.60908389 -1.0610728
-10.706316 0.7287851 -0.98075211
-10.61683 0.64810824 -0.70310253
-10.927836 -0.29152295 -1.2629341
-10.81367 -0.01145222 -1.1017239
-10.735997 -0.29050285 -1.1848134
-10.72339 -0.27098176 -1.0649805
-10.8659 -0.41336888 -0.78228587
-10.805017 -0.091508895 -1.0772841
-10.879716 -0.39270753 -0.94191694
-10.899566 -0.41285408 -0.94155371
-10.758673 -0.035072997 -0.78300864
-10.843697 -0.37320465 -0.78261107
-10.762045 0.050475586 -0.90257025
-10.708527 0.28780848 -0.78267545
-10.718442 0.36811808 -0.86210001
-10.680198 0.20744386 -0.66366321
-10.718099 0.3270711 -0.64223689
-10.723022 0.1273178 -0.70305896
-10.723567 0.38558057 -0.861902
-10.736551 0.10797361 -0.86288047
-10.721846 0.14808257 -0.86303377
-10.72278 0.15077347 -0.90301108
-10.819501 -1.090749 -1.2665983
-10.878382 -1.0819455 -1.1051618
-10.761552 -0.39645556 -1.0246702
-10.762543 -0.38627201 -1.0646116
-10.721244 -0.31384802 -0.98520517
-10.833187 -0.69327521 -0.75431669
-10.707442 -1.0779744 -0.62893927
-10.804769 -1.0101863 -1.3615921
-10.84776 -1.0548124 -1.5058492
-10.823465 -1.0500149 -1.4263635
-10.759262 -1.0908773 -1.1479499
-10.802315 -1.0481217 -1.2667969
-10.845901 -0.80555773 -1.3447018
-10.887815 -0.6906383 -1.3907233
-10.912857 -0.72971493 -1.6228912
-11.377987 -1.0769697 -3.1273565
-11.045404 -0.81211114 -1.3226447
-11.046887 -0.78934759 -1.3800216
-10.708882 -0.41367805 -0.47831017
-10.708559 -0.41873533 -0.46583748
-10.532183 -1.0374244 0.047406793
-10.683058 -0.85507977 -0.14834332
-10.681139 -0.77506441 -0.14801931
-10.801881 -0.41632992 -0.063573837
-10.782177 -0.37618408 -0.06384182
-10.77675 -0.37675196 0.063565612
-10.77916 -0.37626913 -0.04140532
-10.76978 -0.65772998 0.27717161
-10.81736 -0.49674314 -0.0010712147
-10.744385 -1.1188194 -0.50824589
-10.675506 -1.0931208 -0.5497207
-11.30504 -1.0905436 -3.4491005
-10.282283 -1.1385015 1.8879011
-10.223783 -1.1377763 1.8215516
-10.4277 -1.141053 1.6511447
-10.344948 -1.1459515 1.7692678
-10.153447 -1.1011916 2.725342
-10.262307 -1.1358507 1.8874562
-10.261376 -1.1385181 1.9274344
-10.246923 -1.1212001 2.5673485
-10.178315 -0.61921155 2.2327969
-10.287075 -0.70206255 2.7000563
-10.185769 -0.57933253 2.2481382
-10.51047 -1.1336545 1.5330327
-10.512277 -1.1358192 1.4530435
-10.476356 -1.1382225 1.4922242
-10.476833 -1.1371793 1.2521753
-10.481593 -1.1377386 1.3723137
-10.511405 -1.0990098 1.6132207
-9.9138956 0.022406317 3.6499608
-10.00467 -0.21776268 3.5434949
-10.086372 -0.17821595 3.5340722
-10.047897 -0.13797855 3.532162
-10.006871 0.14223687 3.5422752
-9.883338 -0.49697924 3.5250185
-10.11746 0.19648063 3.5480721
-9.9626627 0.19745065 3.5372245
-10.216595 1.3133447 2.7781427
-10.178096 1.2989515 2.709645
-9.9107332 0.31773859 3.5440509
-9.9669323 0.14248711 3.5389478
-10.999959 -0.49005598 -2.1563337
-11.204485 -0.53317821 -2.3694577
-11.199234 -0.23161057 -2.0486224
-11.19585 -0.63421643 -2.0098519
-11.195633 -0.66921556 -2.009958
-10.780509 0.73066992 -1.4891782
-10.148459 -0.61800468 2.0070605
-10.241019 -0.81272 2.9286034
-10.16585 -0.77796066 3.3248661
-10.005867 -0.019708261 2.6464851
-10.285789 -0.62241119 2.7828829
-10.286873 -0.62221223 2.7353961
-10.044399 -0.90047354 2.7487013
-10.082505 -0.90112114 2.8320901
-10.136744 -0.61771297 2.2468586
-10.050549 -0.57979435 2.5851414
-10.045649 -0.7404691 2.7468998
-10.011446 -0.15492736 2.6860564
-10.683239 -0.015258849 -0.10446501
-10.683333 0.12455893 -0.063809037
-10.663282 -0.091871053 -0.78546101
-10.61161 0.28604338 -0.26476812
-10.605694 0.28589627 -0.22489381
-10.623526 0.20595436 -0.26486278
-10.611259 0.14565538 -0.18539989
-10.685123 0.2447383 -0.10322595
-10.612624 0.046604324 -0.38587892
-10.611996 0.086418867 -0.34569931
-10.609063 0.026432522 -0.34604239
-10.609401 -0.053380504 -0.38641268
-10.700495 -0.2913855 -0.94556761
-10.797269 -1.111539 -1.0671502
-10.795395 -1.1169068 -0.98719609
