ply
format ascii 1.0
comment PCL generated
element vertex 676
property float x
property float y
property float z
element camera 1
property float view_px
property float view_py
property float view_pz
property float x_axisx
property float x_axisy
property float x_axisz
property float y_axisx
property float y_axisy
property float y_axisz
property float z_axisx
property float z_axisy
property float z_axisz
property float focal
property float scalex
property float scaley
property float centerx
property float centery
property int viewportx
property int viewporty
property float k1
property float k2
end_header
-0.060942173 -0.26851577 -5.3901162
-0.069950581 -0.18453774 -5.3837929
-0.069922447 -0.17955552 -5.383482
-0.072916508 -0.14990211 -5.3812709
-0.075773239 -0.095337711 -5.3775063
-0.071971893 0.021983802 -5.3705516
-0.067272186 0.05505684 -5.3690071
0.0050086975 0.20657986 -5.3677516
0.015207767 0.24889037 -5.3662558
0.016965389 0.32504696 -5.36166
-0.055044174 0.52927881 -5.3405361
-0.022809982 0.68411285 -5.3344793
0.016525745 0.90675026 -5.324966
0.013012409 0.92661172 -5.3233118
-0.029343128 0.93809468 -5.3177309
-0.032525063 0.9302817 -5.3178582
-0.0463624 0.89465612 -5.3185153
-0.045771599 0.85261852 -5.3212314
-0.062012196 0.72852087 -5.3271861
-0.060659409 0.65971988 -5.3316755
-0.068270683 0.57992697 -5.3358288
-0.073313713 0.54001904 -5.3377643
-0.09186697 0.3673116 -5.3465161
-0.093324661 0.33180043 -5.3485861
-0.10282087 0.20994699 -5.3551731
-0.088405132 0.13908485 -5.36129
-0.09180212 -0.027078189 -5.3713679
-0.087013245 -0.090865761 -5.3759351
-0.087287903 -0.10676274 -5.3769054
-0.089927197 -0.17059624 -5.3806238
-0.085632801 -0.29013842 -5.3886466
-0.088327408 -0.33001134 -5.3908491
-0.088546753 -0.36986896 -5.3933349
-0.093487263 -0.49173906 -5.4004455
-0.091449261 -0.57143897 -5.4056997
-0.10718155 -0.73096126 -5.4139442
-0.11699533 -0.85470647 -5.4206142
-0.10446453 -0.93476719 -5.4270945
-0.1111908 -1.00998 -5.4310613
-0.52509499 -1.2290602 -5.3973937
-0.56684399 -1.2081728 -5.3912897
-0.68760777 -1.2282553 -5.378705
-1.0453863 -1.1994658 -5.3358603
-1.0652051 -1.192235 -5.3331318
-1.1246476 -1.1830003 -5.3257327
-1.2008219 -1.1885653 -5.3173475
-1.2465773 -1.1848555 -5.3118663
-1.3242812 -1.1943538 -5.3035531
-1.398932 -1.1910021 -5.2947807
-1.4843216 -1.1753223 -5.2840004
-1.5635819 -1.1588569 -5.2738729
-1.7097883 -1.1841495 -5.2586989
-1.7909656 -1.1663725 -5.2482691
-1.8286781 -1.160697 -5.2435865
-1.8836279 -1.1581662 -5.2371254
-1.9506202 -1.1500947 -5.2289338
-1.9871802 -1.1476979 -5.2245903
-1.9598141 -1.1512735 -5.2279539
-1.9048572 -1.161279 -5.2348866
-1.8439937 -1.170136 -5.242425
-1.7251134 -1.1836226 -5.2569079
-1.7189822 -1.1853282 -5.2577186
-1.6824174 -1.1927083 -5.2623768
-1.6471529 -1.1993937 -5.2668424
-1.5295444 -1.2420838 -5.2830195
-1.4689207 -1.2555768 -5.290822
-1.4292965 -1.2575808 -5.2954926
-1.3116994 -1.2878134 -5.3108835
-1.026895 -1.3067336 -5.344738
-0.91050482 -1.3210065 -5.3589849
-0.79217815 -1.3565233 -5.3747926
-0.63679266 -1.3151028 -5.3900037
-0.59719181 -1.292192 -5.3931022
-0.55510998 -1.2742338 -5.3967972
-0.52411032 -1.2571223 -5.3992743
-0.19145632 -1.2437508 -5.4365821
-0.18514109 -1.2432714 -5.4372759
-0.10894537 -1.2206008 -5.4445863
-0.026542664 -1.2173796 -5.4538336
-0.024385929 -1.1839113 -5.451973
-0.022851467 -1.119987 -5.448122
-0.022043228 -0.97301215 -5.4389563
-0.048690319 -0.86606342 -5.429163
-0.065584183 -0.78645545 -5.4222107
-0.071214676 -0.66237998 -5.4137487
-0.073921204 -0.58041346 -5.4082751
-0.0696702 -0.50521624 -5.4040256
-0.06202364 -0.46531263 -5.402389
-0.071018219 -0.37884358 -5.3959103
-0.065628052 -0.29909769 -5.3915052
-6.6403947 -0.039614528 -4.6211371
-7.0810704 -0.33779088 -4.5893817
-7.1380677 -0.29880434 -4.580389
-7.2208939 -0.25781351 -4.5683084
-7.3234215 -0.25199005 -4.5561829
-7.3594623 -0.24496926 -4.5516076
-7.6351457 0.083386108 -4.4993067
-7.5745807 0.25093517 -4.495698
-7.5759506 0.36938161 -4.4880795
-7.5908098 0.38162023 -4.4856043
-7.6205015 0.40691769 -4.4806056
-7.6523519 0.44338202 -4.4746556
-7.713378 0.55757135 -4.4604635
-7.7142653 0.5604068 -4.4601831
-7.7564383 0.71922308 -4.4453425
-7.7704129 0.76353616 -4.440948
-7.7981043 0.80119628 -4.4354
-7.5695906 1.2601521 -4.4326954
-7.5335956 1.2680957 -4.4363232
-7.4526801 1.278115 -4.444972
-7.4133234 1.278877 -4.4494376
-7.3950958 1.2802114 -4.4514437
-7.3371034 1.2787104 -4.458189
-7.2493834 1.2627277 -4.4692559
-7.1342583 1.2818642 -4.4812536
-7.1018038 1.2821927 -4.4849548
-7.0454845 1.2784388 -4.4916501
-7.0084004 1.2864873 -4.4953961
-6.8896403 1.2808619 -4.5093708
-6.8140869 1.2968922 -4.5170255
-6.7313576 1.2957757 -4.5265837
-6.5802002 0.77348089 -4.5768204
-6.6167636 0.73111045 -4.5752964
-6.6468997 0.69942868 -4.5738358
-6.6885514 0.64548922 -4.5724568
-6.6947904 0.57004732 -4.5764937
-6.7286596 0.36681762 -4.5854115
-6.7286525 0.36432707 -4.5855694
-6.6475101 0.19880891 -4.6053019
-6.6406603 0.064988136 -4.6145172
-6.6386752 -0.015879951 -4.6198392
-11.579162 0.58579975 -4.0153408
-11.681271 0.49705195 -4.0092211
-11.681227 0.44220901 -4.012681
-11.774427 0.076848075 -4.0250082
-11.818579 0.019556478 -4.0235534
-11.773798 -0.0032933354 -4.0301285
-11.640326 -0.011477754 -4.0459514
-11.61988 -0.010024779 -4.0482044
-11.569353 0.01038307 -4.0527139
-11.248476 0.12365678 -4.0823774
-11.221063 0.47667086 -4.0632839
-11.223317 0.50079983 -4.0615053
-3.4388957 -1.0703456 -5.0532284
-3.2789698 -1.1040505 -5.0736928
-3.1697509 -1.0575097 -5.0832863
-3.0945113 -1.0468935 -5.0912466
-3.0588183 -1.0442746 -5.0951748
-2.9642818 -1.0416452 -5.1058512
-2.8774471 -1.0572476 -5.1167927
-2.867564 -1.0595777 -5.118073
-2.8060422 -1.0769249 -5.1262212
-2.755399 -1.0767043 -5.1320152
-2.7035117 -1.0821197 -5.1383071
-2.6608176 -1.0887138 -5.1436186
-2.6211953 -1.0882263 -5.1481323
-2.587708 -1.0835419 -5.1516776
-2.4719043 -1.0849639 -5.1650481
-2.5969062 -1.0797375 -5.150383
-2.9001853 -0.78177619 -5.0968318
-2.8577015 -0.39348286 -5.0772438
-2.7808714 -0.33205557 -5.0821857
-2.7759945 -0.25226718 -5.0777187
-2.7958884 -0.16530898 -5.0699596
-2.7045593 0.14725348 -5.0607438
-2.7069983 0.1688773 -5.0591021
-2.7187037 0.18814537 -5.0565457
-2.7938118 0.39779109 -5.0347257
-2.7942576 0.40304083 -5.0343437
-2.7927308 0.51698047 -5.0273414
-2.8453593 0.62203288 -5.014688
-2.8453336 0.59213442 -5.0165744
-2.8395658 0.56829733 -5.0187378
-2.8273857 0.4405036 -5.0281849
-2.8271148 0.25138375 -5.0401292
-2.8679998 0.14524296 -5.0421267
-2.8845348 0.051787958 -5.0461173
-2.914892 -0.022265203 -5.0473008
-2.9223368 -0.049539194 -5.0481648
-2.9504533 -0.13774137 -5.0504966
-2.9503601 -0.25733161 -5.0580406
-2.9648385 -0.32659522 -5.0607433
-3.1778448 -0.5724659 -5.0518036
-3.4392412 -0.62686515 -5.0252523
-3.4888947 -0.6617505 -5.0217552
-3.4949825 -0.66531944 -5.0212817
-3.9728172 -0.5035969 -4.9562941
-4.0047216 -0.41612706 -4.9471254
-4.0093269 -0.38623241 -4.9447141
-4.0136404 -0.26710051 -4.9367146
-4.0087271 -0.22717167 -4.934763
-4.0335097 -0.14777178 -4.926919
-4.0484858 0.036400363 -4.9136
-4.0485163 0.076263785 -4.9110851
-4.1332798 0.40551358 -4.8806233
-4.1219678 0.46887094 -4.8779297
-4.1131363 0.52094567 -4.8756618
-4.056901 0.69736856 -4.8709974
-3.9870565 1.2751241 -4.8426127
-3.9215076 1.2778819 -4.8499565
-3.8708534 1.2718349 -4.8561463
-3.8326709 1.2729912 -4.8604527
-3.7521491 1.2729032 -4.8696928
-3.7125728 1.2757509 -4.874052
-3.6370993 1.2885635 -4.8819008
-3.5183868 1.2921236 -4.8952909
-3.414464 1.3017297 -4.9066038
-3.3563788 1.3038712 -4.9131308
-3.2253416 1.2863162 -4.9292645
-3.2143621 1.2872279 -4.9304662
-3.0784376 1.3182881 -4.944098
-3.0365598 1.3173103 -4.9489622
-2.9607217 1.2999585 -4.9587526
-2.8457692 1.2857213 -4.9728327
-2.7728515 1.3223026 -4.9788909
-2.6478791 1.3519754 -4.991354
-2.6113243 1.3545408 -4.9953847
-2.5717001 1.3525319 -5.0000553
-2.4528365 1.3564715 -5.0134392
-2.4132214 1.364429 -5.0174813
-2.2728882 1.353791 -5.034245
-2.1539989 1.3278322 -5.0495152
-2.0839643 1.3450115 -5.0564647
-2.0077853 1.3455679 -5.0651665
-1.9752469 1.3409002 -5.0691919
-1.9162736 1.3382032 -5.0761251
-1.8401027 1.3487256 -5.084198
-1.7547207 1.340543 -5.0945053
-1.5992889 1.3320987 -5.1128631
-1.5596671 1.3325813 -5.1173763
-1.3999982 1.3302867 -5.1358328
-1.3250127 1.3500178 -5.1431894
-1.2754469 1.3711393 -5.147543
-1.2019572 1.4124296 -5.1533704
-1.2823648 1.3957574 -5.1451988
-1.2915597 1.3945303 -5.1442218
-1.4408398 1.3788772 -5.128088
-1.4772949 1.371264 -5.1243868
-1.5627537 1.3570879 -5.115479
-1.6511941 1.3573868 -5.1053171
-1.6846862 1.3577223 -5.1014552
-1.7365718 1.3605864 -5.095324
-1.8554335 1.3541553 -5.082098
-1.891993 1.3565731 -5.0777526
-1.9254813 1.3519254 -5.0742049
-1.9985948 1.351778 -5.0658293
-2.0901093 1.361634 -5.0547132
-2.1632318 1.3714528 -5.0457087
-2.2059321 1.3855102 -5.0399261
-2.2424932 1.3904197 -5.0354238
-2.3161159 1.4072692 -5.025919
-2.3583055 1.4018383 -5.0214224
-2.4190373 1.4018416 -5.0144572
-2.4742041 1.4033556 -5.0080352
-2.484014 1.4031701 -5.0069218
-2.5533352 1.3823929 -5.0002804
-2.6750588 1.3629649 -4.9875445
-2.75143 1.3625386 -4.9788132
-2.8986115 1.3304741 -4.9639535
-3.059448 1.3588629 -4.9437199
-3.0801556 1.3592186 -4.9413223
-3.1187923 1.3608201 -4.9367905
-3.3164546 1.4050822 -4.9113336
-3.3535497 1.4047484 -4.9071002
-3.4319825 1.3934748 -4.8988156
-3.6494823 1.3231733 -4.8783002
-3.691376 1.3191681 -4.8737478
-3.7383592 1.3156064 -4.8685842
-3.8101048 1.3106251 -4.8606701
-3.8459935 1.3031516 -4.8570247
-3.9647224 1.2946088 -4.8439465
-4.047554 1.2960308 -4.8343577
-4.2341795 1.3277099 -4.8109589
-4.3873682 1.3599153 -4.7913618
-4.4039192 1.3578696 -4.7895927
-4.4825935 1.3568904 -4.7806315
-4.5543551 1.3469265 -4.7730293
-4.6483698 1.3248544 -4.7636375
-4.6946516 1.3233838 -4.7584224
-4.7349205 1.3209364 -4.7539587
-4.814033 1.3276985 -4.7444596
-4.8499136 1.3227162 -4.7406588
-4.9179559 1.3180923 -4.7331467
-4.9575324 1.3152444 -4.7287869
-4.961236 1.3148875 -4.728385
-4.9966464 1.3121302 -4.7244973
-5.0396786 1.3137751 -4.7194586
-5.119524 1.3084798 -4.7106352
-5.1739058 1.3066957 -4.7045107
-5.2889152 1.3034925 -4.6915231
-5.3322029 1.2977965 -4.6869173
-5.3962803 1.2963433 -4.6796603
-5.5687852 1.3412471 -4.6570477
-5.5836344 1.3435068 -4.6552024
-5.6244478 1.3416269 -4.6506405
-5.7921128 1.3026426 -4.6338677
-5.8712797 1.3039021 -4.6247091
-5.903748 1.3085546 -4.6206923
-5.99718 1.3142221 -4.6096201
-6.0502067 1.3289568 -4.6026106
-6.0516663 1.3290846 -4.6024351
-6.1555061 1.3142514 -4.5914607
-6.1950707 1.3086548 -4.587276
-6.3102689 1.3144238 -4.5737014
-6.3498268 1.3063369 -4.569674
-6.4152184 1.300251 -4.5625577
-6.4254088 1.3002684 -4.561388
-6.529911 1.3039768 -4.5491695
-6.6558261 1.3192775 -4.5337653
-6.7816834 1.3146544 -4.5196228
-6.8643837 1.3058088 -4.5106955
-6.9195352 1.2978427 -4.5048723
-6.9506469 1.2968199 -4.501369
-6.9795384 1.2966347 -4.4980669
-7.0814724 1.29544 -4.4864521
-7.117393 1.2925017 -4.4825177
-7.1916876 1.2929845 -4.4739671
-7.279346 1.3000607 -4.4634681
-7.3068786 1.296263 -4.4605498
-7.3548346 1.2940619 -4.4551888
-7.3980551 1.2933695 -4.4502754
-7.4412785 1.2951677 -4.4452052
-7.6236529 1.3386598 -4.4215498
-7.6751451 1.3416784 -4.4154544
-7.8830791 1.36064 -4.3904133
-7.9114361 1.3571124 -4.3873835
-8.0967102 1.2872524 -4.3705363
-8.1473722 1.2855122 -4.3648357
-8.2081957 1.2833531 -4.357996
-8.2441921 1.2838259 -4.353838
-8.283782 1.2856989 -4.3491797
-8.3701172 1.2835946 -4.3394108
-8.4421186 1.2857201 -4.3310199
-8.4817085 1.2875934 -4.3263612
-8.5320406 1.2863264 -4.3206687
-8.5716143 1.2832987 -4.3163214
-8.5752335 1.2831979 -4.3159122
-8.7940998 1.3548894 -4.2862959
-8.855917 1.3291459 -4.280828
-8.9997158 1.2925363 -4.2666426
-9.0860958 1.2812986 -4.2574444
-9.1256685 1.2782712 -4.2530966
-9.1688652 1.2801235 -4.2480259
-9.215683 1.2868557 -4.2422323
-9.2733803 1.2827196 -4.2358761
-9.3271694 1.2829564 -4.2296925
-9.3525457 1.2814851 -4.2268748
-9.3921204 1.2783775 -4.2225318
-9.4458952 1.2813454 -4.2161779
-9.492713 1.2880774 -4.2103844
-9.5504799 1.2858698 -4.2038989
-9.5900478 1.2802722 -4.1997137
-9.6692133 1.2790375 -4.1907125
-9.7087955 1.2784202 -4.1862116
-9.7229214 1.2775865 -4.1846442
-9.7879457 1.2722054 -4.177526
-9.8452663 1.2758741 -4.1707211
-9.8671246 1.2759516 -4.1682091
-9.9208002 1.2773917 -4.161963
-10.092272 1.3436751 -4.1381226
-10.271768 1.3000607 -4.1202846
-10.350922 1.3066535 -4.1107912
-10.426546 1.3083115 -4.1020141
-10.430083 1.3082654 -4.1016111
-10.469666 1.3078263 -4.0970993
-10.509246 1.3098776 -4.0924311
-10.54175 1.3120205 -4.0885682
-10.5983 1.3138702 -4.0819664
-10.624449 1.3135867 -4.0789852
-10.667569 1.3131018 -4.0740709
-10.703611 1.3151987 -4.0698051
-10.746732 1.3147137 -4.0648904
-10.816006 1.311455 -4.0571513
-10.865476 1.3158865 -4.0511985
-10.905055 1.3179379 -4.0465302
-10.944634 1.319989 -4.041862
-10.984214 1.3220401 -4.0371933
-11.023796 1.3216009 -4.0326815
-11.063383 1.3186717 -4.028326
-11.182175 1.2924514 -4.0163546
-11.209152 1.2075865 -4.0186067
-11.176899 1.2036531 -4.0225534
-11.130024 1.1961236 -4.0284033
-10.862959 1.2460809 -4.0558844
-10.813382 1.2498291 -4.0613341
-10.766502 1.2472773 -4.0668712
-10.723277 1.2450025 -4.0719719
-10.644145 1.2360284 -4.0816121
-10.529075 1.2452445 -4.0942283
-10.44994 1.2387595 -4.1037126
-10.40671 1.2414625 -4.1085
-10.327578 1.2324884 -4.1181407
-10.284359 1.2252357 -4.1235538
-10.205221 1.2212396 -4.1328816
-10.165649 1.2217305 -4.1373887
-10.101627 0.63210034 -4.1818743
-10.100394 0.62962383 -4.1821718
-10.024503 0.45169508 -4.2020836
-10.006436 0.31232336 -4.212935
-10.006415 0.28492874 -4.2146635
-10.007695 0.22270221 -4.2184362
-10.012759 0.1380623 -4.2231874
-10.000131 0.033013314 -4.2312531
-10.275694 -0.2703042 -4.2187576
-10.315376 -0.30900159 -4.2166443
-10.322787 -0.31657737 -4.2162719
-10.753593 -0.38270074 -4.17103
-10.773373 -0.37048718 -4.1679926
-10.937805 -0.33247262 -4.14674
-10.954154 -0.33101511 -4.1447735
-10.977386 -0.33302689 -4.1422358
-11.243479 -1.103718 -4.1602678
-11.303874 -1.0401583 -4.1493378
-11.209976 -0.57259488 -4.1306524
-11.150602 -0.45485622 -4.1300449
-11.07892 -0.41400161 -4.1356921
-10.718588 -1.1242315 -4.2217569
-10.666448 -1.1210821 -4.2275381
-10.621512 -1.118536 -4.2325311
-10.556206 -1.1249819 -4.240427
-10.51663 -1.1220131 -4.2447786
-10.477056 -1.1215347 -4.2492871
-10.432943 -1.1201181 -4.2542567
-10.397908 -1.1230686 -4.2584605
-10.382723 -1.1215684 -4.2601075
-10.33692 -1.1202347 -4.2652764
-10.167238 -1.1528819 -4.2867928
-10.156565 -1.1586907 -4.288383
-10.12052 -1.1652486 -4.2929296
-9.9969807 -1.21925 -4.3104992
-9.8792095 -1.2762229 -4.3275948
-9.7696381 -1.2473311 -4.3383408
-9.6835794 -1.2514274 -4.3484688
-9.6530552 -1.2555273 -4.3522272
-9.5302582 -1.2003005 -4.3628316
-9.4835873 -1.1927569 -4.3677087
-9.371954 -1.1903086 -4.3803568
-9.282095 -1.2048101 -4.3915758
-9.1598577 -1.1783051 -4.4039249
-9.0791569 -1.1707861 -4.4127064
-8.8899374 -1.1583989 -4.4336267
-8.8396826 -1.1635764 -4.4397163
-8.812459 -1.1681201 -4.4431248
-8.7386703 -1.1777189 -4.4521914
-8.6163692 -1.1785908 -4.4662724
-8.6021576 -1.1772101 -4.4678154
-8.5696917 -1.1735361 -4.4713073
-8.4869642 -1.1775279 -4.4810462
-8.414917 -1.1732225 -4.4890375
-8.3646688 -1.1759112 -4.4949698
-8.2853203 -1.1598885 -4.5030603
-8.2530699 -1.1585302 -4.5066733
-8.1632404 -1.1605875 -4.5171051
-8.1378775 -1.158848 -4.5199041
-8.1063442 -1.1596801 -4.5235729
-8.0013351 -1.1707833 -4.5363154
-7.8363051 -1.1895499 -4.5564241
-7.7871304 -1.1944108 -4.5623698
-7.7090559 -1.1903429 -4.5710673
-7.6434808 -1.1961772 -4.5789552
-7.4794626 -1.1534736 -4.5950756
-7.4398766 -1.1553643 -4.5997348
-7.3141136 -1.1159093 -4.6116724
-7.2968416 -1.0982134 -4.6125383
-6.8461742 -1.1463687 -4.6672564
-6.7564268 -1.1098551 -4.6752486
-6.5963678 -1.0911932 -4.6924295
-6.5095019 -1.116551 -4.703989
-6.4915628 -1.1200225 -4.706265
-6.331708 -1.108686 -4.7238836
-6.2129612 -1.1093774 -4.7375455
-6.1733623 -1.1162493 -4.7425199
-6.1337695 -1.1206305 -4.7473364
-6.0928192 -1.1126331 -4.7515292
-6.0582118 -1.1021463 -4.7548375
-5.9170442 -1.0852423 -4.7699623
-5.7941923 -1.1259263 -4.7866144
-5.7674489 -1.1268685 -4.7897406
-5.5690413 -1.0843918 -4.8098192
-5.514935 -1.078401 -4.8156466
-5.4850044 -1.0764502 -4.8189564
-5.2737346 -1.1134316 -4.8455153
-5.1232381 -1.1146224 -4.8628502
-5.0914006 -1.1148908 -4.866518
-5.0122919 -1.1188276 -4.8758388
-4.885922 -1.1114837 -4.8898687
-4.8463693 -1.1109606 -4.894372
-4.7315845 -1.0898554 -4.9062061
-4.6958923 -1.0872366 -4.9101348
-4.6524796 -1.0888091 -4.9152126
-4.5579348 -1.0961455 -4.9265175
-4.4826818 -1.1029696 -4.9355779
-4.419487 -1.111755 -4.9433784
-4.3749905 -1.1111665 -4.9484444
-4.0805459 -1.071702 -4.9797268
-4.0476227 -1.0723009 -4.9835401
-4.0119276 -1.0721736 -4.9876256
-3.9723711 -1.0766335 -4.9924431
-3.9173794 -1.084493 -4.9992452
-3.8855445 -1.08227 -5.0027561
-3.8537095 -1.0800471 -5.0062671
-3.7234743 -1.0822732 -5.0213432
-3.6877792 -1.082146 -5.0254288
-3.6366494 -1.0854185 -5.0314989
-3.6048183 -1.0782125 -5.0346951
-3.5295765 -1.0700877 -5.0428123
-3.4900258 -1.0670733 -5.0471582
-11.181471 -1.1155431 -4.1681242
-11.11025 -1.1391506 -4.1777792
-11.074301 -1.1288326 -4.181252
-10.991514 -1.1177912 -4.1900506
-10.972923 -1.1147764 -4.1919928
-10.833225 -1.1283305 -4.208868
-10.804546 -1.1257296 -4.2119932
-10.768602 -1.1228833 -4.2159362
-10.043286 1.2154593 -4.1518168
-9.9477949 0.65207952 -4.1982579
-9.8274117 0.5837726 -4.2163668
-9.8608551 0.29707354 -4.2305918
-9.727891 0.10848162 -4.2577209
-9.7082825 0.067376494 -4.2625589
-9.7239456 0.00414294 -4.2647457
-9.7650642 -0.055100508 -4.2637625
-10.041245 -0.35416609 -4.2509279
-9.9837093 -0.55860001 -4.2704043
-9.9997339 -0.63601696 -4.2734437
-9.7175531 -1.0629973 -4.3327022
-9.6275387 -1.0741742 -4.34373
-9.322772 -0.74501204 -4.3579464
-9.3263979 -0.71486932 -4.3556318
-9.3228493 -0.71265757 -4.3558993
-9.1529198 -0.65683728 -4.3718715
-8.9761295 -0.43282044 -4.3780346
-8.9700632 -0.39536539 -4.3763709
-8.8232269 -0.084618106 -4.3736358
-8.8294506 -0.0022498369 -4.367733
-8.8341923 0.043142259 -4.3643298
-8.837635 0.064370602 -4.3625979
-8.8418036 0.12266576 -4.3584476
-8.8319664 0.18154392 -4.3558669
-8.8332605 0.26367214 -4.3505449
-8.8233318 0.30871341 -4.348846
-8.8034554 0.31142163 -4.350955
-8.7999401 0.30826879 -4.3515568
-8.7498674 0.27233779 -4.3595629
-8.7254848 0.2402567 -4.3643799
-8.6855459 0.14889064 -4.3747158
-8.6854315 0.10904573 -4.3772388
-8.6853161 0.069200873 -4.3797622
-8.6857643 0.045509726 -4.3812032
-8.6856709 0.0056887865 -4.3837223
-8.6778078 -0.44352323 -4.4129219
-8.6496105 -0.48360157 -4.4186802
-8.440567 -0.64468873 -4.4528017
-8.3650217 -0.66360503 -4.462657
-8.3440876 -0.66579342 -4.4651957
-8.2109375 -0.73756748 -4.4849873
-7.8259444 -0.4782263 -4.5128031
-7.8159385 -0.39277649 -4.5085678
-7.8184805 -0.35105401 -4.5056481
-7.81635 -0.31296179 -4.5034928
-7.7915797 -0.23309821 -4.5013027
-7.7771168 -0.073577769 -4.4929123
-7.767519 0.020641133 -4.4880781
-7.7685232 0.07951048 -4.4842544
-7.7688351 0.10107015 -4.4828606
-7.7689362 0.14091882 -4.4803386
-7.777421 0.21054608 -4.4749794
-7.7960901 0.3123267 -4.4664268
-7.8685226 0.55027717 -4.4431305
-7.9148068 0.6666404 -4.4304924
-7.9356384 0.7050882 -4.4256811
-7.9324684 0.785905 -4.4209538
-7.9746385 1.0739944 -4.3979697
-8.2985754 1.2608111 -4.349051
-8.3397064 1.2612441 -4.3443065
-8.4208612 1.2613595 -4.3349924
-8.5000401 1.2651055 -4.3256755
-8.6187744 1.2582734 -4.312489
-8.7410812 1.2662926 -4.2979574
-8.7586212 1.263484 -4.2961226
-8.7802963 1.2631199 -4.2936597
-8.7901926 1.2629657 -4.2925344
-8.8775053 1.2714598 -4.2819862
-8.9390078 1.2681868 -4.2751389
-9.0577202 1.2538838 -4.2624254
-9.1764889 1.2595029 -4.2484508
-9.2731113 1.273936 -4.2364602
-9.3058796 1.2748122 -4.2326469
-9.3522625 1.272862 -4.2274504
-9.3954582 1.2747142 -4.2223802
-9.4967299 1.2719069 -4.2109427
-9.5501404 1.2726674 -4.2047691
-9.6225471 1.2723646 -4.1964846
-9.6292915 1.2715933 -4.1957598
-9.6688643 1.2685659 -4.191412
-9.6981735 1.2687302 -4.1880403
-9.7480125 1.2650015 -4.1825595
-9.8564968 1.2637711 -4.1701956
-2.1853185 -1.120237 -5.2001367
-2.2676411 -1.1066558 -5.1898403
-2.3560858 -1.1013349 -5.1793618
-2.2737656 -1.1124247 -5.1895013
-2.2310724 -1.1190188 -5.1948128
-2.1945071 -1.1263988 -5.199471
-2.1579471 -1.1287956 -5.203815
-2.1456866 -1.1297157 -5.2052789
-2.1060624 -1.1317197 -5.2099495
-2.0268073 -1.1432023 -5.2197623
-2.1091294 -1.129621 -5.2094655
-4.629982 1.2867763 -4.7681451
-4.7549787 1.2718694 -4.7547493
-4.7981749 1.2721579 -4.7497768
-4.8327293 1.2703567 -4.7459278
-4.9143901 1.2760944 -4.7362008
-4.9935508 1.2679079 -4.7276382
-5.0368299 1.264703 -4.7228765
-5.0726948 1.2647042 -4.7187634
-5.247519 0.72618926 -4.7326369
-5.247673 0.67885166 -4.7356014
-5.2476892 0.67386883 -4.7359133
-5.2073655 0.47909147 -4.7528076
-5.2485061 0.42223227 -4.7516713
-5.3036475 0.33915994 -4.7505803
-5.2821894 -0.1649756 -4.7847986
-5.1022773 -0.23124558 -4.8096066
-5.0355339 -0.22787136 -4.8170485
-5.0207033 -0.22518376 -4.8185797
-4.6022282 0.036551386 -4.8500848
-4.5750723 0.084248826 -4.8501945
-4.4109926 0.17629829 -4.8632131
-4.265758 0.35795596 -4.8684258
-4.2220058 0.5112949 -4.8637843
-4.1597772 0.59584677 -4.8655949
-4.0692987 0.6872915 -4.8702106
-0.31899214 1.4130609 -5.2545929
-0.32254601 1.4154825 -5.2540326
-0.4838028 1.4137042 -5.235651
-0.52648973 1.4128125 -5.2308116
-0.55997562 1.4056733 -5.2274213
-0.65299654 1.3866723 -5.2179499
-0.69223547 1.3859291 -5.2134967
-0.61796045 1.372838 -5.2228394
-0.51956129 1.3580341 -5.2350569
-0.4767704 1.3637221 -5.2396059
-0.40305185 1.3756955 -5.2473063
-0.3964138 1.3763022 -5.2480292
-0.32456636 1.3968968 -5.2549715
-5.4573288 0.34192777 -4.7327814
-5.9255462 0.093146533 -4.694756
-6.067759 0.20699432 -4.6712747
-6.4738817 0.57963872 -4.6012244
-6.5063009 0.66879684 -4.5918899
-6.5223265 0.70083773 -4.5880337
-6.5461769 0.7702921 -4.5809231
-6.4506507 1.2703404 -4.5603786
-6.2923822 1.2902353 -4.5772762
-6.2563653 1.2907073 -4.581377
-6.1799612 1.2870898 -4.5903673
-6.134028 1.2802441 -4.5960665
-6.0944481 1.2808595 -4.6005669
-6.0216427 1.2895513 -4.6083689
-5.8965497 1.2839363 -4.6230688
-5.8533931 1.2797139 -4.628284
-5.7382169 1.2814167 -4.6413856
-5.6194563 1.2757912 -4.6553602
-5.5182638 1.2551246 -4.6682673
-5.3770185 0.69701976 -4.7196231
-5.4070363 0.4962526 -4.7288275
-5.4244323 0.42814565 -4.731123
-4.4309473 1.2732959 -4.7918205
-4.3963575 1.2636418 -4.7963958
-4.2702703 1.2579501 -4.8112144
-4.2306781 1.2657807 -4.8152618
-4.1910939 1.2711198 -4.8194652
-11.224612 -1.1062968 -4.1625938
0 0 0 1 0 0 0 1 0 0 0 1 0 0 0 0 0 676 1 0 0
