ply
format ascii 1.0
comment PCL generated
element vertex 595
property float x
property float y
property float z
element camera 1
property float view_px
property float view_py
property float view_pz
property float x_axisx
property float x_axisy
property float x_axisz
property float y_axisx
property float y_axisy
property float y_axisz
property float z_axisx
property float z_axisy
property float z_axisz
property float focal
property float scalex
property float scaley
property float centerx
property float centery
property int viewportx
property int viewporty
property float k1
property float k2
end_header
-0.082201004 0.06361194 -5.7106771
-0.079408169 -0.016346693 -5.7093983
-0.0018672943 -0.22627185 -5.7143164
-0.047371864 -0.39072841 -5.7056451
-0.048333168 -0.45857906 -5.7041674
-0.042431831 -0.49675354 -5.7040954
-0.038235664 -0.61707872 -5.7021699
-0.0065574646 -0.69808382 -5.7042747
-0.0063385963 -0.75305456 -5.7031951
-0.0077576637 -1.0179123 -5.697701
-0.0036878586 -1.0574412 -5.6973858
-0.0050635338 -1.0728842 -5.6969128
-0.0060353279 -1.1382364 -5.6954842
-0.086298466 -1.1777892 -5.6852279
-0.12660408 -1.2012904 -5.6800046
-0.16611862 -1.2200114 -5.6749706
-0.24191093 -1.2451783 -5.6655307
-0.20571232 -1.218743 -5.6703291
-0.06363678 -0.85900354 -5.6943102
-0.051318645 -0.73971891 -5.6981611
-0.089335442 -0.61911935 -5.6961055
-0.089653969 -0.53916192 -5.6976762
-0.090132236 -0.41922575 -5.7000318
-0.090450764 -0.3392683 -5.7016025
-0.090620041 -0.29679093 -5.7024364
-0.091999531 -0.2596975 -5.7030201
-0.11104202 -0.1393652 -5.7031956
-0.12324429 0.021587826 -5.7049942
-0.12421036 0.060534336 -5.7056637
-0.12867069 0.13331631 -5.7066016
-0.13808012 0.22252078 -5.7072864
-0.14190197 0.25321251 -5.7074533
-0.12931967 0.33931652 -5.7106681
-0.12618685 0.36293292 -5.7115121
-0.12215042 0.5772118 -5.7162976
-0.085755348 0.93520218 -5.727787
-0.38103342 1.3958125 -5.7022457
-0.057993412 0.97300684 -5.7318196
-0.017585754 0.97423154 -5.7366071
0.070670605 0.97420132 -5.7470093
0.1087985 0.97630656 -5.7515459
0.10990906 0.93661314 -5.7508783
0.10986471 0.85644937 -5.7492609
0.067430973 0.73514932 -5.7418199
0.027924538 0.69500166 -5.7363558
-0.069110394 0.45328176 -5.720057
-0.09585762 0.18252181 -5.7114592
-0.095151901 0.17562152 -5.7114034
-11.865202 0.030602166 -4.3211432
-11.860806 -0.010220636 -4.3208404
-11.68206 -0.13224843 -4.3394551
-11.622104 -0.13232149 -4.3465204
-11.277395 -0.46058065 -4.3805499
-11.276876 -0.5080567 -4.3796563
-11.314984 -0.64074749 -4.3724957
-11.315824 -0.64848137 -4.3722415
-11.347156 -0.76689595 -4.3661671
-11.357697 -0.80659986 -4.3641257
-11.357262 -0.84657967 -4.3633733
-11.353144 -0.96721917 -4.3614321
-11.340433 -1.0071459 -4.3621273
-11.25316 -1.0942231 -4.3706632
-11.11216 -1.1042261 -4.3870816
-11.033085 -1.1012125 -4.3964629
-10.993534 -1.1009551 -4.4011302
-10.90321 -1.1125808 -4.4115429
-10.86363 -1.114822 -4.416163
-10.827765 -1.1155152 -4.4203763
-10.75243 -1.1084547 -4.4293981
-10.626011 -1.1207142 -4.4440527
-10.586636 -1.1255137 -4.4485974
-10.4579 -1.1171296 -4.4639401
-10.17695 -1.149379 -4.4964075
-10.17322 -1.1513667 -4.4968071
-10.066208 -1.2119889 -4.5082016
-9.898634 -1.272002 -4.5267467
-9.7651777 -1.2689539 -4.5425386
-9.7085495 -1.2494408 -4.5496058
-9.4817238 -1.1981145 -4.577374
-9.4063263 -1.1979584 -4.5862646
-9.3234673 -1.2017772 -4.5959544
-9.2913504 -1.1999674 -4.5997763
-9.1150208 -1.1639668 -4.6212845
-9.0995693 -1.1640764 -4.6231036
-9.0767021 -1.1641234 -4.6257977
-8.8962698 -1.1616396 -4.6471157
-8.8604813 -1.1568186 -4.6514311
-8.7814407 -1.1511525 -4.6608615
-8.6869545 -1.1583711 -4.6718535
-8.5755844 -1.2084407 -4.6839738
-8.500452 -1.1857916 -4.693285
-8.414156 -1.1666059 -4.7038426
-8.3537197 -1.1556175 -4.7111874
-8.3263826 -1.1547263 -4.7144275
-8.2634792 -1.1562967 -4.7218103
-8.1693964 -1.1685777 -4.7326531
-8.1372805 -1.1667678 -4.736475
-8.0506306 -1.1775728 -4.7464714
-8.0111399 -1.1722406 -4.7512331
-7.967948 -1.1663965 -4.7564416
-7.8317022 -1.1902409 -4.7720218
-7.8117695 -1.1903728 -4.7743683
-7.7649388 -1.1915985 -4.7798638
-7.703764 -1.1908419 -4.7870898
-7.6572819 -1.1494974 -4.7934003
-7.6453142 -1.0564442 -4.7966824
-7.575789 -0.91540426 -4.8077135
-7.3593578 -0.61637557 -4.8392382
-7.2613525 -0.57513297 -4.8516197
-6.9852343 -0.4930025 -4.885818
-6.634243 -0.88891011 -4.9192271
-6.6154695 -0.90784955 -4.9210591
-6.3167171 -1.0818597 -4.9527736
-5.985013 -1.1193128 -4.9911184
-5.9675522 -1.1197476 -4.9931679
-5.9331045 -1.1189167 -4.9972448
-5.9046736 -1.1196089 -5.0005822
-5.8428669 -1.1209556 -5.0078406
-5.815835 -1.1201811 -5.0110421
-5.6962175 -1.0839421 -5.0258703
-5.6530256 -1.0777056 -5.0310869
-5.57763 -1.0780394 -5.0399671
-5.534318 -1.081798 -5.0449967
-5.4861717 -1.0773417 -5.0507612
-5.4070945 -1.0731019 -5.0601678
-5.3680816 -1.073543 -5.0647573
-5.2922602 -1.0853132 -5.0734577
-5.2537713 -1.0787483 -5.0781264
-5.2134733 -1.0599289 -5.0832548
-4.696908 -1.1091253 -5.1431532
-4.6556387 -1.108408 -5.1480322
-4.6202397 -1.0968976 -5.1524363
-4.2860327 -1.0222986 -5.1933298
-4.2470107 -1.0222461 -5.1979303
-4.221746 -1.0237573 -5.2008777
-4.1304626 -1.0447952 -5.2112145
-4.0948329 -1.05577 -5.2151933
-4.0592041 -1.0667449 -5.2191725
-3.9720941 -1.0714759 -5.2293448
-3.8890309 -1.0723917 -5.2391171
-3.8574731 -1.0770534 -5.242743
-3.8099875 -1.071991 -5.2484422
-3.7389083 -1.0764523 -5.2567306
-3.651773 -1.0836815 -5.2668557
-3.5488205 -1.096989 -5.2787232
-3.4973485 -1.1165407 -5.2843971
-3.4933281 -1.1178572 -5.2848444
-3.4538321 -1.1151586 -5.2895541
-3.4142849 -1.1174567 -5.2941694
-3.3787584 -1.118438 -5.298337
-3.3424375 -1.0991371 -5.3030066
-3.2345824 -1.0565814 -5.3165755
-3.0635331 -1.0243951 -5.3373842
-2.9263771 -1.0398939 -5.3532395
-2.8802483 -1.0497859 -5.3584776
-2.8437266 -1.0632321 -5.3625121
-2.7976763 -1.0656291 -5.3678918
-2.7184107 -1.0726633 -5.3770933
-2.5995259 -1.0819657 -5.3909192
-2.5663373 -1.0841045 -5.3947883
-2.4195297 -1.0895799 -5.4119825
-2.3586316 -1.0918905 -5.4191141
-2.2825429 -1.1026078 -5.4278674
-2.2397206 -1.1036911 -5.4328928
-2.0477669 -1.1423841 -5.4547405
-1.9684756 -1.1519167 -5.4638948
-1.8034358 -1.1736094 -5.4829121
-1.6415725 -1.1989851 -5.5014806
-1.6150541 -1.2024953 -5.5045357
-1.5654316 -1.2146993 -5.5101395
-1.4481654 -1.2421565 -5.5234094
-1.3669949 -1.2585179 -5.5326481
-1.227766 -1.3201706 -5.5478191
-1.2075691 -1.3199074 -5.5502048
-1.198071 -1.3199978 -5.5513229
-1.1290169 -1.2971095 -5.5599222
-1.0072155 -1.2777449 -5.5746689
-0.92962933 -1.2778766 -5.5838113
-1.0040131 -1.2765603 -5.5750699
-1.2867522 -0.83883131 -5.5505466
-1.2746282 -0.71846759 -5.5543966
-1.2709289 -0.59851736 -5.5572448
-1.2462888 -0.51725549 -5.5617833
-1.2895346 -0.39845294 -5.5590754
-1.277154 -0.23876749 -5.563746
-1.2603536 -0.11757495 -5.5681639
-1.2731433 -0.077673107 -5.5674586
-1.2839808 0.083334833 -5.5694194
-1.2843976 0.12330864 -5.5701742
-1.2874589 0.18500204 -5.571054
-1.2763252 0.30499262 -5.5747795
-1.2904115 0.4255785 -5.5755444
-1.2731285 0.54604757 -5.5800042
-1.2903566 0.70466965 -5.5811634
-1.2958484 0.75710642 -5.5815706
-1.2838588 0.86579192 -5.5851698
-1.2823095 1.0268862 -5.5885925
-1.0551891 1.391643 -5.6226988
-0.93658972 1.4098083 -5.6370435
-0.74179745 1.4072375 -5.6599522
-0.67221785 1.4040865 -5.6680903
-0.62942171 1.405513 -5.6731634
-0.52620268 1.3999277 -5.6852174
-0.48663282 1.4025272 -5.6899338
-0.41403055 1.3979712 -5.6984
-11.868173 0.069928482 -4.3215837
-11.867031 0.11273801 -4.3225794
-11.687959 0.44432846 -4.3503551
-11.71326 0.52323377 -4.3489599
-11.665973 0.63490272 -4.3567796
-11.685574 1.2036527 -4.3659077
-11.686777 1.2688259 -4.3670764
-11.65719 1.2789289 -4.3707671
-11.617676 1.2840701 -4.3755279
-11.571579 1.27068 -4.380692
-11.232492 1.3145255 -4.4215422
-11.196727 1.3288277 -4.4260454
-11.157173 1.328971 -4.4307108
-11.085371 1.3225906 -4.4390459
-11.053181 1.3235636 -4.4428596
-11.034782 1.3227383 -4.4450116
-10.87661 1.3583484 -4.4643717
-10.875832 1.3582486 -4.4644613
-10.697216 1.3273515 -4.4848938
-10.653952 1.3233312 -4.4899125
-10.606923 1.3160045 -4.4953084
-10.580064 1.3149211 -4.4984522
-10.516872 1.3204366 -4.506012
-10.391994 1.3200675 -4.5207238
-10.275995 1.3371239 -4.53474
-10.200559 1.3365759 -4.5436206
-10.074495 1.3311777 -4.5583711
-9.986351 1.3064308 -4.5682631
-9.8676662 1.3048966 -4.5822215
-9.7922401 1.3046606 -4.5911074
-9.7490435 1.3083599 -4.5962734
-9.6770763 1.289753 -4.604382
-9.7312422 1.2784185 -4.5977697
-9.7707939 1.2780969 -4.593101
-9.8139591 1.2718987 -4.5878882
-9.8893852 1.2721349 -4.5790029
-9.9720736 1.2631162 -4.5690746
-10.177094 0.71723342 -4.5339308
-10.15855 0.64848024 -4.5347338
-10.134522 0.49383086 -4.5344553
-10.217101 0.44269118 -4.5236936
-10.268646 0.39502332 -4.5166593
-10.305474 0.36240283 -4.511662
-10.309093 0.36213306 -4.51123
-10.390633 0.76183367 -4.5096579
-10.470822 0.84140909 -4.5018058
-10.51077 0.92128414 -4.4987035
-10.553013 1.0006375 -4.4953203
-10.877441 1.230918 -4.4617109
-10.917044 1.2382307 -4.45719
-10.996168 1.2428589 -4.4479566
-11.157907 1.2141151 -4.4283142
-11.196066 1.2069317 -4.4236722
-11.233299 1.2267523 -4.419682
-11.595043 1.1640869 -4.375783
-11.607769 0.63264984 -4.363595
-11.601084 0.57187653 -4.3631606
-11.60386 0.45609075 -4.3605046
-11.610073 0.3094832 -4.3568239
-11.607613 0.22993435 -4.355514
-11.619617 0.10522844 -4.3515911
-11.618805 0.011187453 -4.3497953
-11.157343 -0.24896343 -4.3989563
-11.078704 -0.20596993 -4.4090905
-10.995224 -0.20432618 -4.4189634
-10.932858 -0.20502062 -4.4263005
-10.848375 -0.24445342 -4.4354653
-10.75771 -0.28541824 -4.4453282
-10.688129 -0.32059583 -4.4528222
-10.66703 -0.32952756 -4.4551296
-10.627638 -0.3994725 -4.4583664
-10.595403 -0.43808714 -4.4613891
-10.575191 -0.47793821 -4.4629703
-10.473785 -0.59250945 -4.4726186
-10.093752 -0.57239068 -4.517818
-10.093519 -0.57235873 -4.5178461
-9.963316 -0.92272198 -4.5261469
-9.5016489 -0.76587695 -4.5837183
-9.4944572 -0.74678129 -4.58495
-9.4308844 -0.68721837 -4.5936413
-9.3962908 -0.68596554 -4.597744
-9.333353 -0.67745543 -4.6053338
-9.2776546 -0.68400317 -4.6117673
-8.9734211 -0.3835189 -4.6536708
-8.9462137 -0.27975315 -4.6589646
-8.9434166 -0.2418174 -4.6600571
-8.8701696 0.0784612 -4.6751323
-8.8696909 -0.16538183 -4.6702843
-8.6131268 -0.43498462 -4.6951036
-8.2127533 -0.39342192 -4.7431321
-8.1746912 -0.35206968 -4.7484498
-8.1363935 -0.29800805 -4.7540512
-7.9158192 -0.030723061 -4.7854261
-7.941133 0.27695268 -4.78863
-7.9862356 0.39058757 -4.7855992
-7.986527 0.39553028 -4.7856641
-8.0082521 0.67445272 -4.788713
-8.051754 0.79405427 -4.7859907
-8.0854301 0.91543406 -4.7844625
-8.0859222 0.95541513 -4.7852082
-8.4110279 1.2675571 -4.7531657
-8.6125546 1.2725668 -4.7295122
-8.6521683 1.2772429 -4.724937
-8.7275333 1.2724813 -4.7159581
-8.8067589 1.2818335 -4.7068076
-8.8711262 1.2822082 -4.6992283
-8.910677 1.2818867 -4.6945596
-8.9685497 1.272172 -4.6875429
-9.0872955 1.2787037 -4.6736774
-9.1627226 1.2789398 -4.6647916
-9.2059813 1.280238 -4.659719
-9.2528858 1.2781583 -4.6541486
-9.2814388 1.2829728 -4.6508799
-9.4037704 1.2811292 -4.6364236
-9.454381 1.2806692 -4.6304483
-9.529808 1.2809054 -4.621563
-9.5693903 1.2830826 -4.616941
-1.071744 1.438104 -5.6216822
-0.95296288 1.438781 -5.6356964
-0.86726809 1.4316406 -5.6456537
-0.82321882 1.4285208 -5.6507831
-0.79719925 1.4282256 -5.6538439
-0.75123692 1.4262702 -5.6592221
-0.7442131 1.4261626 -5.660048
-0.71111584 1.4276075 -5.6639781
-0.66924763 1.4277724 -5.6689167
-0.55051661 1.4284307 -5.6829247
-0.51307487 1.4278495 -5.6873264
-0.4757061 1.4264437 -5.6917028
-0.43155718 1.4166348 -5.6967096
-0.41722679 1.4119028 -5.6983032
-3.5815198 1.3103569 -5.3232837
-3.4194231 1.2941983 -5.3420653
-3.3326206 1.2865862 -5.3521438
-3.2574358 1.2955291 -5.3611856
-3.1165164 1.3279568 -5.378448
-3.0088172 1.316731 -5.3909168
-3.0011399 1.3165209 -5.3918176
-2.9769711 1.319486 -5.3947258
-2.9221241 1.3266082 -5.4013338
-2.8696446 1.3259683 -5.4075069
-2.8584003 1.3271213 -5.4088554
-2.8265541 1.3298764 -5.4126644
-2.7466853 1.3463743 -5.4224105
-2.4070342 1.0181844 -5.4558454
-2.3918746 0.89708728 -5.4551969
-2.3751814 0.81486595 -5.4555106
-2.3746645 0.76489925 -5.454567
-2.3778481 0.73726439 -5.4536357
-2.9238822 0.57013732 -5.3859134
-2.9646282 0.60978025 -5.3819075
-2.9742541 0.52974582 -5.3791633
-2.9712839 0.44979751 -5.3779058
-2.9391584 0.44983536 -5.3816929
-2.3662186 0.33668682 -5.4469504
-2.3687816 0.21534085 -5.4442077
-2.3688147 0.19345298 -5.4437637
-2.3687553 0.13509397 -5.4425969
-2.3665638 0.073901772 -5.4416246
-2.3815789 -0.0065024756 -5.4382377
-2.9113111 -0.25600067 -5.37078
-2.9256592 -0.25665417 -5.3690758
-3.0407648 -0.29489079 -5.3547392
-3.5033925 -0.52692348 -5.2955427
-4.0253186 -0.4256182 -5.2360601
-4.0957108 -0.30604669 -5.2301679
-4.1096029 -0.22565667 -5.2301469
-4.1869497 -0.025079194 -5.2250638
-4.185442 0.01330745 -5.2260137
-4.1972303 0.44357392 -5.2332773
-4.1339116 0.50904751 -5.2420578
-4.1341925 0.55402005 -5.242929
-4.1663661 0.603733 -5.2401366
-4.1611977 1.0057778 -5.2488313
-3.9053388 1.2827107 -5.2845588
-3.7472758 1.297888 -5.3034954
-3.6682129 1.3004798 -5.3128667
-0.65115976 -1.2481896 -5.6172318
-0.60838985 -1.244276 -5.6223516
-0.68744659 -1.2572286 -5.6127725
-8.9263477 0.54703426 -4.6779337
-8.9417953 0.59688997 -4.6771154
-8.9803934 0.51910526 -4.6710019
-8.9800549 0.49161825 -4.6704888
-8.8714724 0.090797335 -4.6752267
-7.8465858 1.2996839 -4.820343
-7.7864604 1.2970433 -4.8273768
-7.6737051 1.3069853 -4.840867
-7.5085382 1.324599 -4.8606896
-7.5039039 1.3257638 -4.8612595
-7.4864473 1.3253399 -4.8633089
-7.3875761 1.3261322 -4.8749785
-7.2216573 1.3042763 -4.8940959
-7.1388531 1.3058422 -4.9038877
-7.0634632 1.3055443 -4.9127679
-6.8869143 1.3669716 -4.9348135
-6.7077107 1.3233898 -4.9550595
-6.6249986 1.3324516 -4.9649911
-6.5928965 1.3334037 -4.9687943
-6.5534091 1.3387182 -4.9735556
-6.5139227 1.3440326 -4.9783168
-6.4744353 1.3493471 -4.983078
-6.3880157 1.359341 -4.9934654
-6.3089185 1.3599749 -5.0028014
-6.2730465 1.3568614 -5.0069671
-6.2297597 1.3556113 -5.012044
-6.1468315 1.3471822 -5.0216494
-5.9853306 1.3818655 -5.0413833
-5.8575401 1.3438079 -5.0556803
-5.7982173 1.3424792 -5.0626464
-5.7901068 1.3427136 -5.0636067
-5.6754932 1.312573 -5.0765104
-5.6037807 1.3088446 -5.084888
-5.5814424 1.3051349 -5.0874467
-5.4626732 1.2978951 -5.1013002
-5.343966 1.2938486 -5.115211
-5.3211651 1.2958131 -5.117938
-5.277842 1.3044994 -5.1232195
-5.2102404 1.2986615 -5.1310701
-5.1630549 1.303495 -5.1367292
-5.040669 1.3147732 -5.1513815
-4.9972992 1.315964 -5.1565175
-4.9577756 1.3185091 -5.1612277
-4.8786817 1.3161038 -5.1705022
-4.7600799 1.3187422 -5.1845345
-4.7234449 1.3229275 -5.1889372
-4.6490927 1.3115966 -5.197473
-4.601892 1.3139317 -5.2030835
-4.5623684 1.3164768 -5.2077937
-4.5413117 1.3185122 -5.2103167
-4.5305223 1.3192319 -5.2116027
-4.5063372 1.3196985 -5.2144628
-4.4986601 1.3194885 -5.2153635
-4.4196281 1.3270772 -5.2248316
-4.336688 1.3233176 -5.2345324
-4.2092829 1.3643646 -5.2503753
-4.1673193 1.3719096 -5.2554731
-3.9365022 1.362763 -5.2824955
-3.9228723 1.3624228 -5.2840953
-3.8581252 1.3670582 -5.2918205
-3.8418612 1.3675046 -5.2937465
-3.7716331 1.3671601 -5.3020172
-3.7554462 1.3683189 -5.3039484
-3.6020606 1.3410163 -5.3214793
-3.5229042 1.3286172 -5.3305602
-3.4158728 1.3403151 -5.343411
-3.3839955 1.3380733 -5.3471236
-3.3087323 1.3345238 -5.3559237
-3.2615316 1.336859 -5.3615341
-3.1390676 1.3356447 -5.3759446
-3.0600204 1.3407348 -5.3853641
-3.0243275 1.3421357 -5.3895993
-2.86992 1.3693408 -5.4083467
-2.861295 1.3698334 -5.4093733
-2.7726824 1.3710774 -5.4198432
-2.7010999 1.3889749 -5.4286404
-2.6153529 1.3768377 -5.4385033
-2.5769343 1.3741149 -5.442977
-2.5373771 1.3747839 -5.4476533
-2.5336649 1.374805 -5.448091
-2.5005491 1.3735155 -5.4519687
-2.4301169 1.3656681 -5.4601126
-2.2639337 1.3763423 -5.4799156
-2.2583838 1.3765956 -5.4805746
-2.1367943 1.3582617 -5.4945378
-2.0639861 1.3538131 -5.5030303
-2.0211644 1.3527412 -5.5080562
-1.9420285 1.3581893 -5.5174937
-1.8628931 1.3636373 -5.5269308
-1.7773004 1.3664901 -5.537077
-1.6617999 1.3734614 -5.5508318
-1.61903 1.3773862 -5.5559516
-1.5604191 1.3815347 -5.5629439
-1.4238009 1.4235456 -5.5798917
-1.4091535 1.423555 -5.5816188
-1.3119164 1.4252919 -5.5931149
-1.2987428 1.4256625 -5.5946751
-1.1977935 1.4223948 -5.6065083
-1.1897693 1.4226621 -5.6074595
-8.4545336 1.2888458 -4.7484655
-8.4830551 1.2911617 -4.7451506
-8.5548677 1.2972745 -4.7368088
-8.5944805 1.3019506 -4.7322335
-8.6697845 1.2921914 -4.7231612
-8.752656 1.2981657 -4.7135134
-8.7898035 1.3084438 -4.7093415
-8.990057 1.303733 -4.6856427
-9.0287209 1.3061301 -4.6811333
-9.0298691 1.3058553 -4.6809926
-9.1931305 1.3033605 -4.6616988
-9.2326822 1.303039 -4.6570301
-9.2743635 1.3072205 -4.6522012
-9.3101768 1.3027804 -4.6478906
-9.323741 1.301821 -4.6462727
-9.4360914 1.2925613 -4.6328435
-9.479351 1.2938594 -4.6277709
-9.5547152 1.2890979 -4.6187916
-6.0552516 -0.0039460398 -5.005271
-6.0898571 -0.0042100474 -5.0011868
-6.4700747 0.097595125 -4.9584174
-6.5034657 0.53455633 -4.9632697
-6.5241966 0.57426125 -4.9616246
-6.565475 0.61481637 -4.9575748
-6.601809 0.65541106 -4.9541082
-6.6485243 0.73590636 -4.9502211
-6.7288532 0.93427974 -4.9447422
-6.3665423 1.3175179 -4.9951553
-6.2874765 1.3206505 -5.0045381
-6.2008715 1.3156519 -5.0146456
-6.165092 1.3200345 -5.0189509
-6.0389075 1.3128542 -5.03368
-5.967164 1.3066269 -5.0420113
-5.6603293 1.0256307 -5.0725269
-5.5999889 0.90604997 -5.0772343
-5.5785027 0.786327 -5.0773592
-5.5690961 0.70547622 -5.0768418
-5.5550079 0.66650736 -5.0777187
-5.5557542 0.42389205 -5.0727515
-5.5819569 0.3455185 -5.0680866
-5.5825748 0.34416044 -5.0679865
-5.6286764 0.2260946 -5.0601783
-7.1176572 1.2865076 -4.9059973
-6.7747827 0.89466077 -4.9385314
-6.7968311 0.73291361 -4.9326797
-6.8012815 0.69108993 -4.931314
-6.8106747 0.64922661 -4.9293647
-6.8442969 0.36907017 -4.9197674
-6.9891167 0.18458106 -4.8989873
-7.0281715 0.14428419 -4.8935733
-7.1658716 0.053691708 -4.8755207
-7.1804328 0.031089887 -4.8733497
-7.6880889 0.065268591 -4.8141994
-7.7335806 0.51868421 -4.817956
-7.6965747 0.55788052 -4.8231063
-7.7008739 0.60250252 -4.8234968
-7.7026811 0.61708736 -4.8235769
-7.7520046 0.64239818 -4.8182726
-7.8245244 0.70598376 -4.8110032
-7.8830018 1.0378839 -4.8107853
-7.639019 1.2655309 -4.8441219
-7.6032705 1.2724124 -4.848474
-7.4846249 1.2733632 -4.8624783
-7.4450455 1.2711816 -4.8670993
-7.3512411 1.2855376 -4.8784451
-7.3252869 1.2848436 -4.8814902
-7.3005695 1.2832376 -4.8843713
-7.284657 1.2830267 -4.8862429
-7.2436566 1.2786957 -4.8909883
-7.1966925 1.2808763 -4.8965678
-7.9976244 1.3151489 -4.8028507
-7.8750772 1.2995008 -4.8169808
-8.4149818 1.2891673 -4.7531343
-8.3965693 1.291064 -4.7553425
-8.3570786 1.2963831 -4.7601042
-8.3101444 1.2959641 -4.7656279
-8.2742691 1.2954067 -4.7698455
-8.2383938 1.294849 -4.7740631
-8.1630592 1.3021094 -4.7830887
-8.1161556 1.3041892 -4.7886591
-4.3981681 0.9630239 -5.2200394
-4.4415636 1.0043787 -5.2157564
-4.7791247 1.2955315 -5.1818233
-4.8939428 1.3015329 -5.1684103
-4.9805894 1.2841603 -5.1578474
-5.0634513 1.2754273 -5.1479049
-5.1387148 1.2789769 -5.1391048
-5.2215614 1.2677455 -5.1291142
-5.4462404 1.0654135 -5.0985618
-5.4751639 0.90795243 -5.0919857
-5.4593463 0.82811159 -5.0922446
-5.4229832 0.68415642 -5.0936356
-5.3326249 0.55646956 -5.1017179
-5.3309927 0.55504322 -5.101882
-5.3330445 0.5065468 -5.1006646
-5.3449411 0.46896663 -5.0985065
-5.4144464 0.38802898 -5.0886865
-5.4180603 0.048852362 -5.081439
-5.2459021 -0.1884647 -5.0969586
-5.1745639 -0.23043858 -5.1045232
-5.0041714 -0.27183765 -5.123775
-4.7372174 -0.079611555 -5.1591067
-4.7063608 -0.02809659 -5.1637802
-4.6735764 0.0096712448 -5.1684036
-4.548017 0.12015279 -5.1854258
-4.4990635 0.21258429 -5.1930547
-4.4768524 0.24244392 -5.1962733
-4.436451 0.28132775 -5.2018175
-4.3292713 0.44192767 -5.2176805
-4.305614 0.52247727 -5.2220888
-4.3020329 0.56359714 -5.2233381
0 0 0 1 0 0 0 1 0 0 0 1 0 0 0 0 0 595 1 0 0
