ply
format ascii 1.0
comment PCL generated
element vertex 738
property float x
property float y
property float z
element camera 1
property float view_px
property float view_py
property float view_pz
property float x_axisx
property float x_axisy
property float x_axisz
property float y_axisx
property float y_axisy
property float y_axisz
property float z_axisx
property float z_axisy
property float z_axisz
property float focal
property float scalex
property float scaley
property float centerx
property float centery
property int viewportx
property int viewporty
property float k1
property float k2
end_header
-11.878441 0.066814356 -4.3748813
-11.875459 0.11046324 -4.3733025
-11.707553 0.51074821 -4.3598199
-11.719233 0.56028217 -4.3579216
-11.679588 0.62788427 -4.3557248
-11.637096 0.59275788 -4.3573132
-11.636438 0.56885928 -4.3581939
-11.630244 0.47543284 -4.3616619
-11.647553 0.40880743 -4.3639812
-11.673748 0.19567591 -4.3716078
-11.653083 0.12976924 -4.3741693
-11.675898 0.030150019 -4.3776593
-11.676529 0.021350771 -4.3779774
-11.195641 -0.27472553 -4.3922343
-11.155157 -0.24814183 -4.3915462
-11.075512 -0.20508227 -4.390532
-10.996349 -0.20602399 -4.3911271
-10.925916 -0.24519354 -4.3930616
-10.755612 -0.28634018 -4.3957753
-10.694209 -0.32593265 -4.3976612
-10.677324 -0.3370949 -4.39819
-10.636602 -0.40637514 -4.4010177
-10.473891 -0.59512287 -4.4090877
-10.233032 -0.88304794 -4.4213462
-10.071473 -1.0815763 -4.4297667
-9.894208 -1.1244793 -4.4325943
-9.8541918 -1.126592 -4.4329553
-9.7666111 -1.1357373 -4.4339104
-9.6259785 -1.1496489 -4.4354162
-9.5860043 -1.1468656 -4.4355974
-9.4260693 -1.1407262 -4.4365044
-9.1872196 -0.95363611 -4.4313383
-9.1577005 -0.67578912 -4.4213638
-9.1503506 -0.65576172 -4.4206815
-8.9673214 -0.39477819 -4.4124117
-8.8075323 -0.034087233 -4.4003229
-8.8312674 0.043577775 -4.3973083
-8.8381224 0.065672107 -4.39645
-8.839571 0.12337213 -4.3943248
-8.8194447 0.30911723 -4.3876591
-8.7950811 0.3106575 -4.3877754
-8.7379608 0.27047381 -4.3896527
-8.7158041 0.23881552 -4.3909698
-8.6807232 0.14840218 -4.3945322
-8.6803408 0.10845459 -4.395999
-8.6799564 0.068506993 -4.3974657
-8.6812992 0.045014314 -4.3983173
-8.6808968 0.0050812289 -4.3997841
-8.7949219 -0.048977993 -4.4009581
-8.9123306 -0.39438426 -4.412787
-8.8805027 -0.47125673 -4.4158297
-8.8703194 -0.49615228 -4.4168143
-8.5503426 -0.66644448 -4.4253216
-8.4704876 -0.64839447 -4.4252253
-8.4304934 -0.64810801 -4.425498
-8.3328438 -0.66988009 -4.4269872
-8.2832603 -0.71519661 -4.4289994
-7.771194 -0.43073297 -4.4221988
-7.7798214 -0.38762715 -4.4205575
-7.7807465 -0.31318936 -4.4178228
-7.7660646 -0.22231063 -4.4145956
-7.7670259 -0.10728993 -4.4103732
-7.7671137 -0.1023788 -4.4101925
-7.7672663 -0.06201601 -4.4087119
-7.7675486 -0.049862154 -4.4082646
-7.7680254 0.0025718734 -4.4063396
-7.7682886 0.017305203 -4.4057975
-7.7690973 0.076835059 -4.4036098
-7.7685099 0.098195992 -4.4028311
-7.7688732 0.13814574 -4.4013643
-7.7694345 0.15737712 -4.4006553
-7.7849598 0.3115899 -4.3948932
-7.8668742 0.55380946 -4.3854351
-7.9079919 0.67078596 -4.3808565
-7.8934455 0.79214722 -4.3765116
-7.895628 0.83345175 -4.3749819
-7.8968968 0.87368137 -4.3734984
-7.9729133 1.0724444 -4.365675
-8.2706871 1.2725393 -4.3562326
-8.2783613 1.2721249 -4.3561935
-8.3115788 1.2729416 -4.3559284
-8.4048462 1.2770357 -4.3551183
-8.4442215 1.2781187 -4.3547997
-8.5122833 1.2747076 -4.3544426
-8.551549 1.2732214 -4.3542194
-8.5908623 1.2767285 -4.3538122
-8.6041927 1.276971 -4.3537092
-8.644804 1.2753141 -4.3534822
-8.671545 1.2746096 -4.3533187
-8.7641096 1.268333 -4.3528934
-8.7839479 1.2660801 -4.3528357
-8.7939463 1.2659878 -4.3527679
-8.8715487 1.2777555 -4.3517876
-8.9101858 1.2851394 -4.351243
-8.9509249 1.2883835 -4.3508358
-9.030859 1.2826509 -4.3504801
-9.0829296 1.283758 -4.3500705
-9.0042915 1.2965728 -4.3501577
-8.9236317 1.2910262 -4.3509321
-8.8842564 1.2899432 -4.3512506
-8.7494488 1.2805073 -4.352551
-8.7241917 1.278607 -4.3527994
-8.6841793 1.2763972 -4.3531637
-8.6694183 1.2762529 -4.3532734
-8.6294518 1.279119 -4.3534517
-8.5901852 1.2806052 -4.3536749
-8.5629826 1.2824945 -4.3537984
-8.5230083 1.2852783 -4.3539796
-8.4695358 1.2855904 -4.3543468
-8.4295206 1.2834632 -4.3547077
-8.3636351 1.2825593 -4.3552074
-8.2695322 1.2824445 -4.3558779
-8.2042809 1.282337 -4.3563437
-8.153161 1.2866398 -4.3565483
-8.0849571 1.2868215 -4.3570242
-7.9048548 1.3543991 -4.3558226
-7.8845105 1.3553132 -4.3559332
-7.8713264 1.3565607 -4.3559809
-7.6658049 1.3373905 -4.3581386
-7.6191826 1.3353652 -4.3585429
-7.4560418 1.2897079 -4.3613715
-7.3760819 1.2929385 -4.3618193
-7.3443151 1.2977003 -4.3618698
-7.296123 1.2961687 -4.362267
-7.2561316 1.2965355 -4.3625369
-7.216116 1.2944055 -4.3628983
-7.1761246 1.2947721 -4.3631678
-7.1437411 1.2981492 -4.3632736
-7.1368494 1.2988055 -4.3632979
-7.0961647 1.2980026 -4.3636155
-7.0561733 1.2983694 -4.3638854
-7.0161819 1.2987361 -4.3641553
-6.9761429 1.2941093 -4.3646083
-6.9361515 1.294476 -4.3648777
-6.9037609 1.2975683 -4.364994
-6.8603024 1.2997299 -4.3652225
-6.8203111 1.3000966 -4.3654919
-6.7861686 1.298124 -4.3658061
-6.7396111 1.2971638 -4.3661709
-6.6996431 1.3000275 -4.3663487
-6.5064616 1.3710289 -4.3651142
-6.4842949 1.3704497 -4.3652925
-6.3050961 1.3071506 -4.3688812
-6.2639093 1.3076711 -4.369154
-6.1839018 1.305813 -4.3697886
-6.1463375 1.3107237 -4.3698745
-6.1039357 1.3089484 -4.3702397
-6.0651364 1.3090665 -4.3705101
-6.0163927 1.3079056 -4.3708978
-5.9463301 1.3073266 -4.3714151
-5.9063158 1.3051491 -4.3717785
-5.8657155 1.3043205 -4.3720961
-5.8239622 1.3086869 -4.372232
-5.7450871 1.299137 -4.3731403
-5.7063084 1.301752 -4.3733191
-5.6662946 1.2995746 -4.373682
-5.5839405 1.3031123 -4.3741355
-5.4770455 1.3026215 -4.3749104
-5.4245906 1.3029563 -4.3752694
-5.3863621 1.3043066 -4.3754907
-5.3163142 1.3005153 -4.3761258
-5.2753215 1.3041493 -4.3762827
-5.2645812 1.304318 -4.3763523
-5.2234139 1.3073353 -4.3765335
-5.1539812 1.30887 -4.3769689
-4.9937911 1.3498368 -4.3766012
-4.9694238 1.3491915 -4.3767977
-4.8359461 1.3141649 -4.3790264
-4.7970462 1.3145362 -4.3792882
-4.6765232 1.3184596 -4.3799977
-4.6333284 1.3191336 -4.3802791
-4.4745302 1.32586 -4.3811569
-4.4356632 1.3271953 -4.3813829
-4.3534842 1.3300484 -4.3818603
-4.3135009 1.3301809 -4.3821387
-4.2757187 1.3252279 -4.3825874
-4.2365904 1.3245955 -4.3828878
-4.1568947 1.3293248 -4.3832788
-4.0736003 1.3309753 -4.3838081
-4.0358286 1.3285193 -4.3841658
-3.9969411 1.3248606 -4.3845749
-3.9555228 1.3225565 -4.3849525
-3.9169743 1.3251253 -4.3851314
-3.8736734 1.3291403 -4.3852911
-3.8347859 1.3254814 -4.3857002
-3.7559547 1.3319432 -4.3860216
-3.7137496 1.3321668 -4.3863125
-3.5937901 1.330067 -4.3872385
-3.5560179 1.3276112 -4.3875961
-3.5127075 1.329129 -4.3878469
-3.4738398 1.3304642 -4.3880734
-3.4338465 1.3280997 -4.388443
-3.3572266 1.331973 -4.3888435
-3.3161571 1.3383936 -4.3888993
-3.2339787 1.3412467 -4.3893766
-3.1151047 1.3328586 -4.3905258
-3.0340519 1.3394117 -4.3908591
-2.9540653 1.3346825 -4.3915992
-2.9131582 1.3369465 -4.3918056
-2.8729928 1.3362414 -4.3921161
-2.8329897 1.3313799 -4.3925772
-2.7027764 1.3019135 -4.3945794
-2.6306469 1.3062239 -4.3949318
-2.5906668 1.3065391 -4.3952036
-2.5107062 1.3071693 -4.3957467
-2.4354584 1.3037293 -4.3964052
-2.3907866 1.3106123 -4.3964696
-2.3543408 1.3078747 -4.3968277
-2.3155596 1.3096699 -4.3970366
-2.2720027 1.308043 -4.3974047
-2.2242205 1.3088115 -4.3977146
-2.1943989 1.3066381 -4.3980055
-2.1508629 1.3075086 -4.3982821
-2.0756364 1.306566 -4.398849
-2.035656 1.3068812 -4.3991208
-1.990942 1.3087695 -4.3993678
-1.9545381 1.3110266 -4.3995433
-1.9157991 1.3178165 -4.3995686
-1.8334823 1.3204821 -4.4000535
-1.7911034 1.3178377 -4.4004507
-1.7558575 1.3165798 -4.4007463
-1.7385573 1.3170686 -4.4008508
-1.711143 1.3184681 -4.4009938
-1.6759176 1.3197076 -4.4011974
-1.6586127 1.3200597 -4.4013071
-1.5900664 1.3254261 -4.4015961
-1.5560188 1.325648 -4.4018288
-1.5101271 1.3285538 -4.4020472
-1.4313235 1.3256692 -4.4027109
-1.3960772 1.3244114 -4.4030066
-1.354918 1.3257442 -4.4032493
-1.3102045 1.3276324 -4.4034967
-1.2702241 1.3279476 -4.4037681
-1.2349567 1.3241923 -4.4041553
-1.2188249 1.3227751 -4.4043217
-1.1788273 1.3205246 -4.4046874
-1.1114602 1.3256932 -4.4049749
-1.0588856 1.3212651 -4.4055095
-0.99149847 1.3241414 -4.4058809
-0.95151806 1.3244566 -4.4061527
-0.91627216 1.3231987 -4.4064484
-0.87157917 1.3275844 -4.4066038
-0.75418329 1.3489717 -4.4066515
-0.67548418 1.3585742 -4.4068565
-0.55324364 1.383265 -4.406817
-0.51518393 1.385318 -4.4070115
-0.47703362 1.3915991 -4.4070511
-0.45708275 1.3967508 -4.4070034
-0.37592316 1.3959014 -4.4076095
-0.31615353 1.3904154 -4.4082336
-0.28748894 1.39165 -4.4083915
-0.17696953 1.3689879 -4.4100046
-0.13694715 1.3643082 -4.4104595
-0.090992451 1.3597218 -4.410953
-0.05844593 1.3524855 -4.4114485
-0.086760044 1.3389391 -4.4117446
-0.13001966 1.340417 -4.4113841
-0.16675568 1.346176 -4.410913
-0.16893625 1.3464139 -4.4108887
-0.24673319 1.348418 -4.4102645
-0.28674412 1.3557825 -4.4097114
-0.32673788 1.3581523 -4.4093413
-0.40674305 1.3678863 -4.4084182
-0.44673586 1.3702561 -4.4080482
-0.48970032 1.3675774 -4.4078422
-0.5906229 1.340798 -4.4081087
-0.62153959 1.3343496 -4.4081264
-0.71643353 1.3322669 -4.4075308
-0.77903748 1.3254906 -4.4073358
-0.86369801 1.3182636 -4.4070015
-0.9024663 1.314081 -4.4068804
-0.98355675 1.3050361 -4.4066377
-1.0623388 1.3056014 -4.4060593
-1.1035652 1.314285 -4.4054489
-1.1961126 1.318495 -4.4046392
-1.2223287 1.3146034 -4.4045963
-1.261147 1.3179129 -4.4042001
-1.3011274 1.3176662 -4.4039259
-1.3823013 1.3211082 -4.4032254
-1.4234776 1.3222998 -4.4028902
-1.4587092 1.3212938 -4.4026775
-1.498673 1.3185496 -4.4024949
-1.5422244 1.3201208 -4.4021292
-1.6197777 1.3142527 -4.4017949
-1.632319 1.3130858 -4.4017491
-1.700901 1.3102028 -4.4013691
-1.742044 1.3063996 -4.401217
-1.7820582 1.3111476 -4.4007597
-1.8619862 1.3056589 -4.4003949
-1.9407687 1.3062242 -4.3998165
-1.9783745 1.3055978 -4.3995733
-2.0183387 1.3028536 -4.3993907
-2.0583193 1.3026067 -4.399117
-2.1006746 1.3027393 -4.3988123
-2.1382637 1.2996156 -4.3986607
-2.1955562 1.303123 -4.3981261
-2.2194378 1.3030578 -4.3979597
-2.2641675 1.3035699 -4.397624
-2.3417208 1.2977018 -4.3972902
-2.3805225 1.298514 -4.3969855
-2.418129 1.2978877 -4.3967423
-2.4753551 1.2934244 -4.3965006
-2.503968 1.2896018 -4.3964381
-2.5827672 1.2926643 -4.3957682
-2.6602871 1.2818016 -4.3956175
-2.7814081 1.280002 -4.3948255
-2.8501954 1.280629 -4.3943157
-2.8751831 1.2804748 -4.3941445
-2.9155269 1.2803013 -4.3938651
-2.9549639 1.2809514 -4.3935618
-2.9963498 1.2829082 -4.3931971
-3.0760512 1.2787718 -4.3927846
-3.1165905 1.2775532 -4.3925424
-3.3166275 1.2743977 -4.3912416
-3.7050986 0.95498067 -4.4001985
-3.7546644 0.83518767 -4.4042382
-3.914571 0.56873053 -4.4128723
-3.9147344 0.55332839 -4.4134355
-3.9531679 0.31278631 -4.4219799
-3.8984454 0.15421066 -4.4281797
-3.8451166 -0.27886072 -4.4444304
-3.8143857 -0.38854444 -4.448668
-3.8035929 -0.4676528 -4.4516439
-3.8034248 -0.47480831 -4.4519076
-3.8475142 -0.66848212 -4.458694
-3.8269825 -0.74826425 -4.4617639
-3.740278 -0.94640911 -4.4696403
-3.5077775 -1.0616322 -4.4755096
-3.4677942 -1.0615044 -4.4757881
-3.4256086 -1.0563235 -4.4758968
-3.3878369 -1.0587519 -4.476253
-3.3456321 -1.0585651 -4.4765453
-3.3078699 -1.0584967 -4.47681
-3.2678866 -1.058369 -4.4770885
-3.1879101 -1.0606107 -4.4777369
-3.147927 -1.0604831 -4.4780154
-3.06796 -1.0602278 -4.4785719
-3.0507448 -1.0601207 -4.4786901
-3.0263083 -1.06068 -4.4788837
-2.9879837 -1.0624694 -4.4792204
-2.9463415 -1.0604247 -4.4794402
-2.9080071 -1.0647112 -4.4798689
-2.883184 -1.0651343 -4.4800601
-2.8420074 -1.066305 -4.4803948
-2.8258097 -1.0668938 -4.4805307
-2.7620289 -1.0682994 -4.4810338
-2.7220483 -1.0680478 -4.481308
-2.6420529 -1.0725394 -4.482039
-2.6020892 -1.0697905 -4.4822211
-2.5621257 -1.0670415 -4.4824033
-2.5221617 -1.0642926 -4.4825854
-2.4821815 -1.064041 -4.4828596
-2.40222 -1.063538 -4.483407
-2.3622222 -1.0657839 -4.4837728
-2.3221903 -1.0730243 -4.4843216
-2.2421777 -1.0800133 -4.4851441
-2.2021461 -1.0872538 -4.485693
-2.1658709 -1.0932692 -4.4861703
-2.1221163 -1.0967401 -4.4866071
-2.0821359 -1.0964886 -4.4868813
-2.0021403 -1.1009803 -4.4876122
-1.9221106 -1.1104666 -4.4885263
-1.8820958 -1.1152097 -4.4889836
-1.8420644 -1.1224504 -4.4895325
-1.7219687 -1.144172 -4.491179
-1.6019239 -1.1584016 -4.4925504
-1.5493813 -1.1680607 -4.4932766
-1.5218601 -1.1728826 -4.4936481
-1.4418306 -1.1823689 -4.4945626
-1.3217864 -1.1965985 -4.495934
-1.2818055 -1.1963469 -4.4962077
-1.2418079 -1.1985927 -4.4965734
-1.2018094 -1.2008384 -4.4969387
-1.1618295 -1.2005868 -4.4972129
-1.0818334 -1.2050786 -4.4979439
-1.0418701 -1.2023296 -4.498126
-0.96192598 -1.1993291 -4.4985819
-0.92194557 -1.1990775 -4.4988561
-0.84200096 -1.196077 -4.4993119
-0.80198574 -1.2008202 -4.4997692
-0.68512154 -1.2053847 -4.5007639
-0.64206362 -1.199814 -4.5008645
-0.60206556 -1.2020597 -4.5012302
-0.56208515 -1.2018082 -4.5015039
-0.52212143 -1.1990592 -4.5016861
-0.46224976 -1.1849602 -4.5015931
-0.42497158 -1.1999756 -4.5024076
-0.024477482 -0.94348854 -4.4958425
-0.018409729 -0.90230477 -4.4943757
-0.022068977 -0.82362527 -4.491466
-0.02296114 -0.70744777 -4.4872017
-0.021891117 -0.66626495 -4.4856997
-0.020553112 -0.58758456 -4.4828253
-0.017313004 -0.50399029 -4.4797845
-0.020942211 -0.46526507 -4.4783392
-0.023171902 -0.42776793 -4.4769492
-0.017104626 -0.38658425 -4.4754825
-0.00018024445 -0.35932985 -4.4746037
0.022028923 -0.35705611 -4.4746776
0.026958466 -0.39482468 -4.4760966
0.0003900528 -0.5169962 -4.4803863
-0.0075082779 -0.60020202 -4.4833803
0.0075612068 -0.71567291 -4.4877191
-0.00061845779 -0.79671347 -4.4906316
0.0032024384 -0.83557069 -4.4920831
0.0025196075 -0.91657513 -4.4950471
0.0063405037 -0.95543236 -4.4964981
-0.0032291412 -1.0353963 -4.4993615
-0.008014679 -1.0753784 -4.500793
-0.017234325 -1.1197149 -4.5023527
-0.024245262 -1.1569993 -4.5036697
-0.032893658 -1.184444 -4.5046144
-0.041484833 -1.1931651 -4.5048733
-0.0814538 -1.2131491 -4.5053225
-0.12143183 -1.2206471 -4.5053144
-0.45445013 -1.2401201 -4.5036702
-0.49445343 -1.2379574 -4.5033078
-0.53443289 -1.2382914 -4.503037
-0.57439041 -1.241122 -4.5028577
-0.61434793 -1.2439528 -4.5026784
-0.7343111 -1.2424581 -4.5017743
-0.81424809 -1.2456229 -4.5013247
-0.8542285 -1.2459568 -4.5010538
-0.93412018 -1.2541149 -4.5007868
-0.97407722 -1.2569455 -4.500608
-1.0140343 -1.259776 -4.5004287
-1.092844 -1.2565283 -4.4997516
-1.1328468 -1.2543657 -4.4993892
-1.1728268 -1.2546996 -4.4991183
-1.2128072 -1.2550336 -4.4988475
-1.2527871 -1.2553676 -4.4985766
-1.3339896 -1.2499648 -4.4978037
-1.3590455 -1.2426835 -4.4973593
-1.4141326 -1.2306596 -4.4965286
-1.4918146 -1.2209991 -4.4956245
-1.5341873 -1.2191782 -4.4952579
-1.5730395 -1.2130997 -4.49476
-1.6142616 -1.207363 -4.4942579
-1.6342745 -1.2050333 -4.4940305
-1.6542873 -1.2027037 -4.4938035
-1.7343163 -1.1958816 -4.4929867
-1.7743645 -1.1887258 -4.4924412
-1.8945336 -1.1647612 -4.4907117
-2.0145655 -1.1557765 -4.4895325
-2.0545454 -1.1561105 -4.4892616
-2.094594 -1.1489546 -4.4887161
-2.13462 -1.1442952 -4.4882617
-2.1746457 -1.139636 -4.4878078
-2.2547429 -1.125324 -4.4867158
-2.3347719 -1.118502 -4.4858994
-2.3748431 -1.1088494 -4.4852619
-2.4548492 -1.104524 -4.4845366
-2.5347638 -1.1101854 -4.4841785
-2.614701 -1.11335 -4.4837284
-2.6546812 -1.1136842 -4.4834576
-2.7346642 -1.1118554 -4.4828243
-2.774667 -1.1096927 -4.4824619
-2.8535225 -1.1014516 -4.4816012
-2.894676 -1.1032048 -4.4813743
-3.0395086 -1.0666083 -4.4790072
-3.0810332 -1.0686859 -4.4787893
-3.159514 -1.0649112 -4.4780955
-3.1995106 -1.065178 -4.4778223
-3.2395067 -1.0654448 -4.4775486
-3.2810147 -1.0700198 -4.4774222
-3.3606296 -1.0694764 -4.4768391
-3.4006424 -1.0672457 -4.4764738
-3.4402442 -1.0689328 -4.4762554
-3.4606371 -1.0676458 -4.4760637
-3.5209928 -1.0716205 -4.4757819
-3.7239192 -1.1034977 -4.4755135
-3.774585 -1.1075506 -4.4753032
-3.7997718 -1.1082557 -4.4751511
-3.9209557 -1.0742885 -4.4730477
-3.9605911 -1.0709808 -4.4726462
-4.0398779 -1.0618683 -4.4717507
-4.0794792 -1.0635554 -4.4715319
-4.1194758 -1.063822 -4.4712586
-4.1475215 -1.0611776 -4.470963
-4.2274885 -1.0614331 -4.4704065
-4.2398591 -1.0632021 -4.4703836
-4.2798719 -1.0609715 -4.4700184
-4.3463326 -1.0605379 -4.469532
-4.4006338 -1.0614287 -4.4691801
-4.4398403 -1.0645361 -4.4690166
-4.5211768 -1.0765333 -4.4688802
-4.617763 -1.1153239 -4.4696183
-4.640521 -1.1162145 -4.4694896
-4.6677589 -1.1156573 -4.4692764
-4.8010859 -1.1062083 -4.4679861
-4.8407378 -1.1004033 -4.4674926
-5.0010672 -1.1075423 -4.466619
-5.2061114 -1.1297711 -4.465982
-5.2461267 -1.1276082 -4.4656196
-5.2872872 -1.1263795 -4.4652829
-5.3272591 -1.1292086 -4.4651036
-5.3672528 -1.1295415 -4.4648328
-5.4072895 -1.1248827 -4.4643784
-5.4473047 -1.1227199 -4.464016
-5.4861312 -1.1246147 -4.4638104
-5.5272703 -1.1258819 -4.4635653
-5.5672636 -1.126215 -4.4632945
-5.6072354 -1.1290441 -4.4631152
-5.7272158 -1.1300433 -4.4623022
-5.8072033 -1.1307094 -4.4617605
-5.8471966 -1.1310425 -4.4614897
-5.8866501 -1.1271645 -4.4610682
-6.0070839 -1.1423584 -4.460772
-6.0738554 -1.1588348 -4.4609032
-6.127151 -1.1333739 -4.4595928
-6.2373762 -1.1138362 -4.458096
-6.2872987 -1.1147386 -4.4577761
-6.3187084 -1.1171823 -4.457643
-6.3672643 -1.1179007 -4.4573255
-6.4379635 -1.1219081 -4.4569716
-6.4789405 -1.131815 -4.4570446
-6.5174141 -1.1291924 -4.4566765
-6.5574484 -1.1296262 -4.4564085
-6.6367993 -1.1290895 -4.4558272
-6.6571746 -1.1300087 -4.4557166
-6.7396169 -1.1309862 -4.4551687
-6.7667618 -1.1301433 -4.4549456
-6.9009671 -1.1289092 -4.4539504
-6.9262791 -1.1300821 -4.453814
-7.0755558 -1.1510279 -4.4535246
-7.1663847 -1.173516 -4.4537058
-7.1836357 -1.1729114 -4.4535618
-7.2058158 -1.1721342 -4.4533763
-7.2230673 -1.1715294 -4.4532318
-7.286365 -1.1745154 -4.4528928
-7.4064879 -1.1964468 -4.4528465
-7.4465032 -1.1942838 -4.4524837
-7.4859347 -1.1929018 -4.4521537
-7.5265121 -1.192454 -4.4518499
-7.5664835 -1.1952831 -4.4516706
-7.6519942 -1.1907864 -4.4509006
-7.7873869 -1.1931711 -4.4500294
-7.834877 -1.1936262 -4.4497099
-7.972023 -1.1582544 -4.4474421
-8.0099602 -1.155892 -4.4470873
-8.0892162 -1.1599028 -4.4466729
-8.1312618 -1.1630312 -4.4464898
-8.2106171 -1.1570587 -4.4457092
-8.2885971 -1.1500878 -4.4449015
-8.4110985 -1.1756961 -4.4449725
-8.4504147 -1.174332 -4.4446445
-8.5704126 -1.1729854 -4.4437451
-8.6103287 -1.1808561 -4.4437513
-8.7296257 -1.1802582 -4.4428844
-8.8090572 -1.166798 -4.4418287
-8.9299593 -1.1447363 -4.4401641
-9.1697807 -1.1595138 -4.4390078
-9.209095 -1.1581497 -4.4386797
-9.328968 -1.1692823 -4.4382386
-9.4088755 -1.1775358 -4.4379754
-9.5686636 -1.1965389 -4.4375405
-9.7734289 -1.2031962 -4.4363346
-9.9957542 -1.2178062 -4.4352961
-10.028247 -1.2181174 -4.4350777
-10.073236 -1.2185484 -4.4347749
-10.173193 -1.1528677 -4.4316597
-10.463891 -1.0845797 -4.4270983
-10.589624 -1.1278825 -4.4277954
-10.629699 -1.1232765 -4.4273429
-10.869665 -1.1175404 -4.4254336
-10.909678 -1.1153497 -4.4250698
-11.311587 -1.0059484 -4.4182143
-11.350588 -0.90517068 -4.4142447
-11.355726 -0.8877306 -4.413569
-11.431786 -0.75347143 -4.4081097
-11.437141 -0.57133639 -4.4013958
-11.366093 -0.52823317 -4.4003191
-11.249519 -0.3262729 -4.3937421
-11.690596 -0.0074183717 -4.3789325
-11.738087 -0.0077818297 -4.3786092
-11.756662 -0.0099603161 -4.3785577
-11.796957 -0.010838892 -4.3783045
-11.870131 -0.012702178 -4.3778548
-11.878597 0.0259642 -4.3763776
-11.201847 1.3132449 -4.3339872
-11.161821 1.3198115 -4.3340297
-11.081837 1.3201934 -4.3345823
-11.040445 1.3257303 -4.3346725
-10.987904 1.3159944 -4.3354011
-10.922483 1.3020562 -4.3363752
-10.841794 1.3038628 -4.3368802
-10.761181 1.3206497 -4.3368359
-10.641216 1.3237196 -4.3375726
-10.593688 1.3164563 -4.3381753
-10.481876 1.308079 -4.3392739
-10.361848 1.2986653 -4.3404689
-10.482556 1.301661 -4.3395047
-10.561834 1.3027035 -4.3389049
-10.60184 1.3050091 -4.3385372
-10.68117 1.3160384 -4.3375711
-10.722178 1.3137995 -4.3373632
-11.240265 1.2973113 -4.3342991
-11.580091 1.1954461 -4.3356266
-11.220353 1.230051 -4.3369055
-11.182731 1.2103088 -4.3378954
-10.962463 1.2993684 -4.3361907
-10.921046 1.2999119 -4.3364639
-3.9954042 0.67729127 -4.4083209
-3.955596 0.75235015 -4.4058518
-4.0768003 1.2317029 -4.387424
-4.3164926 1.2919225 -4.3835196
-4.4366403 1.2934402 -4.3826132
-4.5164747 1.2939012 -4.3820314
-4.8146172 1.0313746 -4.3895426
-4.8977151 0.90995139 -4.3934045
-4.9124126 0.87011153 -4.3947606
-4.9116626 0.64521974 -4.4030089
-4.9111195 0.630804 -4.4035411
-5.1545148 0.75115424 -4.3974066
-5.1542091 0.75178134 -4.3973861
-5.1955838 1.2265687 -4.3796906
-5.3403153 1.2812085 -4.3766632
-5.4203224 1.2829717 -4.3760324
-5.5402021 1.2718841 -4.3755898
-5.6602478 1.2782743 -4.3745055
-5.7383413 1.2940068 -4.3733759
-5.7797194 1.2959791 -4.3730106
-5.8176556 1.2946007 -4.3727927
-5.8570013 1.298058 -4.3723874
-5.8776898 1.2990441 -4.3722048
-5.8963237 1.2990186 -4.3720737
-6.0153389 1.292497 -4.37147
-6.0202956 1.2925342 -4.3714337
-6.1376829 1.3016537 -4.3702683
-6.1404071 1.3013382 -4.3702607
-6.1783199 1.2974628 -4.3701344
-6.1796818 1.2973051 -4.3701301
-6.217618 1.2959266 -4.3699121
-6.2576098 1.2955598 -4.3696423
-6.2994838 1.2914599 -4.3694963
-6.3782063 1.2881384 -4.3690605
-6.5352292 0.76085013 -4.3872752
-6.4882135 0.69150907 -4.3901496
-6.4609203 0.56925839 -4.3948236
-6.057467 0.25562957 -4.4091759
-6.0491595 0.25855103 -4.4091272
-6.0177188 0.26301783 -4.4091864
-5.9777665 0.26833078 -4.4092746
-5.9491568 0.25697118 -4.4098935
-5.9536476 0.1959331 -4.4120989
-5.9676704 0.095689289 -4.4156737
-5.5659513 -0.24252903 -4.4309144
-5.4059596 -0.18262237 -4.4298515
-5.3189936 -0.20065379 -4.4311285
-5.1251044 -0.21389744 -4.4329867
-5.1103892 -0.21025661 -4.4329572
-5.0450115 -0.22834805 -4.4340835
-5.0249634 -0.23570672 -4.434495
-4.9654913 -0.27242365 -4.4362617
-4.5670848 -0.15203661 -4.43467
-4.5667849 -0.19698906 -4.4363198
-4.6421466 -0.66022074 -4.452765
-4.1242733 -0.57615042 -4.4533501
-4.045475 -0.3932423 -4.4472041
-4.0079093 0.02509328 -4.432137
-4.0082426 0.075040452 -4.4303041
-4.011693 0.23271903 -4.4245005
-4.0124536 0.51242137 -4.4142432
-3.9953704 0.66480464 -4.4087787
-3.9956288 0.6718089 -4.4085202
-7.7597513 0.75762928 -4.3787231
-7.74823 0.71494484 -4.3803692
-7.7247467 0.60280699 -4.3846459
-7.7045636 0.5573619 -4.3864541
-7.638237 0.43701729 -4.391335
-7.5784855 0.37540513 -4.3940163
-7.5633855 0.36304075 -4.3945761
-7.5371451 0.28469113 -4.3976336
-7.53123 0.24613094 -4.3990889
-7.5205736 0.16631261 -4.4020901
-7.5563412 0.12501481 -4.4033504
-7.3647461 -0.36345083 -4.4226103
-7.3021235 -0.37788317 -4.423583
-7.0015936 -0.48865789 -4.4297709
-6.9872489 -0.49234477 -4.4300075
-6.9451814 -0.56924951 -4.4331241
-6.7194939 -0.72340077 -4.440372
-6.6444645 -0.72773588 -4.4410625
-6.3809071 -0.24993339 -4.4254155
-6.4471889 -0.10818322 -4.4197512
-6.4623446 -0.090836935 -4.4190078
-6.568387 -0.012520336 -4.4153867
-6.6341796 0.18864027 -4.4075475
-6.651608 0.3268013 -4.4023604
-6.6519866 0.36675069 -4.4008932
-6.6522727 0.37890306 -4.4004459
-6.630796 0.48647347 -4.3966551
-6.626555 0.56641811 -4.393755
-6.6323123 0.64627111 -4.3907876
-6.6001978 0.68651849 -4.3895397
-6.5752058 0.72744381 -4.3882165
-10.074808 1.2622675 -4.3438354
-10.122665 1.3108705 -4.3417153
-10.281838 1.294054 -4.3412046
-10.322561 1.2974317 -4.3407922
-10.194055 1.2600421 -4.3430729
-2.8275399 -0.32399705 -4.4532895
-2.867533 -0.32162768 -4.4529195
-2.8849587 -0.33916277 -4.4534388
-2.9072299 -0.39666632 -4.455389
-2.8028519 -0.3716259 -4.4552102
-9.1229048 1.2809744 -4.3498898
-9.2307901 1.2783068 -4.3492236
-9.2829142 1.2848202 -4.3486156
-9.2301369 1.2846802 -4.3489947
-9.2029285 1.2853941 -4.3491611
-7.7623639 0.7623716 -4.378531
-7.7868042 0.79639471 -4.377111
-7.5405912 1.267199 -4.361598
-7.5059042 1.2748984 -4.3615613
-7.4193497 1.2784445 -4.3620443
-7.4007158 1.27847 -4.3621755
-7.3793573 1.2788112 -4.3623137
-7.3393898 1.2816749 -4.3624921
-7.3000674 1.2807144 -4.3628058
-7.2260127 1.2846241 -4.3631868
-7.2186623 1.2842684 -4.3632517
-7.1859989 1.2824465 -4.3635497
-7.1459846 1.2802691 -4.3639131
-7.1000624 1.2775545 -4.3643374
-7.0594015 1.2792487 -4.3645635
-7.0260053 1.2812271 -4.3647275
-7.0180717 1.2822701 -4.3647451
-6.971055 1.2866597 -4.3649173
-6.8980732 1.2808737 -4.3656459
-6.816082 1.2855891 -4.3660536
-6.7842646 1.2846932 -4.366312
-6.7360516 1.2813289 -4.3667765
-8.2599602 -0.79484731 -4.4320836
-7.8673477 -1.0785255 -4.445261
-7.7556739 -1.0151922 -4.4437304
-7.7376184 -0.5377419 -4.4263587
-8.2596855 -0.75316715 -4.4305582
0 0 0 1 0 0 0 1 0 0 0 1 0 0 0 0 0 738 1 0 0
