ply
format ascii 1.0
comment PCL generated
element vertex 457
property float x
property float y
property float z
element camera 1
property float view_px
property float view_py
property float view_pz
property float x_axisx
property float x_axisy
property float x_axisz
property float y_axisx
property float y_axisy
property float y_axisz
property float z_axisx
property float z_axisy
property float z_axisz
property float focal
property float scalex
property float scaley
property float centerx
property float centery
property int viewportx
property int viewporty
property float k1
property float k2
end_header
-0.95888686 -1.2245395 2.2384701
-1.0359797 -1.2252505 2.2547586
-1.0913744 -1.2057744 2.2670162
-1.1799123 -1.1304182 2.2878327
-1.2839425 -1.0923474 2.3108935
-1.4781621 -1.1097395 2.3514967
-1.548836 -1.1283941 2.3659303
-1.748019 -1.1547004 2.4073365
-1.7933254 -1.1541746 2.4169352
-1.9089644 -1.155241 2.4413676
-1.961031 -1.1538337 2.4524207
-2.0766699 -1.1549001 2.4768534
-2.1889136 -1.1364202 2.5011091
-2.4235244 -1.0756527 2.5524216
-2.5276573 -1.0728383 2.5745275
-2.6047502 -1.0735494 2.590816
-2.6297762 -1.0756675 2.5960512
-2.6568222 -1.0796372 2.6016626
-2.6886065 -1.0783757 2.6084211
-2.8357201 -1.0505929 2.6403108
-2.867476 -1.049778 2.6470511
-2.9445612 -1.0505291 2.6633368
-2.9898849 -1.0495975 2.6729503
-3.0987158 -1.0445386 2.6961124
-3.1440554 -1.0510999 2.7055216
-3.2211244 -1.0443581 2.7220116
-3.2596464 -1.0347432 2.7304265
-3.3752108 -1.0058981 2.755672
-3.5994434 -0.89456743 2.8061898
-3.6430299 -0.87398154 2.8159802
-3.6792855 -0.79484117 2.8258417
-3.6408308 -0.63453513 2.8221476
-3.6385436 -0.55501926 2.8238664
-4.2163067 -0.47591424 2.9482768
-4.2161093 -0.81568301 2.9388235
-4.213407 -0.82101852 2.9381039
0.88827515 0.093940206 1.8842461
0.89998722 0.1948296 1.8845632
0.90890217 0.089532048 1.8797606
0.91202688 0.071764335 1.8786075
0.89717293 -0.0088588819 1.8795164
0.89529753 -0.12433646 1.8767145
0.87942553 -0.23153615 1.8771025
0.88012981 -0.28483081 1.8754773
0.87726068 -0.30453995 1.8755382
0.85963392 -0.34955242 1.8780202
0.80221224 -0.6497581 1.8818514
0.79851818 -0.67438465 1.8819506
0.71929693 -1.1256748 1.8862083
0.37137079 -1.1953493 1.9578781
0.3256855 -1.152868 1.9687189
0.20964813 -1.0872966 1.9950817
0.087131977 -1.0785532 2.0212407
0.010079861 -1.0798111 2.0375054
-0.042185783 -1.079167 2.0485795
-0.17152023 -1.0772824 2.0759909
-0.40746021 -1.1665124 2.1234295
-0.41379786 -1.165686 2.1247931
-0.47397518 -1.1486135 2.1379957
-0.55308199 -1.1436808 2.1548667
-0.60989428 -1.1470357 2.1667917
-0.6349206 -1.1491539 2.1720271
-0.67346692 -1.1495094 2.1801713
-0.71877337 -1.1489835 2.1897697
-0.75731969 -1.149339 2.1979141
-0.9173677 -1.2045826 2.2302401
-9.3012857 0.39753556 4.04814
-9.3988934 0.47649822 4.0709748
-9.4996243 0.51588541 4.0933743
-9.4988441 0.27599469 4.0865645
-9.5370331 0.14105806 4.0909052
-9.5360661 0.035586402 4.087779
-9.4970655 0.021431603 4.0791368
-9.4178352 -0.017905943 4.0612869
-9.2982864 -0.096987553 4.0338068
-9.0177708 -0.44240803 3.9648993
-9.017704 -0.49487001 3.9634318
-9.0176544 -0.53484118 3.9623141
-8.9791775 -0.55186218 3.9537032
-8.7794704 -0.68539017 3.907759
-8.740943 -0.74238217 3.8980303
-8.6676264 -0.77094918 3.8817296
-8.4677372 -1.0493724 3.831733
-8.4640541 -1.0910714 3.8297989
-8.4183025 -1.1202915 3.8193111
-8.3413982 -1.1143622 3.8032072
-8.2644873 -1.1134297 3.7869635
-8.194849 -1.104045 3.7724922
-7.9952908 -1.120158 3.7298317
-7.9183869 -1.1142287 3.7137277
-7.8414869 -1.1058016 3.6976938
-7.639627 -1.1197958 3.6546052
-7.5963655 -1.119271 3.6454682
-7.4510655 -1.079432 3.6158352
-7.2838664 -1.0482664 3.5813293
-7.1680431 -1.0470067 3.5568633
-6.9207506 -1.0036139 3.5057535
-6.7422137 -0.9626717 3.46912
-6.2522306 -1.0853891 3.3620706
-6.7443933 -0.88232249 3.4718068
-6.8234434 -0.76291156 3.4918365
-6.9043069 -0.64315546 3.5122595
-7.2399435 -0.48494804 3.587642
-7.2615538 -0.46522093 3.5927598
-7.4536076 -0.25518236 3.6392045
-7.5815086 -0.27955416 3.6655855
-7.6625023 -0.27994841 3.6827078
-7.7380514 -0.28106061 3.6986585
-7.7769599 -0.28146714 3.7068779
-7.9243937 -0.24282604 3.7391362
-8.0181656 -0.25291088 3.7586932
-8.27775 -0.246066 3.8137949
-8.288271 -0.24606293 3.8160205
-8.3642855 -0.23712254 3.8323483
-8.657795 -0.010844655 3.9007046
-8.6764965 0.0839964 3.9072878
-8.6778126 0.10961174 3.9082758
-8.6792736 0.12430894 3.9089921
-8.4568768 0.58272332 3.8746448
-8.3799667 0.58364505 3.8584008
-8.3487778 0.58751142 3.8519101
-8.2718678 0.58843315 3.8356662
-8.2261505 0.58798671 3.825983
-8.103549 0.60594994 3.8005455
-7.8416529 0.63006926 3.7458124
-7.6805749 0.63350374 3.7118335
-7.5231547 0.65737796 3.6791945
-7.6422863 0.75637984 3.7071376
-7.6311498 1.3292242 3.7206495
-7.9020977 0.89416593 3.7659144
-7.9573565 0.87851381 3.7771702
-8.1881371 0.91322285 3.8269506
-8.1953945 0.91163182 3.8284419
-8.2963638 0.89142948 3.849241
-8.3396254 0.89091098 3.8583782
-8.4008045 0.89098567 3.8713219
-8.434267 0.8899011 3.8783705
-8.4745369 0.88966703 3.8868828
-8.5057297 0.88829899 3.8934433
-8.6183987 0.90656245 3.917783
-8.6568575 0.90859985 3.9259748
-8.7217712 0.88633132 3.9390898
-8.7794266 0.86565393 3.9507132
-8.7986269 0.84543729 3.954215
-8.7792625 0.74573684 3.9473572
-9.0288715 0.36039224 3.9894848
-7.5466843 1.4101202 3.7050228
-7.5635085 1.4099187 3.7085762
-7.228425 1.4140934 3.6378086
-7.1442738 1.4139704 3.6200039
-7.021656 1.3967901 3.5935898
-6.9447317 1.390156 3.5771337
-6.8727756 1.3767035 3.5615394
-6.7379603 1.3653584 3.5327065
-6.6637526 1.3765802 3.5173197
-6.5438509 1.3772562 3.4919746
-6.3533525 1.3771549 3.451674
-6.2836633 1.3914896 3.4373291
-6.2452021 1.3919199 3.4292049
-6.1682796 1.3902822 3.4128876
-6.0432372 1.4209642 3.3872862
-6.0312166 1.4161023 3.3846087
-5.90137 1.3979387 3.356638
-5.8244352 1.35633 3.3392107
-5.6754832 1.2894365 3.3058486
-5.5864153 1.2754879 3.2866211
-5.4710336 1.2817748 3.2623875
-5.4013376 1.2736261 3.2474184
-5.3316412 1.2629789 3.2323802
-5.140481 1.3164471 3.1934233
-5.0779476 1.3265604 3.1804752
-4.9385319 1.3496064 3.1516218
-4.9218431 1.3504537 3.1481149
-4.8615832 1.3514159 3.1353943
-4.8516569 1.3521289 3.1333144
-4.6937623 1.3932885 3.1010537
-4.6836958 1.3933384 3.0989256
-4.601511 1.3522718 3.0804029
-4.3182859 1.3335155 3.0199704
-4.2413511 1.3318601 3.0036497
-4.202425 1.3147377 2.994941
-4.2402706 0.99447531 2.9940755
-4.2025614 0.73018533 2.9787779
-4.202548 0.70520204 2.9780829
-4.2313251 0.59592646 2.9811435
-4.2433243 0.55582154 2.9825709
-4.2745214 0.4764995 2.986973
-4.2855926 0.35537055 2.9859598
-4.2085304 0.11637428 2.963038
-4.2862139 -0.18287134 2.9711821
-4.2476921 -0.27738041 2.9604151
-4.2055883 -0.34236169 2.9497087
-3.6395631 -0.43488753 2.8274097
-3.6002607 -0.27474487 2.8235316
-3.6813362 0.045100234 2.8495419
-3.4883976 0.15437651 2.8117549
-3.4498289 0.16724026 2.8039525
-3.3726914 0.19296777 2.7883475
-3.16258 0.40160668 2.7496803
-3.3232167 0.83078003 2.7955492
-3.3617539 0.8429116 2.8040373
-3.5193231 0.83692276 2.8372033
-3.4002285 0.94248557 2.8149343
-3.2843111 1.330811 2.8011699
-3.167836 1.3192877 2.7762117
-3.0555768 1.320817 2.752507
-3.0077338 1.3224416 2.7424312
-2.9238811 1.3222647 2.7246883
-2.908493 1.3218312 2.7214212
-2.8467917 1.3179883 2.7082624
-2.8150091 1.3142493 2.7014356
-2.744678 1.3133687 2.6865335
-2.6800981 1.3130112 2.6728625
-2.6347933 1.3099756 2.6631947
-2.5702178 1.3046223 2.6493862
-2.3567972 1.3269863 2.6048591
-2.3365536 1.3266952 2.6005688
-2.2560754 1.3344619 2.5837595
-2.1789825 1.3351824 2.5674715
-2.0893822 1.3294853 2.5483596
-2.0315626 1.3300256 2.5361435
-1.9930215 1.3228908 2.5277929
-1.9524593 1.3200045 2.5191326
-1.8744283 1.3276516 2.5028379
-1.8503351 1.3303751 2.4978166
-1.8050287 1.3298379 2.4882178
-1.7867641 1.330392 2.4843695
-1.7617381 1.3325469 2.4791353
-1.7164316 1.3320098 2.4695363
-1.6804202 1.3327067 2.4619377
-1.6393406 1.3302319 2.4531794
-1.5945537 1.3267847 2.4436097
-1.5602376 1.3202109 2.4361684
-1.4398539 1.3236405 2.4107976
-1.4263339 1.3218455 2.4078879
-1.3675072 1.3195134 2.3953791
-1.3492448 1.3175694 2.3914621
-1.223491 1.3346951 2.3653347
-1.1565132 1.3193703 2.3507419
-1.0861824 1.3184898 2.3358397
-1.0023329 1.3133162 2.3179591
-0.96176553 1.3179251 2.3095052
-0.93674302 1.3150834 2.3041332
-0.92524004 1.3140366 2.301671
-0.877918 1.3102529 2.2915556
-0.76903558 1.3172277 2.2687161
-0.73048735 1.3200862 2.2606409
-0.71222281 1.3206404 2.2567925
-0.66015434 1.3217041 2.2458076
-0.64663267 1.3224077 2.2429667
-0.58981824 1.3283186 2.231112
-0.48568726 1.3229511 2.2089355
-0.36530209 1.3288791 2.1836336
-0.27126551 1.3349481 2.1639094
-0.25017643 1.3345449 2.1594372
-0.22836828 1.3343884 2.1548195
-0.16970444 1.3348165 2.1424217
-0.052904129 1.3414885 2.1178987
0.072328568 1.3657607 2.0920796
0.085738659 1.3661015 2.0892522
0.15613937 1.368282 2.0744202
0.19894648 1.3827076 2.0657644
0.36721706 1.414791 2.0310574
0.38732767 1.416551 2.0268519
0.47785616 1.4154959 2.0076725
0.7547102 1.2696809 1.9450682
0.74216795 1.3928202 1.9511323
0.74339056 1.4699858 1.9530112
0.71154451 1.4683563 1.9597026
0.67969894 1.4667264 1.9663942
0.54529572 1.4264519 1.9937099
0.49627686 1.4217806 2.0039501
0.41246557 1.4192592 2.0216093
0.37420797 1.4240067 2.0298338
0.35377359 1.4251828 2.0341892
0.27664995 1.4283358 2.050591
0.10848331 1.429605 2.0861998
-0.067298412 1.3871239 2.1222076
-0.081968307 1.3877952 2.1253297
-0.11129904 1.385761 2.1314778
-0.14922714 1.3859531 2.1395063
-0.24278975 1.3524394 2.15837
-0.32472754 1.3434813 2.1754551
-0.35177088 1.3420743 2.1811368
-0.37679529 1.3424176 2.18644
-0.39031792 1.341714 2.189281
-0.41534209 1.3420573 2.1945841
-0.46741199 1.3384954 2.2055001
-0.51271844 1.3390325 2.2150991
-0.60527468 1.338551 2.2346649
-0.61150908 1.3385229 2.2359829
-0.70207191 1.3342845 2.2550232
-0.80959368 1.3251106 2.277514
-7.4990077 1.4112663 3.6949689
-7.4793882 1.4109268 3.6908092
-7.4189224 1.4116966 3.6780398
-7.3822513 1.4113083 3.6702716
-7.3460674 1.4131099 3.6626673
-7.3341932 1.4129103 3.6601498
-7.2981176 1.4122496 3.6525002
-7.2587528 1.4125568 3.6441817
-7.2524452 1.4127603 3.642853
-7.3654184 1.332619 3.6645312
-7.3004975 1.3310317 3.650754
-7.2139406 1.3246901 3.6322682
-7.1442485 1.3290321 3.6176457
-7.0240417 1.3343087 3.5923636
-6.9134822 1.3316134 3.5689015
-6.8293295 1.326494 3.5509582
-6.7211771 1.3337644 3.5282812
-6.7067194 1.3342956 3.5252373
-6.6706805 1.3382614 3.5177236
-6.6057982 1.3500441 3.5043249
-6.4904127 1.341342 3.4796753
-6.4134893 1.3397043 3.4633579
-6.3750272 1.3351381 3.4550951
-6.3207541 1.3409115 3.4437742
-6.2451878 1.3419561 3.4278178
-6.2139544 1.3383737 3.4211116
-6.1225739 1.337267 3.4017506
-5.8604965 1.0739567 3.3390174
-5.8604708 0.98652035 3.3365901
-5.8580322 0.86663473 3.3327532
-5.8652201 0.78661221 3.3320572
-5.8651671 0.66563547 3.3286948
-5.8530655 0.50375813 3.321651
-5.8458366 0.38499027 3.3168318
-5.8530183 0.3438746 3.3172121
-5.8554287 0.30494097 3.3166437
-5.853013 0.26499698 3.3150263
-5.8473201 0.19694634 3.3119369
-5.8460035 0.15672857 3.3105445
-5.8909793 -0.0023476705 3.3156521
-5.9171467 -0.084584393 3.3189096
-5.9244003 -0.1246274 3.3193347
-5.8549566 -0.36356771 3.2980261
-5.8525968 -0.40349859 3.2964208
-5.8550434 -0.44348556 3.2958307
-5.8367229 -0.48451227 3.2908189
-5.8166747 -0.56437832 3.2843657
-5.7975192 -0.63158464 3.2784519
-5.7976761 -0.77643567 3.2744727
-6.0142112 -1.0591035 3.3124483
-5.97576 -1.0636499 3.3041885
-5.9373007 -1.0607038 3.2961345
-5.8549347 -1.0483547 3.279053
-5.7368016 -1.0075676 3.255193
-5.5382156 -1.0464915 3.2121062
-5.383029 -1.0449558 3.1793208
-5.346839 -1.0440757 3.1716897
-5.3074055 -0.97886652 3.1651542
-5.2702494 -0.92321557 3.1588359
-5.2664409 -0.84206378 3.1602781
-4.6970034 -0.74704742 3.0424521
-4.6801128 -0.82582277 3.0366971
-4.6728916 -0.86669922 3.0340374
-4.6463995 -0.94635183 3.0262268
-4.6319556 -0.97866982 3.0222762
-4.5979595 -1.0251462 3.0137973
-4.2473288 -0.90195543 2.9430377
-4.2088704 -0.88653916 2.9353294
0.85828876 -0.15217426 1.8837721
0.51711464 -0.40962052 1.9488122
0.47918034 -0.44447351 1.9558713
0.44094419 -0.48757625 1.9627659
0.43819952 -0.49086857 1.9632553
0.082237244 -0.57439351 2.0362415
0.016918659 -0.65467072 2.0478351
0.016565323 -0.65542525 2.047889
-0.20610189 -1.058035 2.0838394
-0.28319788 -1.0637428 2.0999901
-0.35352659 -1.0603384 2.1149616
-0.4055934 -1.0589311 2.1260147
-0.44413781 -1.0567882 2.1342278
-0.48268628 -1.0596421 2.142303
-0.51447415 -1.0633771 2.1489239
-0.55978847 -1.0728449 2.1582475
-0.70044613 -1.0660359 2.1881905
-0.7525146 -1.067127 2.1991749
-0.76401854 -1.0685095 2.20157
-0.84111142 -1.0692204 2.2178586
-0.86815333 -1.0681934 2.2236073
-0.9452424 -1.0639076 2.2400334
-1.033828 -1.0510107 2.2591298
-1.0791287 -1.0429897 2.2689347
-1.1176748 -1.0433452 2.2770791
-1.2333064 -1.0344182 2.3017869
-1.2718585 -1.0422688 2.3097246
-1.478097 -1.0247947 2.3538361
-1.5093777 -0.48850894 2.375308
-1.3788955 -0.36708942 2.3510695
-1.3957481 -0.35225466 2.3550453
-1.8305027 0.025652483 2.4574807
-1.8030448 0.089143649 2.4534309
-1.7913973 0.14687809 2.4525664
-1.7460163 0.2876223 2.4468651
-1.7435496 0.36759216 2.4485583
-1.6980996 0.56692326 2.4444654
-1.6831341 0.62798369 2.442991
-1.659467 0.68720442 2.439625
-1.630976 0.75396514 2.4354472
-1.6184251 0.80750811 2.4342754
-1.5822306 0.88779306 2.4288428
-1.548445 0.96805561 2.4239192
-1.5218995 1.0307622 2.4200406
-1.206569 1.3100635 2.3610728
-1.1497564 1.3134763 2.3491492
-1.1112101 1.3138366 2.3410053
-1.0523856 1.309006 2.3284278
0.86849976 -0.026574515 1.8850911
-4.543581 0.097037867 3.0333784
-4.5507588 0.075671889 3.0343051
-4.5675759 0.016825795 3.0362325
-4.7835841 -0.1887531 3.076232
-5.0663185 -0.13855895 3.1374316
-5.2329168 0.10301329 3.1793652
-5.2304263 0.27945545 3.1837256
-5.1158853 0.59294367 3.1681793
-5.0571027 0.63216865 3.1568313
-4.5365047 0.39561546 3.0401523
-4.5099883 0.2350457 3.0300951
-2.5939229 1.2453045 2.6527576
-2.465734 1.2450609 2.6256342
-2.4539399 1.2458916 2.6231623
-2.3105416 1.2436293 2.5927653
-2.0183532 0.89601558 2.5213273
-2.0378511 0.81115329 2.5231011
-2.04163 0.73033071 2.5216618
-2.0349798 0.69083965 2.519161
-2.0320761 0.61549652 2.5164599
-2.0152657 0.48833525 2.5093815
-2.0322394 0.38814631 2.5101967
-2.0375378 0.36964786 2.5108051
-2.0323598 0.22075662 2.5055857
-2.0356975 0.18743001 2.5053685
-2.0323994 0.16579285 2.5040715
-2.000648 -0.014002971 2.4923744
-1.9920795 -0.09104041 2.4884281
-1.9560266 -0.13504627 2.4795823
-1.9112275 -0.36999318 2.4635978
-2.14869 -0.72362614 2.5040345
-2.3313236 -0.73186177 2.5424404
-2.3626425 -0.73215055 2.5490577
-2.4252994 -0.75771201 2.561604
-2.7502894 -0.30685297 2.6428406
-2.7888217 -0.30223325 2.6511197
-2.827359 -0.3001112 2.6593304
-3.2134037 0.078846291 2.7514908
-3.2025967 0.11910078 2.75032
-3.1953754 0.16697326 2.7501183
-3.1635132 0.27929953 2.7464898
-3.1625853 0.3941116 2.7494736
-3.1205115 0.5988881 2.7462459
-2.8799853 0.76247019 2.6998963
-2.8607035 0.77514213 2.6961687
-2.8418202 0.88178647 2.6951282
-0.97528911 1.3147231 2.3122773
0 0 0 1 0 0 0 1 0 0 0 1 0 0 0 0 0 457 1 0 0
