ply
format ascii 1.0
comment PCL generated
element vertex 614
property float x
property float y
property float z
element camera 1
property float view_px
property float view_py
property float view_pz
property float x_axisx
property float x_axisy
property float x_axisz
property float y_axisx
property float y_axisy
property float y_axisz
property float z_axisx
property float z_axisy
property float z_axisz
property float focal
property float scalex
property float scaley
property float centerx
property float centery
property int viewportx
property int viewporty
property float k1
property float k2
end_header
-10.73807 -1.0647453 1.3336859
-10.572725 -1.0946367 1.2874701
-10.231538 -1.1320772 1.1939286
-10.184943 -1.1362301 1.1812261
-10.100702 -1.1344286 1.1589613
-10.045025 -1.1362528 1.144019
-9.9976768 -1.1346202 1.1315515
-9.9510031 -1.1313115 1.1193897
-9.8856258 -1.1349784 1.1017294
-9.7449818 -1.1317029 1.0645775
-9.6698236 -1.13223 1.0445526
-9.6409702 -1.1331753 1.0368093
-9.6291428 -1.1276449 1.0340803
-9.3424368 -1.0877699 0.96084291
-9.3201389 -1.0965519 0.95425314
-9.2687263 -1.0973725 0.94052029
-9.247015 -1.0992241 0.93460768
-9.2004194 -1.1033769 0.92190498
-9.1252613 -1.1039041 0.9018802
-9.0410738 -1.1070769 0.87925535
-8.9748917 -1.0999842 0.8621906
-8.7236996 -1.2388357 0.78494912
-8.6804266 -1.289418 0.76963651
-8.632596 -1.2861904 0.75716084
-8.6074991 -1.2867966 0.75044179
-8.5139103 -1.2782346 0.72619992
-8.3318577 -1.2783504 0.67778188
-8.1978817 -1.2698848 0.6427936
-8.1603155 -1.271392 0.63269103
-8.1391964 -1.2733279 0.6269297
-7.9606333 -1.2686729 0.57979834
-7.9018946 -1.2671417 0.56429458
-7.8988891 -1.2665232 0.56354183
-7.6242485 -1.2464991 0.4920193
-7.5886774 -1.2036372 0.48578575
-7.2688761 -1.0988235 0.40863419
-7.1561022 -1.0932721 0.37906444
-7.0614929 -1.0848812 0.35453838
-6.9772816 -1.0879886 0.3319121
-6.9111605 -1.0807954 0.31487125
-6.8177333 -1.0716437 0.29071671
-6.7801504 -1.0706223 0.28079996
-6.7334738 -1.069777 0.26845184
-6.6855655 -1.0647185 0.25609326
-6.6297941 -1.0640492 0.24131361
-6.5261149 -1.0583217 0.2141754
-6.4133658 -1.0552573 0.18442501
-6.3292031 -1.0633388 0.16143738
-6.2539883 -1.0563216 0.14196514
-5.9210753 -0.86915517 0.067523554
-6.1170359 -0.43931204 0.15197344
-6.1351757 -0.43398559 0.15719773
-6.3045373 -0.40213981 0.20462847
-6.3706579 -0.40933299 0.22166932
-6.4367056 -0.40906513 0.23925206
-6.4833827 -0.40991038 0.25160033
-6.5676184 -0.40929008 0.27404594
-6.614295 -0.41013533 0.28639409
-6.6701398 -0.41826552 0.30063188
-6.7179747 -0.41586298 0.31353232
-6.7994041 -0.4292379 0.33417884
-6.9149594 -0.41830707 0.36572835
-6.9616122 -0.41666532 0.37825722
-7.0367537 -0.41622117 0.39827138
-7.0755372 -0.39114147 0.41047129
-7.0452876 -0.35884321 0.40485793
-7.0258198 -0.35000825 0.40034598
-6.9506049 -0.34299123 0.38087371
-6.8662963 -0.33615041 0.35897011
-6.6140366 -0.098851569 0.30974698
-6.4968328 -0.047211632 0.28246701
-6.4851856 -0.056840561 0.27864543
-6.4224949 -0.12972789 0.25649118
-6.3863864 -0.15779005 0.24477823
-6.3678627 -0.18463671 0.23783264
-6.0680323 -0.32233697 0.14774436
-5.9837236 -0.31549612 0.12584074
-5.8395395 -0.33813453 0.085797623
-5.8154712 -0.33912003 0.079323553
-5.7416339 -0.35123855 0.058777723
-5.7235184 -0.35905203 0.053372815
-5.3109441 -0.5550006 -0.071077675
-5.2375207 -0.60304773 -0.094216801
-5.0624323 -1.0507377 -0.17445931
-4.9873595 -1.0689529 -0.19579235
-4.9119778 -1.0672841 -0.21571139
-4.8947458 -1.0709168 -0.22056693
-4.7730374 -1.0689869 -0.25278494
-4.7268271 -1.0761826 -0.26561409
-4.6018534 -1.0636673 -0.29790401
-4.5382562 -1.0645535 -0.31488174
-4.4424539 -1.060903 -0.34008163
-4.2830548 -1.0581386 -0.38225913
-4.0640182 -0.75493801 -0.41768938
-4.2161479 -0.43969339 -0.3535172
-4.2427931 -0.33592704 -0.33862436
-4.2423296 -0.30610067 -0.33650348
-4.2221909 -0.17454158 -0.33195966
-4.2115321 -0.094796024 -0.32879379
-4.1580229 -0.086922079 -0.34242991
-4.0364299 -0.092448816 -0.37517825
-4.0058832 -0.096741848 -0.38362381
-3.9557526 -0.097662859 -0.39702335
-3.8787589 -0.096567482 -0.41741422
-3.8724353 -0.097036749 -0.41913098
-3.6421528 -0.2784791 -0.49401712
-3.5204446 -0.27654925 -0.5262351
-3.4197748 -0.31636953 -0.55600023
-3.3547122 -0.32085347 -0.57363826
-3.2949555 -0.31379634 -0.58899707
-3.2486677 -0.31602097 -0.60147274
-3.2227228 -0.31525624 -0.60831422
-3.1182468 -0.30969363 -0.63567674
-3.0429034 -0.31051022 -0.65577263
-3.0053287 -0.31713229 -0.66626227
-2.9676762 -0.31878334 -0.67639863
-2.930526 -0.35274628 -0.68883258
-2.9976976 -0.38232964 -0.67319703
-3.253567 -0.68290609 -0.62777519
-2.9618042 -1.0531616 -0.73321617
-2.8864224 -1.0514927 -0.7531352
-2.8175006 -1.0473585 -0.77115107
-2.7798049 -1.0465411 -0.78111315
-2.6752646 -1.0389166 -0.80833763
-2.6291261 -1.0507334 -0.82149529
-2.5074928 -1.0534539 -0.85404336
-2.4234862 -1.0520172 -0.87627327
-2.2298338 -1.0646613 -0.92871839
-2.1510704 -1.051468 -0.94866955
-2.0962129 -1.0560213 -0.96359921
-2.0790169 -1.0589045 -0.96838874
-1.9864638 -1.0626404 -0.99328047
-1.8785856 -1.0459447 -1.0207099
-1.8237627 -1.052985 -1.0358175
-1.7192912 -1.0503349 -1.0633979
-1.6472032 -1.055284 -1.0829391
-1.5598936 -1.0472634 -1.105552
-1.5341165 -1.052832 -1.1128254
-1.3833685 -1.0520498 -1.1528516
-1.3080115 -1.0529023 -1.1729537
-1.2326202 -1.0512676 -1.1928779
-1.1863093 -1.0506482 -1.2051457
-1.0818381 -1.0479982 -1.2327262
-0.79138803 -0.75844777 -1.288173
-0.74777746 -0.71951288 -1.2968398
-0.47856998 -0.62369931 -1.361215
-0.38892889 -0.38592386 -1.3671607
-0.59724903 0.04336296 -1.2794662
-0.64099693 0.057718128 -1.2667532
-0.60548496 0.070920616 -1.2752026
-0.40767908 0.13413845 -1.3230442
-0.30685425 0.14876942 -1.3487535
-0.2644124 0.13849489 -1.3608123
-0.10101604 0.12426265 -1.4053315
-0.041615963 0.092015907 -1.4235529
0.030182838 0.067285478 -1.4445056
0.055927753 0.059330866 -1.4519497
0.058439255 0.04606536 -1.4536158
0.10090828 -0.23435453 -1.486008
0.096866131 -0.3330211 -1.492357
0.050271034 -0.59086961 -1.4993681
0.027288437 -0.66136336 -1.4985609
-0.00055789948 -0.74437815 -1.4974025
-0.01072979 -0.79930508 -1.4988306
-0.042156219 -0.97191662 -1.5034617
-0.026956558 -1.0660791 -1.5145884
-0.052233696 -1.0787097 -1.5088173
-0.10006762 -1.0738736 -1.495734
-0.10874462 -1.07353 -1.4934008
-0.19440079 -1.0821468 -1.4712726
-0.28012276 -1.081706 -1.4484452
-0.30745316 -1.082114 -1.4412085
-0.36409521 -1.0806556 -1.4260372
-0.37416124 -1.0789398 -1.4232314
-0.39686012 -1.0755216 -1.4169384
-0.48569345 -1.0754479 -1.3933114
-0.56091213 -1.0646464 -1.3724973
-0.62431574 -1.0549208 -1.354906
-0.70811605 -1.041434 -1.3316081
-0.74574184 -1.0372769 -1.3212903
-0.78343773 -1.0380943 -1.3113281
-0.8384676 -1.0459772 -1.2972884
-0.87085152 -1.0535766 -1.2892491
-0.89676619 -1.0579569 -1.2826877
-1.0948257 -1.1314886 -1.2355546
-1.1153598 -1.1376764 -1.2305601
-1.1907167 -1.1368239 -1.2104579
-1.228447 -1.1401285 -1.2006738
-1.3124189 -1.1390779 -1.1782659
-1.4045777 -1.1609682 -1.1554071
-1.5094776 -1.1404794 -1.1259718
-1.656888 -1.1321905 -1.0861504
-1.686003 -1.1356932 -1.0786721
-1.7236986 -1.1365105 -1.06871
-1.7819278 -1.1435157 -1.0537534
-1.8453662 -1.1362773 -1.03634
-1.9961488 -1.1395468 -0.99649173
-2.0252635 -1.1430494 -0.98901337
-2.0629592 -1.1438667 -0.97905135
-2.1383507 -1.1455015 -0.95912713
-2.2480652 -1.1363952 -0.92926794
-2.3525712 -1.1415324 -0.90186548
-2.4279625 -1.1431671 -0.88194132
-2.4570773 -1.1466697 -0.87446302
-2.5496302 -1.142934 -0.84957135
-2.6541362 -1.1480713 -0.82216889
-2.6854305 -1.1535031 -0.81425613
-2.7522156 -1.1582311 -0.79685318
-2.7985034 -1.1560066 -0.78437746
-2.911576 -1.15851 -0.7544989
-2.9664609 -1.1532261 -0.73950696
-3.0709369 -1.1587887 -0.71214443
-3.108628 -1.1596233 -0.70218492
-3.1893027 -1.1451621 -0.67964476
-3.3142765 -1.1576774 -0.64735484
-3.3896585 -1.1593465 -0.62743574
-3.5450296 -1.181039 -0.58775342
-4.0012045 -1.2625247 -0.47258395
-4.0145121 -1.2595699 -0.46882296
-4.0803494 -1.2512791 -0.45069253
-4.1871958 -1.2079656 -0.41902214
-4.2999983 -1.1930702 -0.38790634
-4.4307671 -1.2217673 -0.35529298
-4.4684963 -1.2250874 -0.34551024
-4.5061102 -1.2209508 -0.33519721
-4.5233812 -1.2198036 -0.33051842
-4.5421495 -1.2152498 -0.32518512
-4.6565261 -1.201919 -0.29376835
-4.6824327 -1.2001982 -0.28675014
-4.8948407 -1.2250894 -0.23214191
-5.060154 -1.2607392 -0.19086611
-5.0977287 -1.2541171 -0.18037638
-5.2074208 -1.2385784 -0.15003926
-5.2243118 -1.2397318 -0.14563464
-5.266943 -1.2462866 -0.13479182
-5.3370852 -1.2452832 -0.11606488
-5.4123244 -1.2547872 -0.096773267
-5.5160766 -1.2679759 -0.070177048
-5.5629239 -1.2862304 -0.059093423
-5.6004095 -1.2773038 -0.048454046
-5.6554918 -1.2603022 -0.032527935
-5.7227535 -1.2097943 -0.010842283
-6.0532241 -1.1323073 0.082862906
-6.1240497 -1.1555781 0.099945128
-6.1810517 -1.1604605 0.11473509
-6.2095652 -1.1641452 0.12203982
-6.2186594 -1.163969 0.1244712
-6.2938256 -1.1660119 0.14430483
-6.4156442 -1.1664131 0.17666723
-6.4817405 -1.1711193 0.19388869
-6.6312447 -1.090646 0.23969801
-6.7517347 -1.0768857 0.27277276
-6.9125133 -1.0974438 0.31397828
-6.9500723 -1.0959783 0.32407582
-7.0718908 -1.0963794 0.35643819
-11.043245 0.84216899 1.5583147
-11.072595 0.73199707 1.5578294
-11.072725 0.71956098 1.5569285
-11.056667 0.6826809 1.5498835
-10.991689 0.64171934 1.5295231
-10.910551 0.59077936 1.5041152
-10.77452 0.36314344 1.4508156
-10.772589 0.32340914 1.4473121
-10.8938 -0.01971741 1.4537258
-10.885651 -0.11144141 1.4446573
-10.863087 -0.21381855 1.4309543
-10.859116 -0.31976801 1.4219266
-10.882107 -0.4944213 1.4148986
-10.872546 -0.60476106 1.4040543
-10.863386 -0.6588304 1.3975502
-10.793869 -0.86079878 1.3638688
-10.791892 -0.9412151 1.3572922
-10.786425 -1.0264021 1.3494287
-6.2429123 1.3115134 0.31718075
-6.2147255 1.3122826 0.30974355
-6.0617886 1.2824649 0.26683268
-5.9581165 1.2881898 0.23969623
-5.8739018 1.2851058 0.21707083
-5.7612038 1.2832086 0.18696073
-5.6963758 1.2787769 0.16938893
-5.6017537 1.2896371 0.14504533
-5.5715156 1.290053 0.13703603
-5.5369253 1.2852054 0.12747353
-5.437223 1.292089 0.10147973
-5.3956714 1.2919561 0.09042079
-5.2829251 1.2950329 0.06067219
-5.2284937 1.2981927 0.04643615
-5.1908031 1.2990271 0.036476616
-5.1445541 1.2943169 0.023824222
-5.0314035 1.3017915 -0.0057010232
-4.9096951 1.3037213 -0.037919026
-4.872159 1.2946137 -0.04858553
-4.7510691 1.256775 -0.083631411
-4.6639051 1.2517523 -0.10718697
-4.6294379 1.2537339 -0.11620298
-4.5626526 1.258462 -0.13360603
-4.4408669 1.2653629 -0.16547059
-4.3930826 1.2808496 -0.17701155
-4.3887453 1.2818055 -0.17809287
-4.3307505 1.2771652 -0.19386347
-4.2930593 1.2779996 -0.203823
-4.2245893 1.2894542 -0.22116779
-4.2002134 1.2909491 -0.22753716
-4.2467713 1.275775 -0.21629874
-4.272716 1.2750102 -0.20945734
-4.3654075 1.2720028 -0.18503618
-4.473381 1.2409416 -0.15866227
-4.5067739 1.2385776 -0.14996073
-4.6328573 1.2332064 -0.11683819
-4.6996813 1.2259926 -0.099611908
-4.7922568 1.2304419 -0.074660555
-4.809412 1.2390457 -0.069451563
-5.0263038 1.2732337 -0.009205767
-5.0976582 1.2694634 0.0094841849
-5.153388 1.2737341 0.024624655
-5.1770291 1.2723813 0.030809209
-5.2194543 1.2715218 0.042025752
-5.3788328 1.2725545 0.084483482
-5.4255128 1.27169 0.096830979
-5.486536 1.2749975 0.11330644
-5.5472856 1.2762355 0.12955336
-5.6030631 1.2755319 0.14433219
-5.6975894 1.2746201 0.16939895
-5.7369013 1.2768523 0.18002027
-5.8000002 1.2780261 0.19688702
-5.8842621 1.2761358 0.21915078
-5.9218202 1.2775974 0.22924776
-5.996984 1.2755461 0.24908009
-6.0540719 1.2607373 0.26314601
-6.1188521 1.270143 0.28107932
-6.2560887 1.2672082 0.3173508
-6.2976885 1.2623669 0.32804823
-6.3391924 1.2674739 0.33946878
-6.4284873 1.2745347 0.36374426
-6.5321832 1.2663226 0.39070001
-6.5697651 1.2652969 0.4006162
-6.6540036 1.2658938 0.42306077
-6.7188072 1.2728126 0.44081324
-6.6721039 1.2761643 0.42864659
-6.5685034 1.274428 0.40096769
-6.4466591 1.2773439 0.36878777
-6.3749218 1.2779011 0.34975407
-7.2869906 -1.0910101 0.41403899
-7.491148 -1.101288 0.46755281
-7.566328 -1.1032654 0.48739505
-7.5877037 -1.1041559 0.49301198
-7.7995996 -1.1451237 0.54627436
-7.8611593 -1.1458281 0.5625906
-7.9049072 -1.140015 0.57466078
-7.9617167 -1.1493499 0.5890646
-8.1561127 -1.1952819 0.63730007
-8.2718277 -1.1549478 0.67110443
-8.3093147 -1.1459789 0.68174732
-8.3844461 -1.1429646 0.70195234
-8.4686604 -1.142279 0.72439718
-8.617239 -1.1047903 0.76672608
-8.7674761 -1.0962744 0.80731612
-9.0736265 -0.85430408 0.90693051
-9.0886765 -0.77080733 0.91721505
-9.0849304 -0.68682057 0.92253816
-9.0798092 -0.64690328 0.92417991
-9.0774059 -0.60993797 0.92632222
-9.0049171 -0.38714558 0.92381001
-8.9949923 -0.36908689 0.9225297
-8.9911137 -0.32055891 0.9251498
-8.9997749 -0.31502259 0.9278695
-9.1279736 -9.4488263e-05 0.98565435
-9.1239357 0.15914582 0.99656224
-9.1372662 0.18631567 1.0021511
-9.1838331 0.1929896 1.015036
-9.2589903 0.19351749 1.0350606
-9.2965832 0.19253798 1.0449831
-9.3386126 0.18441214 1.0555476
-9.4862642 0.18347944 1.0947392
-9.5402222 0.18953244 1.1095425
-9.5683632 0.16385232 1.1150932
-9.5712204 0.15900974 1.1154886
-9.6554241 -0.059390463 1.1214464
-9.7925644 -0.36631674 1.1348193
-9.8068199 -0.38160729 1.1374595
-9.7528868 -0.45400673 1.1176707
-9.7366505 -0.4734754 1.1118886
-9.5447311 -0.60195327 1.0511885
-9.6859598 -1.0730941 1.0532929
-9.8277473 -1.1219418 1.08732
-9.9119616 -1.1212561 1.1097648
-9.9398022 -1.1191044 1.1173297
-9.9676657 -1.121919 1.124527
-10.05188 -1.1212333 1.1469718
-10.081142 -1.1256702 1.1544192
-10.203001 -1.1309388 1.1864262
-10.230116 -1.1254889 1.1940461
-10.564672 -0.90415108 1.2996614
-10.574448 -0.82519847 1.3082014
-10.573298 -0.66336691 1.3200722
-10.548653 -0.46899313 1.3281438
-10.562547 0.027435407 1.3691907
-10.638636 0.24579863 1.4058536
-10.626402 0.55157936 1.425608
-10.632629 0.59407061 1.4304612
-10.852955 0.95715386 1.5163665
-10.730181 1.1485158 1.4981183
-10.44029 1.2356324 1.4275892
-10.42217 1.2427995 1.4233098
-10.364673 1.2773857 1.4106232
-10.062296 1.2795149 1.330379
-9.9759865 1.2835019 1.3077284
-9.9149027 1.2950265 1.2923529
-9.9041071 1.2939268 1.2893995
-9.8484564 1.2895476 1.2742721
-9.781065 1.2835 1.2558972
-9.6981411 1.2884917 1.2342224
-9.6389732 1.2934675 1.2188637
-9.6124506 1.2994685 1.2122627
-9.5839138 1.3006405 1.2047626
-9.4918003 1.2975757 1.1800383
-9.3870039 1.2953976 1.1520082
-9.2651978 1.2956569 1.1196384
-9.15242 1.2985955 1.0898712
-9.0524187 1.2999163 1.0633792
-9.0453701 1.3001 1.0615188
-8.9840736 1.2896938 1.0444367
-8.9103394 1.2824429 1.0242844
-8.7975349 1.2878686 0.99469703
-8.7689714 1.2915274 0.98737705
-8.69384 1.2885125 0.96717221
-8.5810909 1.288964 0.93722504
-8.5344696 1.2872642 0.92470014
-8.4682589 1.2968768 0.9078176
-8.430748 1.2903951 0.89735544
-8.3555899 1.2898673 0.87733048
-8.2998867 1.2904621 0.86256331
-8.224782 1.28496 0.8421784
-8.1495972 1.2869192 0.82233351
-8.1119785 1.2903856 0.8125912
-7.9992008 1.2933244 0.78282386
-7.9346294 1.2763176 0.7643742
-7.991703 1.2739738 0.77937412
-8.0473795 1.2758662 0.79432136
-8.1045074 1.2685481 0.80896139
-8.1601295 1.2754145 0.82426852
-8.2353144 1.2734555 0.84411341
-8.2728529 1.27745 0.85439581
-8.3104191 1.2789574 0.86449832
-8.3856306 1.2745112 0.88416314
-8.460762 1.2775261 0.90436792
-8.4983263 1.2790338 0.91447026
-8.5359468 1.2755671 0.92421287
-8.6292152 1.2764798 0.94908249
-8.6668081 1.2755003 0.959005
-8.7419128 1.2810023 0.97938991
-8.750968 1.2811946 0.98181224
-8.8456879 1.2728971 1.0063747
-8.90131 1.2797635 1.0216819
-8.9479589 1.2789762 1.034027
-9.0216932 1.2862272 1.0541791
-9.0786858 1.2913445 1.069719
-9.0967979 1.2917292 1.074564
-9.2111053 1.2721195 1.1034838
-9.2486706 1.273627 1.1135863
-9.3703957 1.280829 1.1464958
-9.5012312 1.283249 1.181468
-9.5387697 1.2872435 1.1917504
-9.5568542 1.2901152 1.1967752
-9.6515198 1.2867919 1.2216976
-9.6891918 1.2783512 1.2310799
-9.7073574 1.2737619 1.2355649
-9.7918129 1.2520989 1.2563925
-9.8669434 1.2551138 1.2765973
-9.9423075 1.2631345 1.2972405
-9.999465 1.260882 1.3122697
-10.035292 1.2640157 1.3220319
-10.04432 1.2666949 1.3246343
-11.032537 1.1094654 1.5755794
-11.006675 1.1470547 1.5715306
-10.908995 1.2410005 1.5526251
-10.90317 1.2407936 1.5510608
-10.638803 1.312902 1.4861891
-10.597235 1.3254591 1.4760807
-10.559504 1.3388741 1.467057
-10.550482 1.3387269 1.4646468
-10.382637 1.2851419 1.4159837
-11.033087 0.90479046 1.560325
-11.030646 0.95898217 1.5637538
-11.034567 1.0422146 1.5710588
-11.03259 1.1044909 1.575219
-3.1978004 1.2879118 -0.49431562
-3.1601865 1.2837752 -0.50462866
-3.1020367 1.2890768 -0.5196923
-3.064307 1.2923969 -0.52947515
-3.0179808 1.2926577 -0.54177403
-2.9630189 1.2923452 -0.5564124
-2.9340408 1.2887821 -0.56438601
-2.812371 1.2882264 -0.59678084
-2.7747185 1.2865754 -0.60691714
-2.728431 1.2843508 -0.61939275
-2.6788807 1.2834644 -0.63263524
-2.579818 1.2862263 -0.65876913
-2.4671993 1.2938213 -0.68814385
-2.4289675 1.2944739 -0.69826096
-2.3826222 1.2976153 -0.71034813
-2.260988 1.2949311 -0.74289364
-2.1856987 1.2891053 -0.76335204
-2.1388173 1.2920809 -0.77559429
-2.0348482 1.2973528 -0.80284387
-1.8948317 1.3117431 -0.83899271
-1.8430681 1.3078934 -0.85304666
-1.7589257 1.3193153 -0.87456149
-1.6836026 1.3159769 -0.89484173
-1.6232941 1.3148278 -0.91096467
-1.5855982 1.3156458 -0.92092681
-1.4727497 1.3006887 -0.95205951
-1.3768597 1.3059591 -0.97716099
-1.351047 1.3029794 -0.98424888
-1.2379603 1.305434 -1.0141349
-1.2088461 1.3089036 -1.0216155
-1.142036 1.3131915 -1.0390582
-1.0871434 1.3111941 -1.0538049
-1.0494823 1.309525 -1.0639449
-1.0117188 1.3153179 -1.0735507
-1.2383976 1.3929712 -1.0074321
-1.3635483 1.4142271 -0.97255421
-1.4423432 1.398679 -0.9527719
-1.5263498 1.3972067 -0.93054461
-1.6069191 1.4121337 -0.90799743
-1.7147942 1.3956031 -0.88055634
-1.8364625 1.3958001 -0.84818894
-1.890888 1.3772123 -0.83511531
-1.9467237 1.3649718 -0.82118917
-2.0221488 1.3608479 -0.80144322
-2.0598106 1.3625171 -0.7913031
-2.1232507 1.3696536 -0.77389687
-2.2186644 1.3992065 -0.74630189
-2.2272799 1.3993707 -0.74399865
-2.4323089 1.4453557 -0.68601978
-2.4614232 1.4418859 -0.6785391
-2.5213468 1.4304507 -0.66346532
-2.7230015 1.4341257 -0.60956711
-2.7338738 1.4388101 -0.6063236
-2.780185 1.4381559 -0.59405833
-3.0127831 1.4275197 -0.53300881
-3.0261686 1.4255034 -0.52960122
-3.2016633 1.3960065 -0.48515517
-3.2565479 1.4012903 -0.47016335
-3.4755652 1.2987741 -0.41963837
-3.5681405 1.3032234 -0.39468703
-3.6143897 1.3079334 -0.3820346
-3.6897717 1.3062646 -0.36211547
-3.765115 1.3070811 -0.34201962
-3.8490937 1.3084712 -0.3195844
-3.9244757 1.3068023 -0.2996653
-3.9448957 1.3048207 -0.29438448
-3.9912608 1.3020742 -0.28226233
-4.0666041 1.3028908 -0.26216647
-5.4569802 -1.0492085 -0.069430806
-5.6178565 -1.0797148 -0.028947759
-5.9093308 -0.86883593 0.064424597
-5.7239084 -0.3988446 0.050482396
-5.3187799 -0.60536438 -0.072783552
-0.11880493 0.9510749 -1.3383902
-0.38411236 1.3031843 -1.2413493
-0.44114065 1.3085401 -1.2257822
-0.55415916 1.3110603 -1.1955398
-0.63809824 1.3145628 -1.1729562
-0.71005106 1.3293256 -1.1527126
-0.82317257 1.3243836 -1.1230046
-0.88140106 1.3174442 -1.1080433
-0.9244442 1.3207524 -1.0963489
-0.89853001 1.3252345 -1.1029024
-0.86948347 1.3237296 -1.1107394
-0.78534079 1.3351513 -1.1322541
-0.71859884 1.3344646 -1.1500531
-0.64330959 1.3286388 -1.1705114
-0.58841705 1.3266413 -1.185258
-0.36485672 1.4302572 -1.2369084
-0.33882523 1.4292259 -1.2439079
-0.31938839 1.418614 -1.2498748
-0.064695835 1.3484813 -1.3228766
0.0077676773 1.3361932 -1.3430699
0.12675381 1.3458406 -1.3739834
0.1645999 1.3566172 -1.3832361
0.26466084 1.3773707 -1.4082816
0.29916811 1.3864614 -1.4167734
0.3083024 1.3832111 -1.4194468
0.29454613 1.253894 -1.4255191
0.29005527 1.2429959 -1.4251448
0.25545073 1.1913908 -1.419826
0.25226927 1.1880708 -1.4192299
0.12510872 1.0315167 -1.3971964
-0.069351673 0.84953326 -1.3591805
-0.11057568 0.82996172 -1.3496914
-3.2906077 1.2774478 -0.47042471
-3.4584103 1.2901703 -0.42484733
-3.4836192 1.2831132 -0.41867507
-3.5423117 1.2965316 -0.4020586
-3.5971961 1.3018153 -0.38706681
-3.6175776 1.3023192 -0.38160929
-3.6639042 1.3020581 -0.36931035
-3.7683029 1.3014667 -0.34159434
-3.8060327 1.2981467 -0.33181152
-3.8437238 1.2973121 -0.32185194
-3.9277411 1.2962168 -0.29959345
-3.9654322 1.2953824 -0.28963387
-4.0698695 1.2923054 -0.26209459
-4.0785046 1.2928789 -0.25975525
-7.5779247 1.2787135 0.66970366
-7.6440797 1.2741078 0.68694824
-7.6531091 1.2767534 0.68954837
-7.8128233 1.2765768 0.7320044
-7.671483 1.2831744 0.6949172
-7.6339173 1.281667 0.68481481
-7.5587325 1.283626 0.66496992
-7.5402794 1.2846677 0.66014147
-7.5497303 1.2784595 0.66218752
0 0 0 1 0 0 0 1 0 0 0 1 0 0 0 0 0 614 1 0 0
