ply
format ascii 1.0
comment PCL generated
element vertex 552
property float x
property float y
property float z
element camera 1
property float view_px
property float view_py
property float view_pz
property float x_axisx
property float x_axisy
property float x_axisz
property float y_axisx
property float y_axisy
property float y_axisz
property float z_axisx
property float z_axisy
property float z_axisz
property float focal
property float scalex
property float scaley
property float centerx
property float centery
property int viewportx
property int viewporty
property float k1
property float k2
end_header
-11.374834 0.85321873 -1.6844972
-11.376059 0.84732252 -1.6852612
-11.376465 0.80822057 -1.6912547
-11.363671 0.72444534 -1.7057346
-11.365302 0.67944723 -1.7124921
-11.345964 0.76392579 -1.7017585
-8.677166 -1.2028909 -2.3258712
-8.649271 -1.1507565 -2.3211622
-8.7148018 -1.0956217 -2.3047805
-8.829649 -1.0992923 -2.2915685
-8.9519386 -1.0887028 -2.27526
-8.9952412 -1.0861192 -2.2696655
-9.2122335 -0.59719366 -2.168082
-9.1646719 -0.53752065 -2.1645675
-9.108284 -0.4521215 -2.1581371
-9.0217829 -0.33895996 -2.1510293
-9.0213804 -0.29987654 -2.1450386
-9.0257769 -0.2125106 -2.1310112
-9.0254993 -0.1856408 -2.1268926
-9.0617323 -0.16445419 -2.1192718
-9.1978245 -0.012317017 -2.0794351
-9.213788 -0.011338815 -2.0773687
-9.2532806 -0.0073358268 -2.0720119
-9.4570236 0.025092751 -2.0425563
-9.4606628 0.026884064 -2.0418429
-9.5805817 0.027757868 -2.0273201
-9.6624098 -0.14589977 -2.0443361
-9.6752234 -0.17327604 -2.047029
-10.002125 -0.38736677 -2.040889
-10.012125 -0.39734656 -2.0412314
-10.345732 -0.65033418 -2.0402975
-10.389395 -0.65715665 -2.036113
-10.504213 -0.68051547 -2.0259466
-10.543926 -0.69600159 -2.0235748
-10.560598 -0.7392714 -2.0282607
-10.948658 -1.0422482 -2.028518
-11.238289 -0.7806499 -1.953346
-11.284048 -0.77567339 -1.947087
-11.307564 -0.77023208 -1.9434249
-11.314949 -0.76794368 -1.9421852
-11.29475 -0.73088109 -1.9388816
-11.226334 -0.66426259 -1.9367962
-11.23192 -0.75504249 -1.9501534
-8.6971388 -1.2228738 -2.3265626
-8.9050274 -1.1094086 -2.2840877
-9.0519505 -1.125779 -2.2689898
-9.1310377 -1.127544 -2.2597737
-9.1719198 -1.1297907 -2.2552159
-9.1867485 -1.1301216 -2.2534878
-9.2967558 -1.1265844 -2.2397428
-9.368351 -1.137724 -2.2328742
-9.4473133 -1.1272752 -2.2217858
-9.5697031 -1.1264566 -2.2069752
-9.6129303 -1.116545 -2.2002573
-9.6600189 -1.1129382 -2.1940503
-9.8070412 -1.1390795 -2.18045
-9.9688759 -1.1293724 -2.1595335
-10.051772 -1.1325566 -2.1500797
-10.091316 -1.1334392 -2.1454716
-10.149717 -1.1187278 -2.1361914
-10.612644 -1.1584096 -2.0867817
-10.627425 -1.1783704 -2.0880928
-10.664592 -1.2003247 -2.0870259
-10.707879 -1.1952964 -2.0810554
-10.745817 -1.181215 -2.0743279
-10.904593 -1.1139122 -2.0448785
-10.912167 -1.1095332 -2.043293
-10.94684 -1.0607498 -2.0315948
-0.22802877 1.3271343 -2.948647
-0.19152069 1.3457509 -2.9501505
-0.23434019 1.3455502 -2.9450443
-0.3230834 1.3604715 -2.9320912
-0.43875599 1.3426064 -2.9209735
-0.50776577 1.3506138 -2.9114566
-0.62656355 1.3456259 -2.897974
-0.67061996 1.3453984 -2.8927233
-0.74538136 1.3381917 -2.8848672
-0.82775211 1.3420359 -2.8743904
-0.86794233 1.3422271 -2.8695388
-0.90773392 1.3417259 -2.8648422
-0.98614216 1.3362007 -2.8562887
-1.0952806 1.3268274 -2.8446426
-1.0520372 1.3204157 -2.8508217
-1.0161972 1.3162912 -2.8557591
-0.86536312 0.79929709 -2.9537423
-0.86650038 0.78390479 -2.9559841
-0.8683033 0.74298269 -2.9620912
-0.87110138 0.70379132 -2.9678113
-1.1040616 0.26519901 -3.0076327
-1.1041627 0.25296819 -3.0095105
-0.8224659 0.020035028 -3.0793011
-0.85875034 -0.2302075 -3.1136153
-0.89809895 -0.39036044 -3.1336412
-0.89628601 -0.4731552 -3.1466522
-0.75046587 -0.65645236 -3.1924708
-0.90128613 -1.0644302 -3.2374165
-0.93775749 -1.0785553 -3.2352233
-1.0501671 -1.0930164 -3.2239711
-1.1388831 -1.0745102 -3.2104673
-1.2544346 -1.0781544 -3.1971669
-1.3336196 -1.0798862 -3.1879339
-1.5379496 -1.0723518 -3.1622543
-1.7358701 -1.0717961 -3.1384223
-1.7754624 -1.0726618 -3.1338058
-1.897424 -1.0693275 -3.1186578
-2.0098338 -1.0837885 -3.1074057
-2.131732 -1.0731268 -3.0911329
-2.2108958 -1.0724159 -3.0815251
-2.4484718 -1.0800533 -3.0542011
-2.4943898 -1.0641707 -3.0462377
-2.5340037 -1.0674791 -3.0419962
-2.6067996 -1.0786316 -3.0349855
-2.5149 -1.1030694 -3.0497878
-2.3961437 -1.1029145 -3.0640121
-2.1950395 -1.1094021 -3.0891428
-2.0794458 -1.1008729 -3.1016936
-1.9606895 -1.1007179 -3.1159177
-1.8783627 -1.109803 -3.1271992
-1.8023405 -1.0996971 -3.1347585
-1.7627482 -1.0988312 -3.139375
-1.5616016 -1.1004338 -3.1637559
-1.5252142 -1.0960786 -3.1674488
-1.4032738 -1.1018555 -3.1829715
-1.2417197 -1.1043239 -3.2027361
-1.2053118 -1.0975264 -3.206054
-1.1689029 -1.0907288 -3.2093718
-10.630249 1.2814494 -1.707661
-10.69821 1.2599107 -1.7028354
-10.707635 0.85241216 -1.7646716
-10.705078 0.84843296 -1.7655932
-10.463271 1.2784902 -1.7281522
-10.443485 1.2801447 -1.7302704
-10.119906 1.2960435 -1.7666363
-10.475433 1.3249131 -1.7195197
0.17912912 -0.7097832 -3.312243
0.12109375 -0.80866754 -3.3205597
-0.25768328 -1.025053 -3.3085506
-0.26403856 -1.0365505 -3.3095646
-0.27742052 -1.0459154 -3.3094063
-0.33425522 -1.0760355 -3.3072414
-0.34074974 -1.0788271 -3.3068936
-0.37715816 -1.0856248 -3.3035758
-0.41997671 -1.085444 -3.2984104
-0.49914074 -1.0847331 -3.2888026
-0.57503605 -1.0801839 -3.2789938
-0.62112331 -1.0838414 -3.2740295
-0.79989767 -1.1139908 -3.2572391
-0.91867495 -1.1165882 -3.2433896
-0.077586174 0.3963899 -3.1105161
-0.6368804 0.44598079 -3.0357499
-0.65054178 0.71715564 -2.9922087
-0.68657446 0.8292231 -2.9705689
-0.6901927 0.8801772 -2.9622612
-0.54766846 1.263459 -2.9201362
-0.32703257 1.3225708 -2.9374738
-11.188331 -0.22317031 -1.8731979
-11.189655 -0.19373269 -1.8684902
-11.245781 0.29113317 -1.7868346
-11.254038 0.33591485 -1.7789243
-11.251972 0.29686713 -1.7852058
-11.229043 -0.22216704 -1.8681583
-1.8539701 1.3144679 -2.7555258
-1.741565 1.3280871 -2.7669077
-1.6227267 1.3379674 -2.779639
-1.5863407 1.3419073 -2.7833958
-1.5007634 1.3349707 -2.7947352
-1.4247849 1.3397577 -2.8031113
-1.2267213 1.3562249 -2.8243301
-1.1872506 1.3423952 -2.8312027
-5.2134118 -0.33852178 -2.6078854
-5.2365518 -0.2633343 -2.5934911
-5.6844006 -0.051262215 -2.5069892
-6.0633621 0.057616755 -2.4446979
-6.1202235 0.083106741 -2.4339368
-6.4121656 0.090325579 -2.3977945
-6.4516377 0.096736982 -2.3920681
-6.4591546 0.097269014 -2.391084
-6.5382056 0.11149625 -2.3794012
-6.6216259 0.10490195 -2.3704114
-6.6623259 0.10532303 -2.3654633
-6.7045331 0.10316257 -2.360733
-6.7477803 0.097410426 -2.3564332
-6.748939 0.091081366 -2.3572721
-6.7508736 0.0066821128 -2.3700814
-6.7487907 -0.032294616 -2.3763542
-7.0658417 -0.33451027 -2.3850133
-7.2239981 -0.33824643 -2.3666151
-7.3018131 -0.35126454 -2.3592906
-7.5219035 -0.34386045 -2.3317404
-7.713954 -0.29853994 -2.3016953
-7.7500291 -0.28505081 -2.2952828
-7.7857885 -0.28695652 -2.2912869
-7.8008695 -0.31171459 -2.2933033
-7.7736816 -0.42233911 -2.3136587
-7.7554684 -0.47898316 -2.3245969
-7.7064652 -0.63063735 -2.3539097
-7.7200584 -0.73373777 -2.3682101
-7.7167788 -0.77518117 -2.3750074
-7.662024 -1.0748442 -2.427881
-7.6928787 -1.1536088 -2.4363496
-7.6759586 -1.1798553 -2.4424355
-7.6601648 -1.1940523 -2.4465241
-7.6443748 -1.2055317 -2.4501925
-7.5152063 -1.3018765 -2.480577
-7.3558125 -1.1737159 -2.4798975
-7.1540661 -1.1484214 -2.5001943
-7.0787473 -1.1379013 -2.5076053
-6.9676728 -1.1202348 -2.5182021
-6.7774949 -1.1824141 -2.5506272
-6.7178431 -1.1774603 -2.5570188
-6.6595325 -1.1613303 -2.5615225
-6.579565 -1.1261091 -2.5656745
-6.4024334 -1.0916396 -2.5816002
-6.3628697 -1.0882658 -2.5858257
-6.3228579 -1.0881083 -2.5906019
-6.2443008 -1.0903431 -2.6003726
-6.1651497 -1.0811559 -2.6084492
-5.9588795 -1.1327147 -2.6411643
-5.7989402 -1.191414 -2.6694238
-5.6145649 -1.1738472 -2.6888304
-5.4385757 -1.1160291 -2.7010112
-5.3199344 -1.1107873 -2.7144358
-5.2804193 -1.1122929 -2.7194095
-5.2013168 -1.1079853 -2.7282343
-5.1579938 -1.1132634 -2.7342479
-4.9659023 -1.0682492 -2.750339
-4.9263506 -1.0700215 -2.7553582
-4.8802261 -1.0784913 -2.7622011
-4.7679453 -1.0624466 -2.7731931
-4.6919961 -1.0528665 -2.7808251
-4.6473999 -1.0549924 -2.7865043
-4.606287 -1.0606644 -2.7923133
-4.5635152 -1.0706735 -2.7989917
-4.5206771 -1.0757946 -2.8049226
-4.4019561 -1.0762235 -2.8192329
-4.3405399 -1.0632966 -2.824604
-4.2428322 -1.0638317 -2.8364096
-4.2185326 -1.0670742 -2.8398261
-4.1506495 -1.0856591 -2.8508422
-4.0443335 -1.0926269 -2.8646746
-3.9227328 -1.0956804 -2.8797359
-3.8466134 -1.0889063 -2.8878219
-3.8068254 -1.0885966 -2.8925478
-3.5439067 -1.0236106 -2.9140508
-3.3862333 -1.069805 -2.9401062
-3.3488116 -1.0903155 -2.9477654
-3.1748307 -1.0554004 -2.9632442
-3.0925076 -1.0671819 -2.9749417
-3.0858679 -1.0689911 -2.976018
-3.0462496 -1.0658754 -2.9802897
-3.0099852 -1.064299 -2.9843972
-2.8348451 -1.1065068 -3.0119321
-2.7920477 -1.1091303 -3.0174723
-5.2138443 -0.37029457 -2.6127429
-5.1882706 -0.60484463 -2.6520541
-5.1761274 -0.62914556 -2.6572659
-4.8237967 -1.0341547 -2.7621205
-4.6278152 -0.8807326 -2.7619271
-4.5762205 -0.78019542 -2.7525823
-4.5389438 -0.65634483 -2.7379174
-4.5203605 -0.56317663 -2.7257504
-4.5300989 -0.36253589 -2.693579
-4.4989271 -0.30488676 -2.688411
-4.4708657 -0.30148661 -2.6912525
-4.453547 -0.30119276 -2.6932847
-4.3420153 -0.28463918 -2.7041082
-4.2991443 -0.28731614 -2.7096655
-3.9753408 0.088378325 -2.6904626
-3.937484 0.11863489 -2.6903293
-3.9108217 0.13807197 -2.6905248
-3.8885553 0.13844983 -2.6931379
-3.7259371 0.084569559 -2.7209742
-3.6817756 0.082688734 -2.7265635
-3.5419426 0.099387601 -2.7407601
-3.362941 0.10533692 -2.761317
-3.3242927 0.086597666 -2.7688496
-3.2847109 0.068299457 -2.7764261
-3.2522357 0.051589921 -2.7829044
-3.0261602 -0.29451534 -2.8635092
-2.850503 -0.29153466 -2.8841236
-2.8282034 -0.28871274 -2.886363
-2.7591646 -0.38597697 -2.9096756
-2.7758191 -0.39722669 -2.9094157
-2.9359131 -0.69563913 -2.9363186
-2.9325924 -0.71934003 -2.9403794
-2.92853 -0.82449758 -2.9571159
-2.7888434 -1.0386373 -3.0069642
-0.028194904 0.39762205 -3.1162517
0.29132462 0.33753484 -3.1638718
0.32423067 0.20918082 -3.1876533
0.32007265 0.13652639 -3.1983809
0.31962013 0.097395495 -3.2043734
0.31266069 0.069479153 -3.2078519
0.30244684 0.047170058 -3.2100737
0.28102684 -0.10460153 -3.2309556
0.28012133 -0.18286327 -3.2429399
0.27270985 -0.24991049 -3.2524109
0.27180529 -0.32817227 -3.2643955
0.26809883 -0.36169589 -3.2691309
0.26113939 -0.3896122 -3.2726095
0.23736954 -0.45751476 -3.2802501
0.2206049 -0.48305517 -3.2821851
-0.067748547 0.38926327 -3.1127977
-0.34857225 0.18944319 -3.1099811
-0.22570562 -0.37264067 -3.211576
-0.14760733 -0.37430894 -3.2212038
0.26475859 -0.076565206 -3.2246716
0.26240921 0.0073037893 -3.2114301
0.24817705 0.15747531 -3.186518
-9.6152554 1.2508075 -1.8341737
-9.575737 1.2492473 -1.8391562
-9.5004082 1.2544457 -1.8473907
-9.4570551 1.2567821 -1.852231
-9.3384733 1.2545447 -1.866804
-9.2555523 1.2602069 -1.8758779
-9.2159834 1.2635329 -1.8801115
-9.104847 1.2754896 -1.8915979
-8.9787712 1.2639441 -1.9085083
-8.9034681 1.2666996 -1.9171174
-8.8206453 1.2625897 -1.9276893
-8.6624966 1.2636781 -1.9464957
-8.4969273 1.2481294 -1.968763
-8.4211807 1.2477072 -1.9779161
-8.338726 1.254104 -1.9868205
-8.2200699 1.2591957 -2.0002699
-8.0982962 1.2444881 -2.0171528
-7.9508581 1.2649119 -2.0316863
-7.9434433 1.2650776 -2.0325503
-7.8604918 1.2563801 -2.0438468
-7.8209486 1.2572629 -2.0484548
-7.7814045 1.2581458 -2.0530627
-7.6816974 1.242426 -2.0674546
-7.5631433 1.2378509 -2.0823855
-7.5273905 1.2421805 -2.0860059
-7.4520283 1.2547578 -2.0931044
-7.3653688 1.2497711 -2.1042724
-7.2863555 1.244278 -2.1146009
-7.1715202 1.2504438 -2.1274259
-7.0887184 1.2415391 -2.1387365
-7.0165987 1.239328 -2.1477308
-6.9912968 1.2350875 -2.1514218
-6.9268799 1.2295845 -2.1600008
-6.8476601 1.2460797 -2.1669567
-6.7686009 1.2454728 -2.1765358
-6.725317 1.2380931 -2.1828694
-6.6065788 1.2530636 -2.1948023
-6.4484148 1.2567362 -2.2132111
-6.3656125 1.2478315 -2.2245214
-6.2864161 1.2618835 -2.2318521
-6.2150025 1.26077 -2.2405922
-6.1283889 1.2508972 -2.2525096
-6.0173202 1.2629176 -2.263978
-5.9269862 1.2423036 -2.2780015
-5.8479042 1.24414 -2.2872059
-5.772542 1.2567173 -2.2943044
-5.7368121 1.2586038 -2.2982996
-5.6540103 1.249699 -2.3096101
-5.6107264 1.2423193 -2.3159435
-5.6069145 1.2413511 -2.3165505
-5.4883142 1.2416624 -2.3307319
-5.4092088 1.2459418 -2.3395615
-5.3264298 1.2345939 -2.3512468
-5.2745595 1.2387867 -2.3568223
-5.2472787 1.2437598 -2.3593268
-5.1681962 1.2455961 -2.3685315
-5.0766025 1.2446123 -2.3796728
-4.957716 1.256417 -2.3921125
-4.8786459 1.250438 -2.402523
-4.7565393 1.2539902 -2.4166243
-4.680656 1.2587074 -2.425
-4.6378179 1.2535753 -2.4309325
-4.5585823 1.2598158 -2.4394748
-4.3969569 1.2591567 -2.4589684
-4.2814889 1.2645503 -2.4719887
-4.1991653 1.2527627 -2.4836872
-4.1231165 1.2696996 -2.4901941
-4.0011091 1.26592 -2.5054164
-3.9648438 1.2675171 -2.5095208
-3.8064055 1.2775542 -2.5269792
-3.7305553 1.2798275 -2.5357282
-3.6415601 1.2686427 -2.5481341
-3.480001 1.2630957 -2.5683749
-3.36128 1.2626809 -2.5826828
-3.2819779 1.2738092 -2.5904779
-3.2058277 1.2905643 -2.5970254
-3.1696639 1.2923428 -2.6010895
-3.0444694 1.2778672 -2.6183469
-2.922462 1.2740877 -2.6335692
-2.8036747 1.2785608 -2.64713
-2.7640898 1.279237 -2.6517749
-2.6522317 1.3037076 -2.6614141
-2.52071 1.2840948 -2.6802247
-2.4810774 1.2898343 -2.6840928
-2.3601093 1.2885685 -2.698802
-2.3004365 1.2937 -2.7051685
-2.2467084 1.3004568 -2.7105706
-2.2038896 1.3006575 -2.715677
-2.1643174 1.2990587 -2.7206719
-2.1291261 1.3050754 -2.7239645
-2.0455198 1.3040466 -2.7341542
-1.9631486 1.3002025 -2.7446311
-1.8871906 1.3025435 -2.7533827
-1.7224686 1.2924091 -2.7747118
-1.6828558 1.2957025 -2.7789557
-1.6167552 1.3027239 -2.7858014
-1.6068571 1.3029357 -2.7869561
-1.4880593 1.3079238 -2.8004386
-1.4088948 1.3071721 -2.8100529
-1.3725088 1.3111119 -2.8138096
-1.3296897 1.3113128 -2.8189158
-1.253691 1.3185461 -2.8269165
-1.1744652 1.3251328 -2.8354042
-9.8562021 1.2562718 -1.8044207
-9.8956957 1.260275 -1.7990637
-10.017488 1.2777593 -1.7817495
-10.056957 1.2842256 -1.776015
-0.34242344 -0.39582163 -3.2011542
-0.42170763 -0.40707514 -3.1933808
-0.529881 -0.43449289 -3.184639
-0.57394695 -0.43556035 -3.1795168
-0.84538269 -0.23179063 -3.1154637
-0.81508446 0.015312314 -3.0809164
-0.68333626 0.1461934 -3.0764995
-9.7771645 1.2531515 -1.8143857
-9.8167324 1.2498257 -1.8101523
-4.6176858 1.2939903 -2.427103
-4.6573038 1.29087 -2.4228318
-4.7792449 1.2995372 -2.4068623
-4.9772348 1.2912676 -2.3843856
-5.0532503 1.2767748 -2.3775046
-5.1945796 1.2841353 -2.3594108
-5.2577138 1.2825662 -2.3520784
-5.2972984 1.2818898 -2.3474338
-5.4996114 1.2592263 -2.3266625
-5.5937109 1.285695 -2.3112826
-5.6332517 1.2847767 -2.3066804
-5.712357 1.2804972 -2.2978506
-5.8157339 1.2738696 -2.2864718
-5.9023705 1.2812994 -2.274929
-5.910017 1.2807927 -2.2740901
-5.9890532 1.2838429 -2.2641361
-6.0286169 1.2804815 -2.2599087
-6.0885501 1.2835764 -2.2522397
-6.1630392 1.293402 -2.2417843
-6.1846924 1.2958703 -2.2388051
-6.2270584 1.299343 -2.2331855
-6.35218 1.3166069 -2.2155058
-6.4312396 1.3172137 -2.2059267
-6.5461197 1.3061615 -2.1938512
-6.7088475 1.2996687 -2.1753306
-6.7835751 1.3027613 -2.1658871
-6.7916956 1.303687 -2.1647696
-6.8702779 1.2787645 -2.1591926
-6.9699116 1.2638389 -2.149545
-7.0284882 1.2702055 -2.1415334
-7.1036897 1.2747304 -2.1318114
-7.1509452 1.2659762 -2.1274946
-7.3088813 1.2867353 -2.1053379
-7.3902874 1.291998 -2.0947576
-7.4274588 1.2888672 -2.0907817
-7.509572 1.2952077 -2.0799501
-7.5745153 1.2962799 -2.0719926
-7.6299562 1.3016423 -2.0645123
-7.7684145 1.2937258 -2.0491233
-7.8433552 1.2925164 -2.040319
-7.8696012 1.2951798 -2.0367584
-7.9067469 1.2980285 -2.0318618
-8.025382 1.2954324 -2.018029
-8.1081657 1.3019335 -2.0070922
-8.1834612 1.3017462 -1.9980874
-8.223032 1.2984371 -1.9938509
-8.3251743 1.3107742 -1.9796897
-8.3849058 1.3032075 -1.9736925
-8.4439306 1.2959104 -1.9677384
-8.5229931 1.2965876 -1.9581478
-8.5431366 1.2948582 -1.9559982
-8.6020813 1.2948219 -1.9489319
-8.6416492 1.2914959 -1.9446983
-8.6617975 1.2898182 -1.9425403
-8.7445812 1.2963192 -1.9316034
-8.827364 1.3028206 -1.9206667
-8.9184055 1.2902018 -1.9116936
-8.9385633 1.2886481 -1.9095151
-9.0645342 1.3074037 -1.8915031
-9.1436243 1.3056728 -1.8822814
-9.1868877 1.3105955 -1.8763301
-9.301754 1.3070991 -1.8630888
-9.4204655 1.2971714 -1.8503801
-9.4599857 1.2987498 -1.8453946
-9.5427189 1.3101386 -1.8337085
-9.6551914 1.3034519 -1.8212473
-9.7441635 1.3115997 -1.8093138
-9.7799129 1.312278 -1.8049197
-9.8232784 1.3074253 -1.8004667
-9.8590536 1.3056594 -1.7964473
-9.9416962 1.3144236 -1.7851777
-10.040815 1.2977743 -1.775858
-10.080387 1.2944651 -1.7716217
-4.2152653 1.2940246 -2.4753795
-4.0998964 1.2920864 -2.4895208
-4.0569925 1.2918421 -2.4947062
-3.8986206 1.2969912 -2.5129118
-3.8161316 1.2974235 -2.522742
-3.7831526 1.302385 -2.5259321
-3.7369623 1.2987761 -2.5320315
-3.6578257 1.2976849 -2.5416949
-3.5786233 1.3014815 -2.5506108
-3.5423245 1.3055223 -2.5543416
-3.3450155 1.3250196 -2.5750017
-3.2648673 1.3371397 -2.5827451
-3.1825771 1.3229083 -2.5948172
-3.1034076 1.3242612 -2.6041067
-3.0605698 1.3191289 -2.6100395
-2.9451017 1.3245225 -2.6230597
-2.9401534 1.324607 -2.6236403
-2.9055831 1.320311 -2.6284518
-2.8660312 1.3185434 -2.6334703
-2.7867627 1.3272278 -2.641639
-2.6987534 1.3198683 -2.6533353
-2.6617699 1.3227698 -2.6573243
-2.6189711 1.3205245 -2.6628063
-2.5398266 1.3173268 -2.672796
-2.4970481 1.3126353 -2.6786535
-2.4146774 1.3087912 -2.6891301
-2.3750846 1.3096386 -2.6937494
-2.2428429 1.3285736 -2.7066898
-2.2214537 1.3262279 -2.7096186
-2.2074878 1.3237233 -2.7116811
-2.1776793 1.3198057 -2.7158628
-2.0915248 1.3093845 -2.7278099
-2.0123603 1.3086329 -2.7374241
-1.9395676 1.3189584 -2.7445621
-1.8967688 1.3167132 -2.7500441
-4.4988656 1.3009071 -2.4402902
-4.3736711 1.2864313 -2.4575477
-4.3308001 1.2837431 -2.4631066
-3.8647876 -1.0164932 -2.8744521
-3.6281128 -0.66828907 -2.8490434
-4.0689335 -0.40794575 -2.7559259
-4.1488819 -0.40345442 -2.7456396
-4.4011965 -0.57691205 -2.7421701
-4.2233529 -1.0234442 -2.8325059
-4.1805487 -1.0310093 -2.8388104
-4.0058432 -1.0499538 -2.8626988
-3.9331803 -1.037025 -2.8694191
-3.8736672 -1.0184712 -2.8736923
-10.019289 -0.73982584 -2.093292
-9.7500801 -1.0749924 -2.1773815
-9.389576 -0.65377069 -2.1555469
-9.632576 -0.4449642 -2.0941272
-9.7595997 -0.44867989 -2.0794611
-9.8909388 -0.50266922 -2.0720458
0 0 0 1 0 0 0 1 0 0 0 1 0 0 0 0 0 552 1 0 0
