ply
format ascii 1.0
comment PCL generated
element vertex 479
property float x
property float y
property float z
element camera 1
property float view_px
property float view_py
property float view_pz
property float x_axisx
property float x_axisy
property float x_axisz
property float y_axisx
property float y_axisy
property float y_axisz
property float z_axisx
property float z_axisy
property float z_axisz
property float focal
property float scalex
property float scaley
property float centerx
property float centery
property int viewportx
property int viewporty
property float k1
property float k2
end_header
-10.050311 -1.14464 1.3446444
-10.163973 -1.1461595 1.319226
-10.186289 -1.1363063 1.3140143
-10.097441 -1.1344193 1.3338684
-10.024006 -1.133153 1.3502845
-9.993166 -1.1294034 1.3571086
-9.9363432 -1.1286489 1.3698159
-9.917388 -1.1308888 1.3741091
-9.7849588 -1.1213611 1.4035555
-9.4893761 -0.84757006 1.4637761
-9.4865036 -0.76708996 1.4626653
-9.5253429 -0.52768201 1.4487507
-9.6295948 -0.40746954 1.4227866
-9.6793823 -0.36815891 1.4107811
-9.6912336 -0.36082181 1.4079674
-9.3293915 -0.1658356 1.4847426
-9.3081417 -0.1255753 1.4886236
-9.2898254 -0.1258197 1.4927304
-9.3173695 -0.28560352 1.4900451
-9.3314323 -0.38073507 1.4889691
-9.4824219 -0.75003505 1.4632078
-9.4776983 -0.76802075 1.4646573
-9.1906071 -1.0910519 1.5359839
-9.1224394 -1.104223 1.5515351
-9.0184832 -1.1111854 1.574965
-9.103653 -1.1087071 1.5558395
-9.1509399 -1.1032239 1.5451317
-9.2173176 -1.1077282 1.5303661
-9.2267208 -1.0992401 1.5280757
-9.6641779 -1.1297405 1.4307836
-9.7091808 -1.1228467 1.4205563
-9.8419323 -1.1368521 1.3911356
-9.9083061 -1.1438549 1.3764254
-9.9272623 -1.1416148 1.3721318
-9.9462013 -1.1393642 1.3678421
-9.9805708 -1.1377448 1.3601105
-10.012432 -1.1391366 1.3530066
-10.940399 -0.78806835 1.1375623
-10.760361 -0.99639326 1.1824173
-10.665276 -0.93545437 1.2023808
-10.619009 -0.46370026 1.2024595
-10.609549 -0.45607826 1.2044117
-10.604799 0.037806589 1.1947116
-10.614252 0.056300107 1.1921918
-10.747348 0.31346112 1.1567841
-10.719207 0.55595636 1.1578006
-10.707518 0.59382719 1.1595927
-10.871536 1.0724659 1.1124337
-10.663292 1.2260667 1.155717
-10.462665 1.199935 1.2012113
-10.462065 1.200155 1.2013409
-10.083408 1.2849095 1.2842835
-10.067327 1.291887 1.2877322
-9.8967056 1.2661593 1.3264992
-9.8080044 1.2647988 1.346391
-9.6849556 1.2678565 1.3738778
-9.6091862 1.2713672 1.3907681
-9.5713081 1.2768703 1.3991297
-9.5240326 1.278916 1.4096711
-9.4194469 1.2882334 1.4328872
-9.3724852 1.2809402 1.443562
-9.2491064 1.2833427 1.4711368
-9.2206192 1.2898048 1.4773749
-9.2303371 1.2889205 1.4752183
-9.258503 1.2868001 1.4689574
-9.3440018 1.2899008 1.4497447
-9.4006767 1.2938111 1.4369687
-9.4467812 1.2941439 1.4266376
-9.4858418 1.2937579 1.4178995
-9.5994816 1.279747 1.3927583
-9.6279774 1.278282 1.3864094
-9.6755733 1.2718946 1.3758909
-9.798625 1.2713354 1.3483489
-9.8365088 1.2683308 1.3399314
-1.083848 -1.1447332 3.3524418
-1.1971662 -1.145893 3.3270924
-1.3104839 -1.1470529 3.3017433
-1.3433077 -1.1279298 3.2939765
-1.3599193 -1.0476162 3.2885065
-1.3924587 -0.9690544 3.2795081
-1.4841607 -0.85059154 3.256392
-1.543323 -0.81069052 3.2422748
-2.0777469 -0.84766424 3.1234107
-1.5455706 -0.73075938 3.2400293
-1.9777157 -0.36744544 3.135344
-1.45754 -0.53103232 3.2553885
-1.4031038 -0.43303111 3.2654424
-1.3340974 -0.33094281 3.2786694
-1.3336446 -0.011121869 3.2718005
-1.295589 0.18915285 3.2759573
-1.2073305 0.44451508 3.2901552
-1.2307179 0.58169311 3.2819285
-1.1500235 0.72438926 3.2968879
-1.1121867 0.76475352 3.3044806
-1.0365133 0.84548205 3.3196664
-0.9986124 0.92582309 3.3264022
-1.1850536 1.3618537 3.275151
-1.4079189 1.4091277 3.224216
-1.4206543 1.4083139 3.2213821
-1.4920759 1.4092211 3.2053692
-1.5906036 1.4240601 3.1829834
-1.6759906 1.4242774 3.1638584
-1.7515359 1.4235026 3.1469591
-1.9173534 1.4459282 3.10934
-1.9486413 1.4472471 3.1023052
-2.2099566 1.402404 3.0447681
-2.2386844 1.4032024 3.0383177
-2.2524509 1.401968 3.0352621
-2.4889688 1.3756502 2.9828739
-2.2565694 1.3665961 3.0351107
-2.2042856 1.3613243 3.0469332
-2.0932126 1.3444185 3.0721734
-2.0455861 1.3513094 3.0826879
-1.9881301 1.3497121 3.0955884
-1.8091443 1.3301549 3.1360936
-1.7516642 1.343549 3.1486728
-1.7138877 1.3464351 3.157069
-1.6383302 1.3547056 3.1738079
-1.5628006 1.3454864 3.1909213
-1.5250323 1.3433751 3.1994247
-1.4135833 1.3297323 3.224678
-1.3712058 1.3288687 3.2341862
-1.3641193 1.33144 3.2357168
-1.2885499 1.3472062 3.252295
-0.51785707 0.65201485 3.4400215
-0.35088873 0.37444124 3.483459
-0.39140701 0.13416879 3.4796228
-0.44337034 0.037438136 3.4700952
-0.45388365 -0.0015211315 3.4685898
-0.45366478 -0.28142434 3.4747391
-0.45377779 -0.36137959 3.4764564
-0.49171972 -0.48169911 3.4705825
-0.56749153 -0.6423828 3.4571176
-0.58910751 -0.76200563 3.4548841
-0.66482258 -0.88271171 3.4405606
-0.74053764 -1.0034178 3.4262369
-0.7618165 -1.0261227 3.421967
-0.8095336 -1.0980103 3.4128487
-0.88508272 -1.1012822 3.3960028
-1.0083027 -1.1439598 3.3693411
-8.1892281 1.281989 1.7084975
-8.0846233 1.2813122 1.7319354
-8.0561199 1.2777803 1.738395
-8.0185585 1.276443 1.7468351
-8.0470533 1.274978 1.7404863
-8.1228142 1.2664704 1.723707
-8.2364845 1.2699491 1.6981779
-8.3974371 1.2763793 1.6619968
-8.4732199 1.2803643 1.6449405
-8.5486641 1.2786969 1.6280832
-8.6435509 1.2802578 1.6068019
-8.5392818 1.2827349 1.6300961
-8.2838011 1.2928886 1.6870828
-8.4065199 1.2891755 1.6596841
-8.4350119 1.285212 1.6533904
-7.090344 1.2864789 1.9544647
-7.0618482 1.2879781 1.9608128
-6.9579039 1.2885112 1.9840767
-6.8915172 1.2880183 1.998953
-6.8630214 1.2895178 2.0053012
-6.882122 1.2845272 2.001133
-6.9481831 1.2869991 1.9862863
-7.0527782 1.2825077 1.962963
-7.0906696 1.2844995 1.9544349
-7.2040052 1.2849592 1.9290464
-7.2324972 1.2809614 1.9227536
-7.251606 1.2809678 1.9184746
-7.2797718 1.2789493 1.9122114
-7.3555498 1.2804347 1.8952107
-7.2703843 1.2804549 1.9142808
-6.0488806 1.3147981 2.1870549
-6.0169435 1.3148057 2.194206
-5.944695 1.3186895 2.2102995
-5.8595176 1.3112142 2.2295356
-5.8315926 1.3098747 2.2358179
-5.7837243 1.2997351 2.2467575
-5.7270546 1.298256 2.2594795
-5.6419005 1.3057714 2.2783837
-5.632513 1.3072771 2.280453
-5.5188632 1.316292 2.3057053
-5.4670897 1.3125107 2.3173809
-5.4434066 1.310329 2.3227317
-5.4809608 1.3068048 2.3143992
-5.5000648 1.3043126 2.3101757
-5.575839 1.3032995 2.2932303
-5.6610012 1.300781 2.2742155
-5.7273765 1.2937782 2.259505
-5.8031502 1.2927651 2.2425597
-5.8789134 1.2842567 2.22578
-5.9449863 1.294224 2.2107675
-6.0016632 1.3007001 2.1979351
-6.0207715 1.3007065 2.1936562
-6.1056156 1.305164 2.1745605
-6.1719909 1.2981611 2.1598504
-6.219595 1.2966683 2.1492231
-6.2762723 1.3031443 2.1363907
-6.3711586 1.3046362 2.1151109
-6.3426514 1.29864 2.1216249
-0.96096754 0.84625697 3.3365657
-0.59340286 0.65123999 3.4231222
-2.5358992 0.080941163 3.000582
-2.5311136 0.12096639 3.0007813
-2.5259292 0.15990242 3.0010936
-2.4915938 0.18545063 3.0082254
-2.4530871 0.19672202 3.0166023
-2.4282236 0.20340902 3.0220239
-2.1178603 0.44610783 3.0862322
-2.1184008 0.6081934 3.0825784
-2.1301408 0.64804912 3.0790811
-2.1041198 0.68079668 3.0841942
-2.0293269 0.6859355 3.1008298
-1.9755578 0.60637879 3.114604
-1.9989223 0.56612885 3.1102493
-2.0749874 0.43296182 3.0961187
-1.982039 0.055297341 3.1251628
-1.9623837 0.033391643 3.1300416
-1.9533994 -0.0079328176 3.1329539
-1.9625888 -0.11152722 3.1331539
-1.9752715 -0.16700566 3.1315231
-1.9806216 -0.2472131 3.1320732
-1.9782178 -0.28743032 3.1334879
-1.9795046 -0.32728815 3.1340685
-10.841769 0.34259656 1.1350061
-11.10964 0.6385814 1.0685729
-11.116913 0.72230148 1.0651199
-11.124067 0.75718433 1.0627577
-11.143082 0.83801168 1.0567385
-11.147934 0.91789824 1.0539107
-11.12679 0.99700296 1.0569212
-11.124497 1.0781165 1.0556669
-11.091473 1.1585118 1.0613098
-11.089108 1.1610421 1.0617839
-11.051252 1.1765414 1.0699232
-10.922333 1.1989214 1.0983032
-10.85076 1.2403535 1.1134273
-10.729495 1.2610511 1.14013
-10.580673 1.3584656 1.1713318
-10.549999 1.3354964 1.1787009
-10.420193 1.2798915 1.2089794
-8.4410639 -0.32064465 1.6870334
-8.4795494 -0.31359369 1.678262
-8.5339403 -0.36179259 1.6671331
-8.5386953 -0.40295073 1.6669652
-8.5387144 -0.44404557 1.6678567
-8.5506735 -0.52751291 1.6669977
-8.5482244 -0.56717682 1.6684105
-8.542881 -0.60771066 1.6704905
-8.538064 -0.68815786 1.6733224
-8.5195255 -0.76695383 1.6791909
-8.828722 -1.1066737 1.6173586
-8.781765 -1.1116377 1.6279815
-8.7529449 -1.1081591 1.6343594
-8.743556 -1.1066533 1.6364287
-8.6208258 -1.1106044 1.6639969
-8.5732183 -1.1116098 1.6746793
-8.516222 -1.1111099 1.6874311
-8.4404449 -1.1125953 1.7044318
-8.1467791 -1.2969145 1.7742074
-8.1278019 -1.3191473 1.7789414
-7.9950137 -1.4373007 1.8112506
-7.6970944 -1.1619419 1.8719603
-7.6498165 -1.1624283 1.8825576
-7.5646281 -1.1605961 1.9015932
-7.6195602 -1.1203002 1.8884145
-7.6313996 -1.1204585 1.8857667
-7.6580944 -1.1215841 1.8798137
-7.9482522 -1.0979961 1.8143268
-8.0271149 -0.68041849 1.7875669
-7.694438 -0.40156338 1.8559834
-8.053215 -0.64578819 1.7809677
-8.4036951 -0.36504844 1.6963688
-6.3022232 -0.35053062 2.1666198
-6.2998557 -0.35049927 2.1671493
-6.2361097 -0.39303058 2.1823504
-6.1887722 -0.43850973 2.1939416
-6.1696777 -0.55318719 2.2007165
-6.2145638 -0.63373291 2.192421
-5.9696436 -1.0970383 2.2573614
-5.950861 -1.099056 2.2616112
-5.884799 -1.1015809 2.276459
-5.8371954 -1.1000497 2.2870851
-5.8087034 -1.0960408 2.2933779
-5.7614217 -1.0990467 2.3040307
-5.6856542 -1.0930467 2.3208661
-5.6008034 -1.102586 2.3400741
-5.524704 -1.0995445 2.357048
-5.4965301 -1.1025709 2.3634229
-5.5250225 -1.1065798 2.3571301
-5.5820141 -1.1096004 2.3444343
-5.6199045 -1.1076035 2.3359063
-5.6668611 -1.1025596 2.3252816
-5.723856 -1.1030818 2.3125305
-5.7808447 -1.1086011 2.2998898
-5.8329358 -1.1117891 2.2882948
-5.846571 -1.111533 2.2852361
-5.8660069 -1.1110938 2.2808743
-5.9417715 -1.1195923 2.2640941
-6.0648274 -1.1175896 2.2364955
-6.1890688 -1.1143537 2.2086043
-6.2636642 -1.1115934 2.1918406
-6.536253 -1.2719731 2.1342971
-6.6840491 -1.234556 2.1003866
-6.8678279 -1.2730695 2.0600739
-6.8975077 -1.2669584 2.0532947
-6.9354076 -1.2574662 2.0446012
-6.9545288 -1.2474931 2.0401022
-6.963933 -1.2364906 2.0377564
-7.0246038 -1.119208 2.021615
-6.9583259 -1.037246 2.0346699
-6.8793774 -0.77178639 2.0465627
-6.8651891 -0.75660765 2.0494089
-6.8043146 -0.67577952 2.0612786
-6.7990322 -0.67634702 2.0624738
-6.7564425 -0.68134665 2.0721197
-6.7091579 -0.68685085 2.0828276
-6.4437962 -0.54888409 2.1392412
-5.0869131 -1.0735995 2.454514
-5.1148744 -1.0720847 2.4482198
-5.1541529 -1.0722539 2.4394281
-5.269207 -1.0995615 2.4142601
-5.3543797 -1.0945588 2.3950789
-5.3828716 -1.0985678 2.3887863
-5.3261986 -1.1025823 2.4015641
-5.3168073 -1.1035912 2.4036891
-5.2601409 -1.1026088 2.4163566
-5.1934199 -1.1085522 2.4314265
-5.1176424 -1.1100475 2.4484274
-5.0421863 -1.1160796 2.4654551
-5.0140285 -1.1066138 2.471554
-4.8587403 -1.0739205 2.505614
-4.8224592 -1.0757852 2.5137789
-4.8028212 -1.0744511 2.5181472
-4.7469029 -1.0749817 2.5306802
-4.6517115 -1.070345 2.5518947
-4.6320739 -1.0690109 2.5562627
-4.5006051 -1.0637398 2.5855868
-4.425055 -1.0579382 2.6023779
-4.1778727 -1.1530221 2.6597998
-4.1590118 -1.1303297 2.6635287
-3.9518812 -0.99196571 2.7068944
-3.8522372 -0.989618 2.7291558
-3.7837644 -0.98888981 2.7444725
-3.7022147 -0.94829494 2.7618487
-3.7259269 -0.9095493 2.7556944
-3.7592001 -0.59036458 2.7412875
-3.7210107 -0.43006039 2.7463453
-3.6492763 -0.31908044 2.7599897
-3.6492982 -0.30158713 2.7596035
-3.646935 -0.22926046 2.7585564
-3.6470363 -0.14929104 2.7567909
-3.6470871 -0.10930633 2.755908
-3.6108403 0.13107651 2.7587857
-3.6498461 0.13074757 2.7500584
-3.7533824 0.14645311 2.726532
-3.8777432 0.12840977 2.6990781
-3.9545269 0.12767906 2.6819003
-4.0349941 0.12716676 2.6638932
-4.0583234 0.12640348 2.6586859
-4.0653658 0.093840569 2.6578186
-4.0653529 0.083844401 2.6580393
-4.0509362 -0.11342946 2.6655669
-4.0716581 -0.23429249 2.6635609
-4.0691962 -0.31423682 2.6658545
-4.0667334 -0.3941811 2.6681483
-4.0647163 -0.41846353 2.6691291
-4.0664883 -0.47333333 2.6699281
-4.0669498 -0.59325105 2.6724381
-4.0782356 -0.634215 2.670804
-4.4304934 -0.87649882 2.5972056
-4.6502175 -1.0655795 2.5521252
-4.7635493 -1.069284 2.5268285
-4.8602438 -1.0711889 2.5052178
-4.9357939 -1.0769905 2.4884269
-5.0000358 -1.073611 2.473968
-5.0589552 -1.0726154 2.460753
-2.9840703 -0.82035351 2.9198692
-2.928314 -0.37956783 2.9227479
-2.8584738 -0.29922855 2.9366357
-2.7945476 -0.29849932 2.9509344
-2.7463946 1.3606808 2.9255567
-2.8861349 1.3804829 2.8938341
-2.9926291 1.3579038 2.8704798
-2.9097955 1.2788862 2.8907502
-2.8861718 1.2930353 2.8957317
-2.6304007 1.3145175 2.9525363
-2.5744081 1.3433863 2.9644454
-3.4997134 1.3389719 2.7573445
-3.4656553 1.3247401 2.7652812
-3.462594 0.93209565 2.774524
-3.4532266 0.88472003 2.7776539
-3.4552884 0.88387895 2.7772107
-3.6039751 0.84710127 2.7447178
-3.6789095 0.84376585 2.7280109
-3.8683801 0.84688765 2.6855161
-3.9439096 0.85610688 2.6684024
-4.0194349 0.86782473 2.6512353
-4.0477486 0.87752831 2.6446838
-4.0571795 0.88492709 2.6424108
-4.1067038 0.91689968 2.6306243
-4.3799133 1.3404063 2.5602164
-4.4653006 1.3406236 2.5410917
-4.5506754 1.3483367 2.5218062
-4.6262169 1.3500603 2.504853
-4.7017708 1.3442882 2.4880607
-4.7871695 1.33701 2.4690967
-4.8347759 1.342612 2.4583144
-4.9480939 1.3414497 2.4329653
-5.0457792 1.3308976 2.4113212
-5.0833292 1.324875 2.4030442
-5.121213 1.32187 2.3946266
-5.1778789 1.3208506 2.3819602
-5.1973124 1.3188777 2.3776515
-5.2348738 1.3203504 2.3692083
-5.1468034 1.3380061 2.3885448
-5.1074247 1.3415325 2.3972857
-5.0794935 1.3429123 2.4035099
-5.0598063 1.3434262 2.4079072
-4.9744029 1.3532029 2.4268179
-4.9661593 1.3540689 2.4286449
-4.9177437 1.3537842 2.4394925
-4.8831291 1.3563257 2.4471881
-4.8536239 1.3577217 2.4537647
-4.8481154 1.3577783 2.4549968
-4.6991906 1.3948747 2.487536
-4.633986 1.3955777 2.5021214
-4.5962133 1.3959652 2.5105712
-4.5363965 1.3943924 2.5239997
-4.5305443 1.3945889 2.525306
-4.5280838 1.3943408 2.5258622
-4.4116726 1.3967649 2.5518765
-4.3136854 1.4378828 2.572922
-4.3057718 1.4389206 2.5746715
-4.1689348 1.4746097 2.6045346
-4.0202518 1.3569002 2.6403935
-3.9447341 1.3401853 2.6576679
-3.8215904 1.3303611 2.6854565
-3.7813694 1.3230048 2.6946235
-3.6406794 1.3214072 2.726162
-3.6272204 1.3226727 2.7291481
-3.5374823 1.3410828 2.7488413
-10.975834 -0.73633516 1.1285003
-11.035176 -0.64218491 1.1131603
-10.957598 -0.3785421 1.1247859
-10.967112 -0.29759851 1.1208916
-10.967173 -0.25762311 1.1200066
-10.991014 -0.096918628 1.1111654
-10.993443 -0.05697488 1.109751
-10.972193 -0.016714571 1.113632
-2.5879929 -1.0752593 3.0141153
-2.2112947 -0.92885286 3.0952759
-7.4111419 -0.39937931 1.9193723
-7.3720932 -0.38901007 1.9278901
-7.4574661 -0.3758128 1.9084855
-7.5236683 -0.37102881 1.8935571
-7.5697927 -0.35905018 1.8829677
-7.6184292 -0.36185524 1.872138
-7.4952927 -0.41629469 1.9008976
-7.5142183 -0.41700956 1.8966753
-7.5521088 -0.41501269 1.8881474
-7.624238 -0.4012101 1.871695
-6.1629362 1.3026847 2.1617792
-6.1723242 1.3011789 2.1597099
-2.6635771 -1.1035171 2.9978061
-2.8112919 -1.0932198 2.964505
-2.8539102 -1.098703 2.9550812
-2.9533615 -0.87356567 2.9279053
-2.9628291 -0.86118108 2.9255152
-2.6257868 -1.0906374 3.0059876
-2.7446151 1.36077 2.9259531
-2.6286783 1.3603193 2.9519238
-2.5645063 1.3798723 2.9658673
-2.5267334 1.3802598 2.9743171
-5.3203611 1.3158525 2.3501639
-5.3766942 1.3118155 2.3376377
-5.3651071 1.316111 2.3401387
-5.3323622 1.3191348 2.3474052
-5.3106484 1.3193374 2.352263
-5.2821488 1.3183383 2.3586664
-2.0105958 -0.38830012 3.1284361
0 0 0 1 0 0 0 1 0 0 0 1 0 0 0 0 0 479 1 0 0
