ply
format ascii 1.0
comment PCL generated
element vertex 1417
property float x
property float y
property float z
element camera 0
property float view_px
property float view_py
property float view_pz
property float x_axisx
property float x_axisy
property float x_axisz
property float y_axisx
property float y_axisy
property float y_axisz
property float z_axisx
property float z_axisy
property float z_axisz
property float focal
property float scalex
property float scaley
property float centerx
property float centery
property int viewportx
property int viewporty
property float k1
property float k2
end_header
0.63051593 -0.03077662 0.18793124
0.49552158 0.27563816 0.34711593
0.59848559 -0.27179345 0.3881436
0.59865266 -0.31179276 0.38796812
0.49880376 0.1156545 0.34796661
0.50516498 0.11591855 0.3877719
0.50720388 0.047811538 0.39267045
0.60920042 -0.19061655 0.1304583
0.58598864 -0.2702671 0.028363824
0.56580788 -0.39026672 0.0085434318
0.59187704 -0.35094407 0.18791491
0.59915394 -0.43179065 0.38744158
0.59448701 -0.31128398 0.26804155
0.46836203 0.11457483 0.18891603
0.42587277 0.11179946 -0.24988127
0.42174545 0.17060255 -0.3242808
0.39898878 -0.23019859 -0.16509295
0.41430968 -0.1096054 -0.28518695
0.15648371 -0.32580474 -1.3978339
0.43573791 0.21013632 -0.20452565
0.43979201 0.16997825 -0.16481239
0.62534779 0.20972794 0.069057763
0.26257902 0.78072536 -2.0093896
0.26433504 0.70096821 -1.9689455
0.27877954 0.58127093 -1.9286942
0.27358657 0.62124634 -1.9287577
0.1981454 0.22053073 -2.2103028
0.18565224 0.32660282 -2.2081542
0.29848596 0.20623986 -2.0935352
0.30343428 0.32826149 -1.6078212
0.52971762 0.94937027 -0.75626338
0.36684486 0.78796196 -0.8598001
0.36639199 0.7487064 -0.73197198
0.36155701 0.66821587 -0.81137061
0.31362566 0.667054 -0.9698239
0.42141256 0.8273254 -1.0144905
0.35804638 0.96405852 -1.093199
0.41906878 1.0270791 -1.0556365
0.52828413 0.80649847 -0.81789219
0.52924418 0.88923663 -0.77839887
0.5310002 0.80947953 -0.73795485
0.25659323 0.61460316 -1.7680418
0.2742759 0.6226545 -1.6886457
0.27521434 0.6624245 -1.7289411
0.45324913 0.99529082 -1.8170674
0.53838807 0.17278676 -0.71105731
0.3417033 -0.13824672 -1.8037167
0.33851317 -0.14285442 -1.8961821
0.33647117 -0.18149257 -1.9237919
0.49597606 0.13293238 -0.7847991
-0.01551801 -1.0846181 -1.8353482
0.09210363 -0.46450305 -1.7564064
0.10587302 -0.50426787 -1.797078
0.15211305 0.30559996 -3.8883886
0.15030992 0.34604222 -3.9279003
0.076574057 0.54445666 -3.842931
0.078730196 0.58447498 -3.8425629
0.052900255 0.58608109 -4.0017176
0.046442777 0.58648258 -4.0415063
0.055833131 0.70564491 -3.9604604
0.050443023 -0.041917652 -4.1288743
0.050667346 0.11846261 -4.1674023
0.078491896 -0.2436654 -3.9316154
0.048606455 -0.16192499 -4.1299376
0.15028559 -0.16938362 -3.2930007
0.13956574 -0.088681608 -3.3719218
-0.0053547621 0.45749226 -3.2980115
0.17867699 0.070591122 -3.0115535
0.20324621 0.25715783 -3.1152332
0.52207267 -1.0717845 2.4600756
0.52077037 -1.0688548 2.420126
0.44876406 -1.1327047 2.0215101
0.61627841 -0.53486246 2.3828001
0.42883569 0.14806662 -0.89058441
0.53363615 0.14939323 -0.75158316
0.63001466 0.089221269 0.18845779
0.54392999 0.029685073 -0.56926978
0.41681468 0.46707168 -1.0521897
0.44432318 0.38756725 -0.99011254
0.48755109 0.40334105 -0.89412415
0.48459873 0.58797491 -0.95517045
0.52710366 0.76875895 -0.85764879
0.52927601 0.60400426 -0.81670755
0.24449266 0.30657023 -0.99281204
0.24647902 0.26688713 -0.94010955
0.24556521 0.27923644 -0.9651677
0.23969094 0.22694328 -0.92462856
0.45330063 0.91215789 -0.21560943
0.28273103 0.62671882 -1.0010464
0.30011961 0.82652134 -1.0503706
0.37095597 1.0684919 -0.77407604
0.39487004 -0.10723107 -0.84484434
0.19862448 0.18524316 -1.1806307
0.24170674 0.073686406 -1.1989768
0.36494747 0.17374805 -1.0952673
0.21721795 0.22169355 -1.803107
0.026441008 -0.89478749 -1.7559513
0.033878893 -0.78575402 -1.5281078
0.079162866 -0.10130648 -2.0891047
0.16645156 0.077849433 -2.2105393
0.055610716 -0.63343191 -2.036027
-0.14815882 1.1304536 -5.1494708
-0.051636636 0.96814269 -4.8339338
-0.0060586929 0.76527953 -4.4769673
-0.01336959 0.88694537 -4.6758237
-0.020266414 0.79139245 -4.5171299
-0.021977037 0.99137205 -4.5148344
-0.026953965 1.1668808 -4.673018
-0.013010085 1.2059183 -4.5530944
-0.024299473 1.126893 -4.6734433
-0.05495432 1.2992599 -4.6709528
0.19657126 0.58461338 -3.7668104
0.19666377 0.74415076 -3.725003
0.065130979 0.66526985 -3.921222
0.071246326 0.70486426 -3.8809743
0.02745676 0.54217815 -3.6810443
0.03568393 0.62730396 -4.1207156
0.040338278 0.66734469 -4.1204386
-0.004521966 0.63015938 -4.3994184
-0.01439625 -0.31845403 -4.5294743
-0.014963418 -0.38382143 -4.483748
-0.024108797 -0.38312149 -4.6035013
-0.13016763 0.23816867 -4.2400351
-0.11977071 0.2279581 -4.2971225
-0.20630631 -0.64953792 -3.4852254
-0.1945565 -0.60932654 -3.5002668
-0.23107383 -0.89005941 -3.4465959
-0.19495746 -0.69408679 -3.5260649
-0.32270023 -1.1669443 -3.8262532
-0.32488421 -1.1488822 -3.8860466
-0.074258626 -1.0854864 -3.5739682
-0.17887631 -1.0903165 -3.1300852
-0.023552269 0.59136802 -4.5192437
-0.020711899 0.55139452 -4.519794
-0.02969414 0.52756667 -4.7583194
0.086524248 -0.72466147 -1.1569493
0.03812483 -0.82625157 -1.4108552
0.070938677 -1.1050558 -1.6533248
0.11135143 -1.0849469 -1.6396341
-0.29057202 -1.1296482 -4.0471644
-0.032359481 0.37888879 -3.4405062
0.079463482 0.18219443 -3.6469362
-0.018407285 0.37855452 -3.4009907
0.12201612 0.072361693 -3.4898767
0.077660352 0.2226367 -3.6864479
-0.22445723 -0.97172016 -3.2699776
-0.22914442 -0.98792893 -3.4075561
0.48176053 0.26880515 0.69586748
0.49595165 0.50894916 0.59522241
0.49377987 0.58893436 0.55525178
0.54631799 -0.66752201 2.1034467
-0.36165842 -1.2032585 -4.428987
-0.38402495 -1.2013576 -4.4448447
-0.34404978 -1.2011237 -4.4462342
-0.22551587 -1.2000473 -4.4903769
-0.32510063 -1.2231205 -4.6555691
-0.37318626 -1.2339494 -4.4791594
-0.16104659 1.3402736 -5.4274492
-0.15531662 1.2514615 -5.2707901
0.16584219 -0.37120444 -3.0953074
0.17741163 -0.25106826 -3.1020868
0.20336497 1.089977 -2.089278
0.19180302 0.8999238 -2.0877397
0.27863663 1.2626715 -1.6926459
0.32024068 1.3040373 -1.4941946
0.30458051 1.2091985 -1.4530655
0.372724 1.3068597 -1.0557387
0.36087847 1.1872439 -0.97956967
0.28886047 1.2631876 -1.6129498
0.29405344 1.2232125 -1.6128865
0.39799941 1.3870952 -1.0370721
0.32506377 0.50336212 -1.6096129
0.34355107 0.54365367 -1.5754653
0.23787691 0.38547036 -1.1756705
0.24764819 1.3021364 -1.9719937
0.25932333 1.2614098 -1.8920991
0.29552108 0.96665347 -2.1249642
0.13868323 0.071308702 -3.3703887
0.14823207 -0.049015552 -3.331825
0.12495582 -0.0076188445 -3.49073
0.11673442 0.07309778 -3.5697379
0.19725552 0.50462157 -3.7677288
0.059678137 0.30477059 -3.8850193
0.071555853 0.3034988 -3.7653801
0.058158636 1.2610571 -3.5540512
0.17395951 0.64694923 -2.2441785
0.17532802 0.4869656 -2.2460153
0.15303628 0.46426615 -2.2454538
0.22218439 0.53983444 -2.1266336
0.32144982 0.24618645 -2.0714121
0.32042345 0.36617419 -2.0700345
0.3288213 0.24080555 -2.0484252
0.19836603 0.18053316 -2.2106862
0.18951899 0.16664155 -2.2100818
0.2001989 0.10016266 -2.1714785
0.31224835 0.019669726 -2.0560572
0.2916519 0.019717053 -2.0728509
0.089270651 0.079131022 -2.1277883
0.20988566 -0.04516007 -2.1331544
0.011874706 1.2689121 -4.2727971
-0.016711801 1.2848809 -4.4322333
-0.017006189 0.57994038 -3.5188806
0.02143389 0.66212106 -3.6794848
0.34597075 0.12592791 -1.6053391
0.37453166 0.3420881 -1.867985
0.11324024 -0.20814064 -1.4758816
0.157371 -0.20597643 -1.3573319
0.15594068 -0.19580701 -1.3972635
0.24506818 -0.26559681 -1.3606311
0.33530864 -0.10248414 -1.983453
0.33198315 0.19526502 -2.0421109
0.33191559 0.21956336 -2.0323501
0.35339168 0.14162403 -1.9285948
0.18223098 0.72656202 -2.2035627
0.72620344 1.2310393 1.6486554
0.66816217 1.2705326 1.1241448
0.44442046 1.3258674 -0.85817975
0.62676483 1.3101778 0.61029142
0.65815187 1.3904567 0.87681061
0.076085687 1.0639796 -3.7970824
0.05611062 1.184257 -3.8350384
0.40722373 1.2285883 -0.78878456
0.38817465 1.307869 -0.89617604
0.73009753 -0.68828386 1.8972452
0.74822742 -0.52542055 1.6582825
0.67794645 -0.72708017 1.7384014
0.54336792 -0.65158308 2.0161626
0.67459714 -0.76667285 1.6980596
0.69883686 -1.0468504 1.7342947
0.7642054 -0.08460708 1.6049824
0.71886009 0.076171607 1.4930937
0.84934354 0.034079529 1.8061571
0.68621677 0.27063361 1.649121
0.86881959 0.59227729 2.5630445
0.84210348 0.59203804 2.4464312
0.84265465 0.51203996 2.441431
0.83747256 0.63200092 2.3627825
0.68883765 0.27441636 1.4451435
0.57317382 0.08353658 0.6898641
0.55404937 0.94949615 0.6530413
0.62317896 1.0301434 0.37034529
0.62788713 1.0764897 0.37780386
0.62642568 0.99016798 0.45029169
0.62366712 1.1131883 0.33398432
0.62515885 1.0760086 0.29785186
0.62613112 1.1562469 0.33735985
0.59184998 1.0298468 0.61163002
0.50324458 0.9890486 0.29462749
0.50610846 0.94907314 0.2945357
0.8979305 1.3300998 1.961395
0.8909204 1.0725359 1.7015529
0.8934797 0.79254758 1.7015409
0.71359766 0.67090231 1.6079936
0.71323204 0.71090066 1.6079953
0.68750083 0.75067049 1.5288594
-0.022583783 0.68691218 -4.6771808
-0.012268364 0.72559452 -4.5171113
-0.0020356178 0.72495753 -4.437417
0.094272792 -0.28510594 -3.7724497
-0.13569579 -1.1237426 -4.0525007
-0.038594812 -0.35408661 -4.4427309
-0.026318878 -0.32005769 -4.3689699
0.14583841 0.90038836 -3.4336908
0.18652926 0.90681249 -3.9629912
-0.0012124777 1.3139961 -4.0716696
-0.0055527091 1.3103356 -4.1916389
0.0074699819 1.029338 -4.3153405
0.054030001 0.74608713 -3.9999721
0.074966788 1.0244302 -3.8375125
0.18143354 1.1363418 -2.3991034
0.1899146 0.99662411 -2.2008278
0.23155555 0.62010199 -3.3473864
0.23910899 0.25877181 -3.2291081
0.23828161 1.0631377 -3.6028745
0.24257211 0.90226132 -3.5247695
0.7163614 1.0309443 1.5677648
0.68102461 0.87061965 1.4490066
0.71672702 0.99094599 1.5677631
0.65377456 1.1503909 1.2497787
0.71306157 -0.015493184 2.5378852
0.78565401 -0.013003156 2.383009
0.81714433 1.2318504 2.1244383
0.82987213 1.151958 2.2490835
0.82239377 1.1918998 2.0517135
0.78453511 -0.37390327 2.4592075
0.77988726 0.069514588 2.151449
0.91345954 0.19268811 2.1037538
0.89811862 0.088840038 2.1003571
0.92042327 0.13024163 2.2811358
0.88267624 0.15239462 2.3500335
0.7679702 0.23134232 2.5192516
0.89817142 0.03153494 2.0822289
0.15150379 -1.064806 -1.6334388
0.12514879 -1.0650628 -1.6000046
0.16656287 -0.78679299 -1.1649961
0.33024472 -1.0264356 -1.0916497
0.30199224 -1.0667555 -1.0458118
0.22559862 -1.0537498 -1.8035681
-0.14607033 -1.2049513 -3.9328241
0.3351346 -0.30741295 -0.86112946
0.32734782 0.040854722 -1.041993
0.30936927 -0.10847925 -0.64175725
0.25348443 -1.0846412 -1.0041783
0.46597341 -0.44815266 -0.56858933
0.42345953 -1.170984 1.8418038
0.56736761 -1.1300702 1.8976855
0.12004943 -1.1078944 -0.95961744
0.11893949 -1.1080749 -0.91955519
0.66991985 -0.68539208 1.5790153
0.66742188 -0.56586367 1.6204035
0.6720463 -0.64625686 1.6594138
0.41686863 -1.0890582 1.6627934
0.66704851 -0.76586759 1.6182637
0.47305879 -1.0592141 2.1816161
0.51558769 -1.0596354 2.2602997
0.51949459 -1.0684247 2.3801486
0.4643411 -1.0762014 1.9015527
-0.29005077 -1.2222354 -4.7993636
-0.32605204 -1.126102 -3.9158115
-0.36618677 -1.2041724 -4.2792487
-0.36336818 -1.1942616 -4.1992874
-0.36057302 -1.1818507 -4.1193223
-0.067438841 0.17217763 -5.3203459
-0.070911318 0.13182423 -5.2805395
-0.069477886 0.12608039 -5.3193784
-0.053893 -0.26150042 -4.881928
-0.052490771 -0.2817353 -4.8420706
-0.053058952 -0.14166433 -4.8537345
-0.040866315 -0.26243263 -4.7222853
-0.39939901 -1.2306442 -5.4686174
-0.015196651 -0.14382577 -4.4823275
-0.023997217 -0.22359788 -4.5225172
-0.015157789 -0.18382505 -4.4825644
-0.012780309 -0.15844908 -4.528028
-0.021615326 -0.10359713 -4.5218935
-0.013662815 0.0015412122 -4.526495
0.030110151 0.11987635 -4.3267775
0.034505665 0.078752726 -4.2072387
-0.050000668 1.1288251 -4.9126964
-0.026816845 0.88960862 -4.9955397
-0.035974085 1.2071819 -4.7123971
-0.035362601 0.2885693 -4.880198
-0.27796468 -1.1480253 -3.687542
-0.28124645 -1.1671093 -3.7851703
0.08262226 -0.5370844 -3.57428
-0.08937344 -1.1163554 -4.0140181
-0.081678152 -1.1259193 -3.7942326
0.1009075 -0.82907122 -3.0973463
-0.026424766 -1.0953763 -2.7752059
-0.056493193 -0.65345544 -2.9901524
-0.14464906 -0.55186462 -3.2062726
-0.057285547 -0.63576883 -3.0099719
0.6686964 -0.80540544 1.5777631
0.66827136 -0.76541013 1.578207
0.58549559 -1.1300931 1.9171181
-0.14710817 -1.0580006 -2.5705233
0.4866972 -1.0847669 1.342931
0.47079116 -0.70860392 -0.46229595
0.089793682 -1.1092546 -0.67840087
0.10539201 -1.1092639 -0.66143203
0.19609466 -1.1701994 -0.36215609
0.4510783 -1.1439624 1.4609976
0.76930648 -0.44499487 1.6409652
0.727202 -0.60412484 1.5205288
0.84958225 -0.063140243 1.7800894
0.59167141 -0.43381757 0.46358341
0.58747202 -0.39341962 0.42412931
0.51015127 -0.59094679 0.10968643
0.24274112 -0.77355093 -0.12194651
0.21048105 -0.95956868 0.078507245
0.26735371 -0.55164671 0.038237989
0.2862871 -0.63138914 -0.0027825236
0.43749151 -0.7495712 -0.27369833
0.72261131 0.4309696 1.7278154
0.69447732 0.43071613 1.6412725
0.69601887 0.35072592 1.6637547
0.8559075 -0.12754127 1.9567955
0.85540271 -0.087519094 1.9547408
0.73036706 -0.12783724 1.8632431
0.89013028 0.11247922 1.9219992
0.77842587 0.18869358 2.2253189
0.77715015 0.18912365 2.1853414
0.77959496 0.074594647 2.1440086
0.85446233 0.39217734 1.6280134
0.83107752 0.39196461 1.6038399
0.85510349 0.31217998 1.6255114
0.85625935 0.2546874 1.6429977
0.66986758 -0.56494868 1.5402899
0.54150832 -0.49154806 2.0129409
0.66907042 -0.48584563 1.6212118
0.67321879 -0.16668844 1.7045581
0.53404713 0.12266289 0.73155636
0.49343121 0.0028831363 0.67152983
0.50507343 -0.036544949 0.6307115
0.49385625 -0.037112176 0.67108601
0.45095584 0.12197261 0.71418911
0.46319178 0.10862876 0.69533187
0.8537311 0.47217402 1.6280167
0.86135793 0.16972537 1.7629161
0.49349463 0.5946902 0.18516916
0.5044024 0.58904248 0.29470044
0.50005174 0.55495536 0.22520858
0.50403678 0.62904084 0.29470211
-0.14151475 -1.1782069 -4.3730178
0.17933606 -1.0231707 -1.97944
-0.14388725 1.0138742 -5.5508399
-0.059491247 0.45492291 -5.6384525
-0.072251201 0.29385397 -5.5192876
-0.090998024 0.49512976 -5.6770625
-0.081812501 0.53346741 -5.476932
-0.10692266 0.14316806 -5.6782045
-0.039735734 0.12855533 -4.8813858
-0.033987761 0.098043077 -4.8004508
-0.040634662 0.098745912 -4.9202909
-0.054393351 -0.021031335 -4.9605446
-0.061040223 -0.020328492 -5.0803843
-0.059510529 0.41186437 -5.2785883
-0.05850789 0.61390281 -5.5170822
-0.068263263 0.61318207 -5.4367046
-0.069393188 0.61283737 -5.3966441
-0.1285015 0.97325987 -5.4716568
-0.038723677 0.44923076 -4.9587889
-0.035518587 0.32856756 -4.879858
-0.04235211 0.44887561 -4.918643
-0.048561782 0.40919062 -4.958787
-0.049774408 0.36952659 -4.9991021
-0.055901349 0.36916098 -4.9588704
-0.072033316 -0.14057624 -5.0406871
-0.054626584 0.21896429 -4.9591241
-0.071223557 -0.099865332 -5.1605492
-0.06749776 0.059899427 -5.1197133
-0.062684655 0.16977541 -5.0353518
-0.11157483 0.062690191 -5.5984678
-0.11165258 0.14268874 -5.5979943
-0.13086972 0.22337542 -5.7169285
-0.1336669 0.2546176 -5.6375875
-0.51892352 -1.2650292 -5.632216
0.78274447 0.79154795 1.4053376
0.83123279 0.75195056 2.3241978
0.80335164 0.7117008 2.1651103
0.83460319 0.7919845 2.289042
0.78235149 0.39149714 2.1259329
0.7766065 0.43144965 2.0460768
0.78634125 0.59154534 2.0444293
0.7876811 0.58655739 2.0456331
0.75946689 0.35129303 1.9666655
0.74426901 0.39115852 1.9021597
0.80721223 0.95174778 2.1248765
0.82435179 1.0319045 2.2042875
0.90047514 0.9926095 1.9463904
0.68319637 0.79063451 1.4889772
0.44073302 1.1113952 -0.33645147
0.46137661 1.0724291 -0.17682546
0.44362336 1.0314093 -0.33606875
0.66163045 0.95547813 0.17726058
0.44498754 1.0316498 -0.29609281
0.45657551 1.0324068 -0.17642081
0.44963387 0.87190676 -0.25526607
0.4958649 0.71563727 0.34445649
0.3997241 0.6698001 -0.57253861
0.41494495 0.67033994 -0.49301329
0.40202668 0.70981073 -0.57285798
0.41884878 0.43082801 -0.41165727
0.41880128 0.21094103 -0.40405631
0.4124158 0.21108899 -0.44385839
0.43130514 0.23199992 -0.22077197
0.42407686 0.21061265 -0.32419199
0.38637277 1.0290328 -0.69431663
0.41295186 1.0298603 -0.57515669
0.49598446 0.26894197 0.5352512
0.47707322 0.30876908 0.57594723
0.47924501 0.22878388 0.61591786
0.46085936 0.21111338 0.65661138
0.62551486 0.16972864 0.068882287
0.62673634 0.20955835 0.10903329
0.63090199 0.20904957 0.22895986
0.45774636 0.19405618 0.10875195
0.45848888 0.27382505 0.068222582
0.46235153 0.27407736 0.10811335
0.65679473 0.19490723 1.5488815
0.66556621 0.19455947 1.5886204
0.65557122 0.074893892 1.5476294
0.65844262 0.15536942 1.5083809
0.630813 0.51018798 0.45027119
0.63008177 0.59018469 0.45027465
0.4699049 0.38870856 0.53615671
0.57264966 0.54965538 0.51239485
0.47236407 0.50873774 0.49600774
0.46000776 0.47383106 0.066967309
0.49684453 0.515643 0.34562653
0.49953896 0.47565588 0.34577519
0.50129497 0.39589876 0.3862192
0.48422441 0.39460385 0.17918509
0.46426228 0.39408565 0.10732597
0.45306614 0.31333104 -0.011878014
0.46020368 0.4338322 0.067201316
0.48701254 0.43512896 0.26639849
0.49329871 0.63468903 0.18493515
0.48557338 0.63418442 0.10515386
0.45150608 0.3530893 -0.052088022
0.62069654 0.314587 0.062442124
0.6659261 0.63596845 0.25908464
0.48435664 1.1139418 0.06228441
0.47085792 0.99317658 -0.056600153
0.6217165 1.1901367 0.37035221
0.62459767 1.1901596 0.45030016
0.62532884 1.110163 0.45029682
0.630683 -0.070775926 0.18775576
0.63223863 -0.11094482 0.22755569
0.58515328 -0.070270613 0.029241443
0.50168681 0.31590107 0.38668722
0.50188273 0.27590221 0.38692123
0.59831852 -0.23179415 0.38831908
0.49497455 0.20423213 0.55357856
0.62399751 0.16698097 0.42899245
0.48038217 0.15423633 0.31337029
0.5027889 0.046538368 0.35151941
0.5856545 -0.19026849 0.028714895
0.59154284 -0.27094549 0.18826598
0.63379425 -0.15111372 0.26735574
0.59587556 -0.31145355 0.30801708
0.58782291 -0.31078601 0.14820164
0.40792421 -0.10945743 -0.32498896
0.54418296 -0.43044817 0.02913636
0.4413234 0.11280868 -0.09031862
0.44756606 0.16966069 -0.085034788
0.41069046 0.75008535 -0.53337193
0.38660988 0.74926972 -0.65261734
0.43184209 0.1920612 -0.21054393
0.31305382 0.88701385 -2.1440072
0.25551662 0.60492527 -2.0074539
0.26991984 0.58099514 -1.9684143
0.2569885 0.72493547 -2.0061674
0.2573306 0.68493956 -2.0066266
0.2786513 0.70220631 -1.7693217
0.28501248 0.7024703 -1.7295164
0.34693351 1.1813536 -1.9746549
0.17601226 0.40697375 -2.2469335
0.21515085 0.22518887 -1.2039485
0.43359548 0.99089408 -0.41553074
0.36946249 0.82845694 -0.77758366
0.52972496 0.66913772 -0.79460132
0.52692002 0.8062579 -0.85786819
0.45349655 0.87215906 -0.21537542
0.45755512 0.83241254 -0.17525077
0.45946586 0.95242083 -0.17603809
0.34554514 0.0036506057 -0.52246463
0.3416121 0.10786133 -0.6445967
0.31842205 0.10871885 -0.6864599
0.33702004 0.10899649 -0.65457666
0.3360568 0.14886002 -0.67729723
0.11504501 -0.78555632 -1.4959049
0.021820456 -0.78586113 -1.5151818
0.051746577 -0.70608276 -1.4358338
0.036395639 -0.78606147 -1.4556521
0.034926772 -0.74590313 -1.4929537
0.10465866 -0.47944868 -1.756906
0.26016143 -0.22272173 -2.0013652
0.077258319 0.46446484 -3.8438494
0.069339842 0.46531269 -3.9236088
0.13958368 0.74823314 -4.1231627
0.056610912 -0.0022661984 -4.0886908
0.053229958 0.15770949 -4.0870709
0.075331539 -0.12368727 -3.9303787
0.044495761 -0.12156668 -4.1694412
0.028775334 -0.2412717 -4.2100444
0.060942262 -0.082622096 -4.0495701
0.065273583 -0.16297799 -4.0104494
0.065052956 -0.12298042 -4.010066
0.046328634 -0.20193717 -4.1302338
0.028309166 -0.20520997 -3.9295073
-0.13369718 0.22671323 -4.1990561
-0.1315411 0.26673156 -4.198688
-0.12011284 0.26795402 -4.2966633
-0.030632943 0.12757362 -4.7616315
-0.028417706 0.057102785 -4.6407862
-0.025865138 0.24691042 -4.680747
-0.021344781 0.21758214 -4.7201357
0.15879548 -0.050487727 -3.1721025
0.15256341 -0.12937143 -3.2927043
0.17900793 0.010594755 -3.0121284
0.15857485 -0.010490149 -3.1717193
0.17928849 -0.091133729 -3.0931456
0.16752967 0.22878844 -3.0897319
0.21932147 0.028210171 -3.0008583
0.18567701 -0.091479853 -3.0533452
0.094475627 0.9434011 -3.7340536
0.53995019 0.17259596 -0.66608477
0.62773883 -0.03043744 0.10798019
0.62740469 0.049561158 0.10833126
0.45427552 0.11380617 0.069329321
0.45672864 0.16917354 0.034718335
0.44739896 0.20965998 -0.084859252
0.34594783 0.64666194 -1.491116
0.23816895 0.39553022 -1.165735
0.25917837 0.46586269 -1.1268512
0.345507 0.73665935 -1.4916425
0.25999501 0.47758824 -1.6872854
0.27197328 0.58264393 -1.6883264
0.3690913 0.74403596 -1.5325158
0.40252203 0.3069908 -1.0532402
0.42707971 0.22782376 -0.93102843
0.37063804 0.58846384 -0.77617961
0.28296503 0.5266766 -1.0079569
0.36639929 0.46847391 -0.77030993
0.28657499 0.3471629 -0.92695189
0.2476128 0.22705367 -0.91239208
0.45290875 0.99215561 -0.21607745
0.39531481 0.54978007 -0.57166588
0.41865286 0.47082683 -0.41189128
0.42468205 0.59113252 -0.36529249
0.37950617 0.66923684 -0.65189326
0.26401332 0.54635328 -1.0474526
0.28051427 0.62632787 -1.0660074
0.23258725 0.14691035 -0.92390454
0.25161636 0.17242329 -0.90122002
0.30936643 0.14844191 -0.72641391
0.50702488 0.50843197 -0.89542109
0.41632989 -0.12731376 -0.80565053
0.24224915 0.39875185 -1.0458217
0.24101572 0.093760252 -1.2163783
0.28314289 0.34269777 -1.6872636
0.055916071 -0.62347448 -2.0259893
-0.13133124 1.0101874 -5.1110277
-0.15321907 1.0861135 -5.2297177
-0.056595534 1.2484543 -4.8714452
-0.071981281 1.2890687 -4.9506288
-0.06287846 1.2880869 -4.830874
-0.10598657 1.3292651 -4.9891534
-0.089085698 1.1296811 -5.0314255
-0.11993045 1.2902277 -5.1090765
-0.11715171 1.212111 -5.3299613
-0.019973874 0.88793755 -4.7956638
-0.02892074 0.848921 -4.9157581
-0.015390754 0.88557708 -4.5156665
-0.014151067 0.83098686 -4.476882
-0.04140389 0.96750563 -4.75424
-0.0089870095 1.1655965 -4.5135446
-0.029608458 1.2068686 -4.6725926
0.00030693412 0.76496625 -4.4371629
-0.0018796325 0.68495923 -4.437757
0.017776012 -0.31095058 -4.2503414
-0.22379854 -0.94943267 -3.2472765
-0.23250684 -0.88218457 -3.4864979
-0.087145984 -1.0115151 -3.2125907
-0.11724284 0.17732158 -4.2402382
-0.12106007 0.19783957 -4.2007046
0.053038031 0.30522791 -3.9298043
0.046421051 0.34556955 -3.9641376
-0.029143512 0.44689125 -4.6789627
-0.030512124 0.44722548 -4.7189379
-0.029538155 0.48756841 -4.7586589
-0.024302453 0.48691043 -4.6787939
-0.014986575 0.24152666 -4.5241952
-0.029961497 0.36655006 -4.6395817
-0.028602332 0.24757886 -4.7606974
-0.03945896 0.40820894 -4.8390322
-0.041690111 0.56921506 -4.9576845
-0.033293873 0.68890703 -4.9169464
-0.031501949 0.80959117 -4.996048
0.29894075 -0.7353223 -0.80415267
-0.10001749 -0.38814223 -3.046185
-0.10274556 -0.3973909 -3.1262288
0.14980064 0.13731308 -3.1696582
0.16521385 0.13653247 -3.0901718
0.087912798 -0.72483104 -1.1169738
0.086388469 -0.69216204 -1.1568067
-0.014258325 0.38042957 -3.5612383
0.66349268 0.15453674 1.5882561
0.66976559 0.15416154 1.6280746
0.46277022 0.22862913 0.71407479
0.49726605 0.44395763 0.61520666
0.54392606 -0.65177119 2.0336528
0.546637 -0.65268505 2.1186047
-0.19766328 -1.2142589 -4.4422908
-0.36894926 -1.2038138 -4.6288691
-0.36748758 -1.2042027 -4.5888977
-0.37158176 -1.2352479 -4.4354401
-0.37464252 -1.2339051 -4.5191331
-0.3054662 -1.2005148 -4.4875979
-0.16354457 1.171068 -5.2286544
-0.12935463 1.2525687 -5.3892426
0.18112136 -0.17150423 -3.0539379
0.1566741 -0.16972974 -3.2532003
0.25062349 0.88487434 -2.0041487
0.27763784 0.8617323 -1.8502951
0.27724597 0.94172996 -1.8507631
0.28516722 0.90223575 -1.7707478
0.28750366 0.98271459 -1.6912638
0.26315948 0.94096136 -1.9703496
0.20237814 1.0998113 -2.1168199
0.28996834 0.94225806 -1.7711524
0.29912668 1.1031491 -1.6273462
0.35102105 1.1467588 -1.0540346
0.28129724 1.1822159 -1.7723005
0.25835106 1.1811717 -1.9316071
0.10521176 0.14150755 -3.5682733
0.057168067 1.2065091 -3.5946534
0.070486575 1.1830075 -3.7154901
0.16477484 0.57717955 -2.9251184
0.19080801 0.64730144 -2.2623034
0.13569829 0.44661102 -2.2450173
0.22745754 -0.060056895 -2.1339059
0.082391053 0.018325515 -2.0480678
-0.0029467344 1.0301634 -4.395009
-0.013363451 1.0309888 -4.4746776
-0.0074489117 1.3084219 -4.2441297
0.025712699 0.86812729 -4.1977201
0.035445154 0.9472937 -4.1171336
0.042929024 0.82690442 -4.0787225
0.025816053 1.1481211 -4.1945972
0.060922086 0.86522704 -3.9188352
0.076677442 0.82445049 -3.8398082
0.091498882 1.063199 -3.7175961
0.055624992 1.3017225 -3.6135483
0.37366638 0.36195222 -1.8905885
0.33267024 0.21766923 -2.019526
0.3118071 0.099664874 -2.0552907
0.35108909 0.10161345 -1.9282755
0.17076614 0.60646218 -2.2044849
0.62782252 1.310189 0.57022732
0.62279147 1.2301464 0.41032785
0.62567258 1.2301695 0.49027592
0.62820536 1.3101892 0.6502654
0.4051013 1.3483143 -0.83445954
0.45942956 1.2275019 -1.0181959
0.68454051 -0.40700799 1.7416341
0.67911768 -0.48662341 1.700928
0.73594546 -0.64866376 1.9375076
0.67183912 0.19418427 1.6284389
0.72122455 -0.10894106 1.5035341
0.66136622 0.11540154 1.5078576
0.65599626 0.034898579 1.5471857
0.67699605 0.15607269 1.4627709
0.72951698 -0.047846645 1.8641307
0.73004925 0.03254769 1.8299589
0.73217505 -0.047872975 1.8690486
0.72919917 0.1125383 1.8308465
0.76559943 0.11133736 2.0065393
0.76832509 0.070803106 2.0242596
0.74411726 0.348656 1.8871677
0.75302982 0.35123587 1.9268718
0.74267668 0.34864452 1.8471937
0.68457091 0.17593595 1.7078817
0.73048896 0.43103823 1.8075833
0.75729513 0.4312782 1.9266951
0.77261126 0.51142329 1.8860941
0.69765043 0.27073643 1.688735
0.6786437 0.5105778 1.5692735
0.90518427 0.47261322 2.3616388
0.72987974 0.27104017 1.472434
0.62864119 0.59017318 0.41030055
0.55189943 0.86947656 0.57308978
0.50220871 0.82903248 0.2947107
0.50434136 0.8690536 0.29462236
0.6307255 1.1502073 0.6101945
0.62891936 1.1901941 0.5702222
0.62999427 1.2302039 0.61019796
0.49887618 0.79494846 0.22380453
0.49481758 0.83469504 0.18367988
0.48748413 0.75419271 0.10436648
0.89548063 0.81006408 1.7615027
0.89455462 0.83255738 1.7415166
0.89501035 0.7925598 1.7440133
0.73775911 0.59111285 1.7722528
0.75079703 0.71123219 1.8868229
0.73689282 0.67110842 1.7685087
0.73476607 0.75109398 1.7297871
0.71930355 0.75095612 1.6477909
0.73469889 0.74859339 1.7272887
0.71676618 0.87093967 1.6078222
-0.018694252 -0.26406473 -4.4428897
-0.04610005 -0.34409559 -4.4424124
0.18730602 0.98635799 -3.9221022
0.18696389 1.0263538 -3.921643
0.022530198 0.94809675 -4.1967111
0.055686861 1.1851721 -3.915071
0.27230641 0.96667492 -2.14413
0.22602136 0.8411954 -3.4447882
0.21421741 0.22927718 -3.1138675
0.25037637 0.50096309 -3.4094486
0.72887003 1.071057 1.6473544
0.71246171 0.91090363 1.5679398
0.67935389 1.0706155 1.3839672
0.68116558 0.99062747 1.4139442
0.82653672 1.1819324 2.16414
0.82717657 1.1119353 2.1641369
0.83328718 1.0319844 2.2439916
0.82575327 1.1519222 2.2042027
0.82861716 1.1119468 2.2041109
0.8295778 1.1644561 2.2440872
0.82207793 1.1968975 2.0442185
0.80842644 0.47173375 2.245048
0.81101137 -0.17139244 2.260428
0.77698904 -0.15865752 1.9814918
0.7894277 -0.13296163 2.3815982
0.85726172 -0.17132869 2.2989752
0.78862989 -0.17341444 2.421211
0.86659181 -0.131143 2.2916057
0.67462486 -0.17585957 2.5323839
0.7736913 -0.17446658 2.5017219
0.80177557 0.23165275 2.4855123
0.15126432 -1.0697739 -1.6409562
0.14658156 -0.74690145 -1.1591299
0.19976032 -0.30604541 -1.3016937
0.21664213 -0.30589548 -1.3197901
0.21739048 -0.22824094 -0.78415924
0.19313829 -0.67010224 -0.38494676
0.16229719 -0.58858937 -0.7587592
0.099924624 -1.1085963 -0.81883568
0.091055363 -0.81266868 -1.0374067
0.20299663 -0.82806212 -0.84123796
0.46766296 -1.1495531 1.9807031
0.12227383 -1.1091142 -0.67952847
0.45235401 -1.1443923 1.5009749
0.4191809 -1.0898378 1.7352521
0.66662347 -0.72587234 1.6187077
0.55187052 -1.0928216 2.1312125
0.46806207 -1.0674927 2.0215957
-0.36470702 -1.2067165 -4.2392788
-0.055353552 -0.18126661 -4.9214296
-0.050128341 -0.1417349 -4.8413286
-0.055392414 -0.14126733 -4.9211931
-0.074415207 -0.26057702 -5.0413108
-0.03982836 -0.18219587 -4.7618737
-0.034525394 -0.22266272 -4.6822462
-0.058235765 -0.060798287 -5.0006704
-0.0294168 -0.063133225 -4.6014347
-0.027340889 0.097340256 -4.6806111
-0.0088946223 -0.06405662 -4.4420514
-0.0064349771 -0.024054423 -4.4419012
-0.01281479 -0.023825034 -4.4817038
0.007335633 -0.079867676 -4.3678865
0.011670649 0.040154271 -4.36691
0.035388172 -0.081237584 -4.2087717
-0.038367152 0.12822112 -4.8414106
-0.034065515 0.17804162 -4.7999773
-0.24127129 -1.1668754 -3.7865598
-0.20286164 -1.1662195 -3.8329201
-0.18063548 -1.1274567 -3.690737
-0.2754434 -1.101279 -3.6071386
-0.12799838 -1.1094649 -3.9725828
-0.034407556 -1.0627539 -3.5751421
0.0031418204 -0.87465614 -3.6147091
0.0035586655 -0.88724917 -3.6048353
0.0030304193 -0.80723065 -3.6065671
0.0027419329 -0.80216056 -3.6140144
-0.10096994 -1.1262238 -3.773551
-0.14297953 -0.4924078 -3.1482351
0.061665267 -0.85196781 -3.0786836
-0.12236711 -1.0645888 -2.6514986
-0.082391948 -1.0643549 -2.6528881
-0.056790203 -0.47365403 -2.9684408
-0.01622954 -0.45360911 -2.9496515
-0.1470122 -0.97608489 -2.7698877
0.06217438 -0.69235289 -3.0371766
0.36809382 -1.0989854 1.3840842
0.51086652 -0.35470486 0.46701318
0.52091438 -0.23592681 0.58803838
0.53657043 -0.17458713 0.70826668
0.27232823 -0.83687949 0.4294154
0.29553312 -0.83687449 0.45118767
0.29494861 -0.79682541 0.44663435
0.45829111 -0.86888856 -0.41000968
0.3501572 -0.75558096 0.38778371
0.42820704 -0.91182846 0.23124486
0.53175801 -0.51419783 0.4396165
0.10730776 -1.069519 -0.60129321
0.13726923 -1.1106296 -0.31983548
0.1563656 -1.0298445 -0.48025396
0.14701648 -1.1092923 -0.61534894
0.15604852 -1.0704167 -0.35033554
0.13743632 -1.150629 -0.32001102
0.50835985 -1.1258333 1.4593647
0.74610096 -0.5645557 1.5778842
0.67491829 -0.44622546 1.661474
0.450454 -1.0852191 1.4616494
0.50876272 -0.59077722 0.06971091
0.5274682 -0.47059739 0.047057331
0.85731578 -0.19277555 1.9785614
0.80105484 0.23165289 2.3266854
0.72363698 0.19093503 2.5283659
0.76960081 0.070373043 2.0642369
0.7760067 0.030970737 2.0160816
0.76790005 0.1107984 2.0247033
0.8551625 0.3746824 1.6430027
0.8925643 0.1928332 1.9615736
0.49922618 0.043390796 0.63175803
0.72691572 0.39100561 1.7676976
0.86260378 0.11223351 1.7829006
-0.095432043 1.173053 -5.4310937
-0.15661851 1.0145007 -5.6304483
-0.067878067 0.45386791 -5.5180998
-0.067216039 0.57420737 -5.5571408
-0.10068014 0.4150914 -5.6774001
-0.073581666 0.57452065 -5.5969453
-0.041327775 -0.061962813 -4.8011389
-0.049968481 0.12919237 -4.9610801
-0.055108666 0.73357385 -5.4761734
-0.061585695 0.53287226 -5.3975801
-0.05982247 0.4918609 -5.2779088
-0.064708114 0.69285482 -5.3961358
-0.078731149 1.0852854 -5.3923745
-0.046317816 0.81258863 -5.3557391
0.00046694279 0.92846143 -5.4364219
-0.0013790429 0.85398692 -5.4995203
-0.12826282 0.97258091 -5.3916211
-0.052190214 0.4088355 -4.9186411
-0.037511051 0.48889482 -4.9184742
-0.048147857 0.41157201 -5.238955
-0.052988917 0.37155282 -5.2391238
-0.059465945 0.17085123 -5.1605306
-0.054274827 0.41120639 -5.1987233
-0.055745393 0.32916272 -4.9592104
-0.049067795 0.24885292 -4.9200854
-0.060396373 -0.060430691 -5.0631318
-0.060385972 0.18037951 -5.1992993
-0.062699735 0.12981893 -5.0406885
-0.074539751 0.13146907 -5.2403932
-0.064536244 0.25014791 -5.0796442
-0.055516124 0.20984684 -5.0402651
-0.11546129 0.25265417 -5.3980784
-0.11648923 0.33468738 -5.6375065
-0.0867064 0.18271738 -5.5986218
-0.087822109 0.18247919 -5.5585599
-0.11939868 0.22270787 -5.6022587
0.82695019 0.63190979 2.2443347
0.83655578 0.83200425 2.283957
0.83766985 0.75200772 2.3639917
0.79684049 0.35162452 2.2054741
0.82998955 0.95195276 2.2016058
0.90087819 1.0076132 1.9613812
0.89309227 0.99255073 1.7415235
0.76924253 1.111421 1.8059916
0.77322048 0.99144888 1.8859346
0.66250086 0.71044368 1.4497201
0.49625677 0.63563955 0.34492451
0.50051129 0.55589414 0.38528317
0.49676952 0.71493906 0.22435778
0.49188367 0.6289205 0.5127812
0.42130613 0.67060399 -0.45320797
0.41639143 0.19105197 -0.37010658
0.42796388 0.21045388 -0.28430319
0.41525444 1.0698708 -0.57547605
0.40678662 0.98959732 -0.61472797
0.38879889 0.34975064 -0.5702399
0.39996117 0.390037 -0.5308392
0.41498613 0.4305757 -0.45154792
0.40206784 0.47004643 -0.53139257
0.48064804 0.16660047 0.32600194
0.45037982 0.14851326 0.69703287
0.49899238 0.35588816 0.38653857
0.55374938 0.50948012 0.53310043
0.5126583 0.78911442 0.57452708
0.48274869 0.46940625 0.1462658
0.43621019 0.55184549 -0.252882
0.44026875 0.51209897 -0.21275735
0.62791002 0.67016983 0.41030401
0.6275444 0.71016818 0.41030568
0.48591673 1.0741835 0.10249442
0.48977938 1.0744358 0.14238507
0.46083 0.9526614 -0.13606215
0.47109503 0.71341348 -0.014900744
0.62821001 1.1101859 0.53024477
0.62713504 1.0701761 0.49026912
0.62208211 1.1501384 0.37035042
0.46983379 0.088879019 0.11397141
0.43390778 0.050128318 -0.20514095
0.49977607 0.19589277 0.3874746
0.59815145 -0.19179484 0.38849467
0.49435261 0.088096157 0.31574029
0.58893281 -0.31060559 0.10813934
0.59082067 -0.47338283 0.42316228
0.62167615 0.11459273 0.063612163
0.39904022 -0.10932028 -0.36470431
0.2725684 -0.33736795 -0.36127877
0.23273902 -0.37254035 -0.36004454
0.50737101 0.0078122392 0.39249486
0.51076263 0.0057378113 0.43087131
0.51246339 -0.034687549 0.47040492
0.50911409 -0.074280232 0.43006319
0.45291138 0.11356561 0.029353321
0.44098958 -0.050367892 -0.085739911
0.33437434 -0.24741 0.27734774
0.72844905 -0.7683019 1.8964369
0.37078407 0.59349376 -0.77121186
0.3764272 0.5089891 -0.69084787
0.25816977 0.66070533 -2.008517
0.34576529 1.1411142 -2.0143969
0.23510693 0.60566109 -2.0867581
0.19795512 0.16510841 -1.2030002
0.14586438 0.015312873 -1.6611799
0.11036918 -0.18530187 -1.5557339
0.43804589 0.87114984 -0.37493807
0.36960852 0.83348691 -0.77261591
0.35721368 1.1340537 -1.0941935
0.33755618 1.0664617 -1.0931159
0.52952904 0.70913661 -0.79483533
0.48584485 0.90846187 -0.87459207
0.47639918 1.1469965 -1.1183505
0.52854943 0.90913081 -0.79600537
0.52640158 1.0688857 -0.8369174
0.29988983 0.82605189 -1.1304079
0.1744267 0.50874937 -1.844649
0.17368853 0.62078428 -1.9240952
0.27073005 0.74170053 -1.849337
0.45305631 0.1730978 -0.86318678
0.13747407 -1.0250094 -1.6002628
0.026916683 -0.90484029 -1.7435029
0.11077642 -0.28280017 -1.5561618
-0.11946666 0.43729505 -4.2372537
0.033538669 0.70774209 -4.1597681
0.035352677 0.78775638 -4.1589408
0.020623714 0.70854515 -4.2393456
-0.080481917 0.46787381 -4.2583518
0.058511674 0.15697341 -4.0072098
0.065493137 0.049133793 -3.9684393
-0.10327232 0.1946767 -4.1213017
0.096329987 -0.20509616 -3.77177
0.077388734 -0.043677509 -3.9296989
0.068975985 0.26439556 -3.8457808
0.076199353 0.22308303 -3.7264187
0.066665202 -0.16335332 -3.9704754
-0.014701784 0.24076135 -4.4441605
-0.013594955 0.24115132 -4.4842215
-0.057691008 0.46876746 -4.3192186
-0.028723687 0.097575516 -4.7205868
-0.027895749 0.12690519 -4.6816812
-0.027034938 0.056867525 -4.6008105
-0.030184209 0.1778093 -4.7600884
0.072832078 0.57842046 -3.3195338
0.15585577 0.029492818 -3.1712492
0.1581336 0.069505006 -3.1709526
0.14687864 0.13820578 -3.2495997
0.17666781 0.13617578 -3.0505652
0.17519897 0.22878535 -3.0849957
-0.0041226447 0.37733305 -3.2839408
0.42727563 0.1878249 -0.93079436
0.62912738 -0.03060703 0.14795572
0.30754825 -0.27164814 0.078054368
0.41769958 -0.19029319 -0.12554908
0.3089368 -0.27181774 0.11802989
0.37644657 0.54688156 -1.0512925
0.32931095 0.70384926 -1.5309165
0.30048913 0.70305526 -1.6424955
0.30020794 0.74303907 -1.645228
0.31826603 0.92387187 -1.0915997
0.33658388 0.9862234 -1.1326239
0.38258356 0.77136505 -1.5731646
0.37963197 0.86385065 -1.5736204
0.37274823 0.47123787 -0.73051918
0.3771624 0.86899048 -0.6930393
0.39992002 0.62980127 -0.57230461
0.36928234 0.66872048 -0.73158932
0.28089067 0.67143184 -1.0487812
0.28245074 0.63167357 -1.0085711
0.23827916 0.37303087 -1.1656034
0.21651499 0.22542945 -1.1639725
0.21980573 0.13253798 -0.95781946
0.20824324 0.09270741 -1.0076175
0.24233578 0.34622326 -1.0505116
0.24144828 0.28351459 -1.0851249
0.21919295 0.21288659 -1.0375062
0.24389584 0.306465 -1.0103016
0.19682363 0.11736921 -1.2426983
0.2073167 0.065335087 -1.0377197
0.089864343 0.072067991 -2.1142724
0.31246227 -0.1824953 -2.0030112
-0.064687014 1.2092288 -4.9665551
-0.109615 1.3289099 -4.949007
-0.1276201 1.0498619 -5.0707984
-0.055659711 1.0084647 -4.8734841
-0.019820929 1.0313903 -4.5144663
-0.014436066 1.0712079 -4.4942036
-0.030509144 1.087208 -4.7135873
-0.026578188 0.88892972 -4.915504
-0.02464956 0.92655706 -4.6350813
-0.0014087558 1.2049472 -4.4334254
-0.041127086 1.2471592 -4.7118864
-0.039703488 1.3112049 -4.5106149
-0.033310175 1.2858312 -4.5517316
0.00015094876 0.80496448 -4.4368229
0.014523923 -0.225205 -4.3294754
-0.18108359 -1.0522792 -3.1871886
0.022892237 -0.28168848 -4.1701927
-0.11615977 0.39140695 -4.1578288
-0.02582702 0.5272429 -4.7184296
-0.022548646 0.3272621 -4.7202139
-0.034818441 0.72923952 -4.9565816
-0.044739246 0.64988005 -5.0369554
-0.033688515 0.72958422 -4.9966421
0.0006185174 0.93341947 -5.4313827
-0.032631874 0.80924648 -4.9559875
-0.0721021 0.96941674 -4.9933219
0.18684801 -0.051857635 -3.0129879
0.17805439 -0.13142741 -3.0634613
0.17289998 -0.09078759 -3.1329458
-0.26686886 -1.2024055 -4.5289855
-0.34683302 -1.2003732 -4.5261827
-0.36458179 -1.2024806 -4.5089297
-0.3768144 -1.2005484 -4.5251403
-0.13099059 1.0918864 -5.3104806
-0.13652882 1.2911777 -5.2285748
-0.11722213 1.2520885 -5.3271232
-0.11809921 1.2797751 -5.3493757
-0.11170906 1.2126439 -5.3901806
0.13153903 -0.39448684 -3.294462
0.15689474 -0.20972732 -3.2535837
0.28071678 1.02198 -1.8113405
0.2855179 1.0620023 -1.811745
0.39743841 0.98323113 -1.6950184
0.35417992 1.1430271 -1.6945038
0.33806348 1.2632873 -1.637143
0.2838296 1.2226961 -1.6925825
0.28441736 1.1026994 -1.6918805
0.28422877 0.86246574 -1.7304524
0.29289255 0.90274036 -1.6909664
0.23160926 0.35829833 -3.4103558
0.1828714 0.36061776 -3.6487236
0.10862312 0.141251 -3.5433826
0.11166924 0.14110604 -3.5284846
0.092296809 0.14231059 -3.6478508
0.19949326 0.58372068 -3.6868689
0.1427241 0.94044554 -3.440635
0.12016916 1.0216196 -3.5589917
0.15335703 0.42676997 -2.2458844
0.22679564 0.059935838 -2.1327562
0.2924757 -0.062329322 -2.0593421
0.091729313 0.05849883 -2.0605237
-0.0003169477 0.92495924 -4.4358039
0.027972162 1.1881394 -4.1942291
0.037693769 1.1468494 -4.0749578
0.14184724 0.15170842 -3.40977
0.12854345 0.13987908 -3.4090276
0.11762062 0.11348532 -3.6094155
0.18439655 0.35267216 -3.6088388
0.11607254 0.19309051 -3.5685883
0.11092907 0.18043792 -3.4704764
0.067379594 0.86482555 -3.8790467
0.074863434 0.74443626 -3.8406353
0.33611566 0.057332851 -1.940277
0.23035687 0.94198835 -2.2029161
0.19231644 0.88618898 -2.1621196
0.19113342 0.85413867 -2.2024634
0.17714201 0.56697983 -2.245188
0.62674755 1.2701793 0.53025168
0.66986823 -0.44539279 1.5815988
0.67071831 -0.52538341 1.5807111
0.664446 -0.40545237 1.5822015
0.7330218 -0.60869586 1.9380307
0.73807126 -0.72908443 1.9765973
0.67704409 -0.5266462 1.7005637
0.68246633 -0.56658661 1.6999609
0.68379432 -0.68746006 1.7786636
0.5352425 0.0027038604 0.72772628
0.52011788 -0.037267894 0.71026891
0.45326862 0.16191472 0.7220493
0.49321964 0.20221457 0.733715
0.76335531 -0.004616484 1.60587
0.72817552 0.072596475 1.8241959
0.74265385 0.3511444 1.8471937
0.9150058 0.4077071 2.2011995
0.7574029 0.19665021 1.488157
0.61081588 0.59000766 0.4709819
0.49797156 0.79564673 0.34390312
0.62715691 0.91017127 0.45028824
0.66514242 0.79596388 0.25814861
0.48420191 0.91417634 0.1035158
0.89367437 0.85005093 1.7215304
0.89401722 0.81255251 1.7215288
0.73327458 0.63107544 1.7273738
0.78690416 0.67155385 2.0456369
0.77929199 1.0315044 1.9257302
0.71319294 0.83090699 1.5679364
-0.032707423 -0.31971157 -4.4087706
-0.034990311 -0.34384564 -4.48282
-0.018028677 0.65084833 -3.59811
0.16452959 0.2165243 -3.0892534
0.72279853 1.0310014 1.6075587
0.66955185 0.99052322 1.3693337
0.70852286 0.91086936 1.5280559
0.75333095 -0.094856709 2.5182366
0.77156609 0.025509939 2.5039411
0.82923096 1.2319555 2.2515852
0.82795447 1.1844437 2.204114
0.78650349 -0.21254963 2.3408127
0.75452632 -0.21481574 2.5144064
0.17911224 -1.0237753 -1.8418508
0.19049469 -1.0239017 -1.8022221
0.085503012 -0.66706705 -1.1791832
0.16436812 -0.78684092 -1.1561649
0.21097732 0.053026542 -1.0779237
0.25088388 -0.12982762 -0.9600122
0.21331811 -0.18776464 -0.89641488
0.18941267 -0.89952582 -0.52087343
0.19036262 -0.79469723 -0.48043716
0.1903313 -0.78719735 -0.48040426
0.1725779 -0.98994988 -0.44062334
0.18379326 -0.950077 -0.4008193
0.18828897 -0.83005744 -0.4004662
0.19084299 -0.90969521 -0.48094177
0.19256537 -0.65753883 -0.39988279
0.1891527 -0.62963653 -0.49470395
0.13851163 -1.1082535 -0.86019909
0.098937958 -1.0385127 -0.83851629
0.46697226 -1.0845606 1.9814243
-0.24334916 -1.1837878 -3.8491869
-0.069419593 0.066081494 -5.3197336
-0.08079499 -0.26034763 -5.0811133
-0.065575778 -0.22080418 -5.001358
-0.029222429 -0.26312959 -4.6026182
-0.038445562 -0.18243113 -4.7218981
-0.056814104 -0.10103281 -4.9609318
-0.029377937 -0.1031325 -4.6016712
-0.012050569 -0.038831711 -4.4869041
-0.011829942 -0.078829288 -4.4872875
-0.023075879 -0.023363337 -4.5613952
-0.0065127313 0.055944122 -4.4414277
0.031056851 -0.00088168681 -4.2478924
-0.056366295 1.1291385 -4.9525003
-0.063549906 1.0491104 -4.9529238
-0.044326603 0.17850332 -4.8796692
-0.27565029 -1.0637813 -3.6067793
-0.25068435 -1.0094037 -3.5270858
-0.049573272 -0.92938036 -3.4132576
0.085959196 -0.52799994 -3.4767475
-0.17376229 -0.61011577 -3.4059362
0.096332759 -0.75544953 -3.2165737
-0.1202617 -1.1265285 -3.7528691
-0.14648196 -0.47149408 -3.2454801
0.059733748 -0.86392748 -3.1362662
-0.1761758 -1.0760682 -3.0499933
-0.17752609 -1.0831923 -3.0900393
0.099854231 -0.81131423 -3.1246607
-0.12127885 -1.0099673 -2.6109974
-0.12672123 -1.0309646 -2.7711093
0.13885567 -0.46135968 -3.0952144
0.10450214 -0.47309422 -2.9340246
0.092660695 -0.94779354 -1.0080174
0.22419052 -1.1086071 -0.69807571
0.22670726 -1.1089144 -0.62562001
0.23692086 -0.9077397 -0.88277888
0.36798736 -1.1263478 1.3712862
0.57487333 -0.19600049 0.64677995
0.49428129 -0.077107474 0.6706422
0.49592915 -0.11664529 0.63014156
0.50214916 -0.11613293 0.58992594
0.28227031 -0.71632636 0.39037234
0.31607994 -0.83684319 0.46804231
0.25778249 -1.072731 0.27400488
0.21645294 -1.0602453 0.23797053
0.21781215 -1.0741541 0.27538723
0.23815629 -1.1502917 -0.3009944
0.29723263 -1.1164114 0.40810364
0.48997048 -0.71094644 0.089866102
0.28387582 -1.050873 -0.12455201
0.41110089 -1.1444013 1.4622686
0.33721003 -1.1159725 0.40683252
0.74647373 -0.48410761 1.5387149
0.43519357 -0.78916413 -0.36884463
0.76412505 -0.0083548278 1.9434967
0.85557377 0.32968426 1.6430008
0.77082431 0.19038638 2.0654888
0.50996542 0.084840879 0.5117932
0.50794476 0.04393059 0.59146291
0.85916328 0.25221044 1.7229457
0.68273646 0.11341586 1.7072678
-0.054879427 0.61425799 -5.5572286
-0.0788863 0.53337342 -5.4645252
-0.082609713 0.41440222 -5.5879688
-0.028837621 0.69402498 -5.5174284
-0.00085291266 0.91629618 -5.4765034
-0.039035618 0.52922726 -4.9581094
-0.057352632 0.33017585 -5.0792212
-0.050592363 0.2891854 -4.9597206
-0.029970914 0.24791308 -4.8006725
-0.068234533 0.22106543 -5.316361
-0.068798006 0.29114881 -5.1992302
-0.065154761 0.21989945 -5.1188526
-0.056426913 0.10014864 -5.159884
-0.06414631 0.15015227 -5.0804939
-0.064692229 0.29014617 -5.0793047
0.81691796 0.7518248 2.2046359
0.7848224 0.75153971 2.0081646
0.89255476 0.9725458 1.7215357
0.49953166 0.7558884 0.38411313
0.4170928 0.51058513 -0.45210126
0.39773098 1.0293204 -0.65468204
0.39714634 0.2113741 -0.52337575
0.38938665 0.22975408 -0.56953788
0.39551073 0.50978124 -0.57143188
0.39555192 0.27001697 -0.52996659
0.38033104 0.26947713 -0.60949183
0.38052696 0.22947828 -0.60925782
0.37627247 0.30922368 -0.64961648
0.48011655 0.1792334 0.31364769
0.61318141 0.41002095 0.49096125
0.66756052 0.39052403 0.32890338
0.66792613 0.35052571 0.32890171
0.6686573 0.27052903 0.32889825
0.66829175 0.31052738 0.32890004
0.49138796 0.51468074 0.18572253
0.47074434 0.55364686 0.026096582
0.45166081 0.55285472 -0.093319416
0.49213049 0.59444964 0.14519328
0.62640381 1.1501727 0.49027246
0.59798431 -0.15179557 0.38867015
0.49409226 0.088127956 0.30824488
0.51288909 0.044872999 0.51126987
0.51458985 0.004447639 0.55080336
0.18604144 -0.54929876 -0.57430398
0.43968457 -0.070197955 -0.12580323
0.3286635 -0.2092323 0.11761016
0.45739695 0.0091763511 0.034016252
0.22717115 -0.38935107 -0.52252185
0.22917368 -0.3496168 -0.45988458
0.24931008 0.66042954 -2.0482368
0.30163926 0.5030911 -1.6363285
0.35738283 1.1866274 -1.0820081
0.52846783 0.76899952 -0.81767279
0.32212853 0.86700499 -0.98632628
0.36637682 0.98804641 -0.84597915
0.3659505 0.98797125 -0.85847169
0.52729225 1.0089927 -0.8190769
0.33567211 0.7041133 -1.491111
0.0055634975 0.78978634 -4.3579755
-0.0096144974 0.76306981 -4.437777
0.026054829 0.82813138 -4.1981792
0.060504675 0.1977509 -4.0869484
-0.1008704 0.21219024 -4.1212206
0.030451745 -0.24241239 -4.0900354
-0.1047419 0.15831962 -4.2416697
0.080837578 0.035956904 -3.8890452
0.095668107 -0.085103437 -3.7706203
0.072582245 0.18351105 -3.7667575
0.040730357 -0.24311924 -4.0103478
0.048005074 -0.20307782 -4.0102248
-0.1059452 0.26833957 -4.3196931
-0.083084911 0.38888624 -4.3492045
-0.082218021 0.30883861 -4.3451266
-0.026035845 0.17710353 -4.6401625
-0.031524181 0.12655003 -4.6415348
0.21679172 0.15619509 -3.0521026
0.30910388 -0.31181702 0.1178543
0.33455187 -0.28990927 0.2771613
0.44768459 0.11307273 -0.050513268
0.45517302 0.20934244 -0.0050817132
0.33588254 0.66669029 -1.0506293
0.31669372 0.96613008 -1.1318243
0.38282844 0.72136647 -1.572872
0.29910862 0.86294544 -1.6609211
0.37506247 0.4691439 -0.66304505
0.37989801 0.58923912 -0.65142524
0.38856179 0.62951374 -0.61193931
0.37314501 0.66897279 -0.69169855
0.28092742 0.66393209 -1.0487373
0.24282193 0.38634241 -1.0307575
0.20182121 0.093491793 -1.1925043
-0.063027561 0.61252409 -5.3568401
-0.055293351 0.61187661 -5.2770605
-0.057241261 0.53119069 -5.197619
-0.073193908 1.2494047 -4.9909434
-0.10189053 1.3307624 -4.8692064
-0.12527755 1.0898706 -5.0705438
-0.1048215 0.96995956 -5.072247
-0.015302956 1.1512556 -4.498282
-0.0262568 0.92757016 -4.7550926
-0.039226741 0.92887563 -4.9147367
-0.021292806 0.91138017 -4.5157523
-0.031171143 0.96686858 -4.6745458
0.0042121708 1.0449749 -4.4349556
0.0040561855 1.0849732 -4.4346156
-0.012386203 1.0459253 -4.5544538
-0.015166581 1.0714312 -4.5141892
-0.016299874 1.2039177 -4.5126681
-0.05901137 1.2877631 -4.7909842
-0.019375712 1.2062316 -4.5928988
0.029270738 0.62219238 -3.6802173
-0.013808936 0.79099089 -4.4773412
-0.021738291 0.67138225 -4.5184164
-0.012655646 -0.2803624 -4.3290472
0.014165401 -0.16020894 -4.3288527
-0.00088945031 -0.19952887 -4.4087496
-0.21984115 -1.0528414 -3.1508219
-0.13910797 -1.0525849 -3.1311154
-0.24133918 -0.79243779 -3.7255039
-0.021262735 0.28760853 -4.7606139
-0.026489019 0.40690348 -4.679388
-0.031724721 0.40756142 -4.759253
-0.028652132 0.31132933 -4.5221844
-0.025811762 0.27135584 -4.5227346
-0.046887696 0.85020554 -5.0752316
-0.037711591 0.76990622 -5.0361924
-0.036791652 0.93262529 -5.355062
-0.030289322 0.8492552 -4.9557333
0.16606651 -0.21082416 -3.1338351
0.15740016 -0.25049022 -3.1739318
-0.23763689 -1.2168059 -4.4409232
-0.27898845 -1.2241175 -4.4795604
-0.11752406 1.1322818 -5.3506284
-0.12479037 1.0129343 -5.431427
0.15483755 -0.28973711 -3.2542634
0.18089706 -0.3318845 -3.0154102
0.18271719 -0.25249928 -2.9496858
0.16973227 -0.37156516 -3.0554202
0.19843179 0.9257834 -2.1218717
0.26546207 0.98097193 -1.970669
0.25459361 1.0049069 -2.0029535
0.26893288 1.061222 -1.9312464
0.29386485 0.98297864 -1.6514585
0.29871494 1.0130012 -1.6518047
0.35242394 1.222784 -1.7349478
0.12056933 0.082736447 -3.5297549
0.14918245 0.030604258 -3.2910845
0.19871652 0.50417525 -3.7277579
0.29282612 -0.082940951 -2.0563445
-0.011674762 0.95069015 -4.4481158
