ply
format ascii 1.0
comment PCL generated
element vertex 646
property float x
property float y
property float z
element camera 1
property float view_px
property float view_py
property float view_pz
property float x_axisx
property float x_axisy
property float x_axisz
property float y_axisx
property float y_axisy
property float y_axisz
property float z_axisx
property float z_axisy
property float z_axisz
property float focal
property float scalex
property float scaley
property float centerx
property float centery
property int viewportx
property int viewporty
property float k1
property float k2
end_header
-0.66188669 -1.0462091 -1.0611126
-0.86683607 -1.0476092 -1.0009515
-0.91354704 -1.0481064 -0.98725474
-1.0623529 -1.0544444 -0.94401872
-1.1556427 -1.0479856 -0.91604137
-1.220547 -1.0528629 -0.89735973
-1.2672138 -1.0508755 -0.88346839
-1.3787408 -1.0512812 -0.85070086
-1.4254076 -1.049294 -0.83680952
-1.4903119 -1.0541713 -0.81812787
-1.5275023 -1.0551348 -0.80727029
-1.6303129 -1.0482098 -0.77645385
-1.6579382 -1.0471548 -0.76824081
-1.8533669 -1.049021 -0.7109189
-1.8628435 -1.0460705 -0.70788515
-1.8723643 -1.0456041 -0.70504606
-2.011605 -1.0499239 -0.66445446
-2.0676601 -1.0400171 -0.64714038
-2.1886196 -1.0349878 -0.61114454
-2.2257659 -1.0334667 -0.60009229
-2.2516146 -1.0329649 -0.592448
-2.3838274 -1.0244317 -0.55284965
-2.5325449 -1.0258008 -0.50922453
-2.6069698 -1.0302119 -0.48770365
-2.7002594 -1.023753 -0.45972648
-2.7599146 -1.0227793 -0.44209984
-2.7745521 -1.0207109 -0.43762198
-2.8117425 -1.0216743 -0.42676428
-2.8809609 -1.0223973 -0.40646669
-2.9553804 -1.026841 -0.38495031
-3.123054 -1.0216331 -0.33520034
-3.0541949 -0.43582755 -0.30651185
-2.9711599 -0.42539644 -0.330062
-2.9450102 -0.40843076 -0.33633563
-2.8998771 -0.37111408 -0.34649226
-2.4786825 -0.19107339 -0.45532927
-2.9035497 -0.3350845 -0.34240201
-2.9160058 -0.3307218 -0.33837399
-2.9406371 -0.33109993 -0.33116129
-3.0019381 -0.32338226 -0.31248716
-3.0338914 -0.32144815 -0.30292764
-3.0720491 -0.31808275 -0.29142383
-3.3947191 0.002852872 -0.16971043
-3.4007065 0.032446444 -0.16547701
-3.4153652 0.10044469 -0.15548486
-3.4283738 0.12062053 -0.14997327
-3.4383602 0.12574251 -0.1466082
-3.5221171 0.10544811 -0.12366983
-3.5249858 0.10470228 -0.12288845
-3.6335044 0.019956335 -0.098051816
-3.947021 -0.31723025 -0.034012794
-3.9937458 -0.31736952 -0.020282149
-4.0681162 -0.31933078 0.0014272928
-4.095665 -0.31618759 0.0097922385
-4.1423407 -0.31384426 0.023715913
-4.1518803 -0.31300294 0.026591957
-4.2238302 -0.32343712 0.046881512
-4.206213 -0.35909897 0.038720787
-4.102066 -0.69540298 -0.020006478
-4.1028471 -0.73512429 -0.023095191
-4.4078455 -1.0712887 0.038523957
-4.5010509 -1.0591543 0.06695056
-4.5417657 -1.0571558 0.079092085
-4.5848145 -1.0528265 0.092115074
-4.7243094 -1.0724858 0.1314998
-4.8271523 -1.0644752 0.16241625
-5.0646205 -0.65964085 0.26608017
-5.0572557 -0.61259753 0.26784429
-5.1020942 -0.45601755 0.29411328
-5.052742 -0.25159842 0.29667628
-5.0519609 -0.21187714 0.29976496
-5.0410519 -0.11620748 0.30454919
-5.0470395 -0.086613908 0.30878252
-5.0868979 -0.071660332 0.32175466
-5.096437 -0.070818976 0.32463056
-5.1359892 -0.071424939 0.33621272
-5.1431618 -0.070958234 0.33836126
-5.1850438 -0.067794472 0.3509436
-5.2221804 -0.066292524 0.36199135
-5.4158721 -0.10828918 0.41544986
-5.4529486 -0.10941327 0.42626059
-5.7770104 0.049278304 0.5348289
-5.8679328 0.072417125 0.56350338
-6.0881796 0.066985488 0.62782681
-6.1653428 0.056660905 0.64965886
-6.2954068 0.080829024 0.68993139
-6.3053255 0.083738282 0.69309175
-6.3371902 0.074590176 0.7016992
-6.4847584 -0.10237525 0.7303164
-6.5034413 -0.11287507 0.73493397
-6.8429132 -0.32892555 0.81672692
-6.9211955 -0.34442639 0.8384558
-7.0029516 -0.34371102 0.86256099
-7.0553465 -0.33111015 0.87902367
-7.1771164 -0.35857353 0.91254318
-7.2587276 -0.39581472 0.93343484
-7.2634344 -0.40092415 0.93439233
-7.2317142 -0.40173507 0.9249953
-7.1955824 -0.40206105 0.91434121
-7.1477494 -0.40983349 0.89962363
-7.0999227 -0.4023549 0.88618195
-7.0925131 -0.40153137 0.88407159
-6.8956385 -0.4192223 0.82469034
-6.7938933 -0.47893202 0.78977752
-6.6971698 -0.69240206 0.7434957
-6.6960263 -0.78504974 0.73541915
-7.0295458 -1.062716 0.81031382
-7.0660386 -1.0665054 0.82073021
-7.1031156 -1.0676295 0.83154106
-7.1872969 -1.0744376 0.85573113
-7.2342215 -1.0676996 0.87009501
-7.2984552 -1.072841 0.88855755
-7.3183665 -1.0720233 0.8944819
-7.476738 -1.0835642 0.94009674
-7.5794563 -1.0908191 0.96970129
-7.6360598 -1.0812833 0.98714578
-7.7430167 -1.1572829 1.0122538
-7.9346838 -1.2119267 1.0640601
-8.0159769 -1.2116197 1.0879951
-8.3337317 -1.1126301 1.1897206
-8.3977852 -1.1053755 1.2091657
-8.4547377 -1.1031704 1.2261002
-8.5633326 -1.1168391 1.2568974
-8.6572533 -1.1083097 1.2852331
-8.7512455 -1.1047493 1.3131748
-8.9835758 -0.81849951 1.4054205
-8.9917622 -0.6963408 1.4180341
-8.9910526 -0.65437925 1.4213312
-8.9834042 -0.59923899 1.4236881
-8.9778671 -0.53698879 1.4272602
-8.9215355 -0.37132692 1.4245328
-8.9053879 -0.33115411 1.4231396
-8.9617262 -0.28671479 1.4434221
-9.0283508 -0.29692131 1.4621643
-9.1847286 -0.33075422 1.5053306
-9.1917896 -0.33841902 1.5067669
-9.4240389 -0.81161672 1.5355412
-9.7404518 -0.68381423 1.6392791
-9.7775288 -0.68494326 1.6500897
-9.7940445 -0.68685108 1.6547878
-10.082209 -0.49877447 1.7552532
-10.100315 -0.46952665 1.7630218
-10.110233 -0.46661735 1.7661822
-10.50339 -0.2617659 1.8989284
-10.518162 -0.18134627 1.9099915
-10.473967 0.0065434277 1.9126904
-10.481207 0.025232598 1.916381
-10.530048 0.19547577 1.9449687
-10.532407 0.23833613 1.9492433
-10.535691 0.28296769 1.9539379
-10.528948 0.36332315 1.9586678
-10.526415 0.48021644 1.9676884
-10.527972 0.5601353 1.9748235
-10.586679 0.81281745 2.0131998
-10.586177 0.84759909 2.0159581
-10.552263 0.99586207 2.0183702
-10.543351 1.0316678 2.0187404
-10.487249 1.1439766 2.0116229
-10.243858 1.2673783 1.9503481
-10.263629 1.2731749 1.9566474
-10.313059 1.2876661 1.9723958
-10.399197 1.3055868 1.9992272
-10.448626 1.3200783 2.0149753
-10.507729 1.3296454 2.0331578
-10.605626 1.3121054 2.0604851
-10.621544 1.3100218 2.0649927
-10.729759 1.2416596 2.0911088
-10.76602 1.2295294 2.10076
-10.771033 1.2260097 2.1019406
-10.799868 1.1997947 2.1082311
-10.877863 1.0620291 2.1196611
-10.874563 0.94093055 2.1085734
-10.88421 0.86017102 2.1046634
-10.90855 0.66396379 2.0954304
-11.032125 0.51726764 2.1195197
-11.02808 0.36165661 2.1053293
-11.020612 0.10516296 2.0817041
-11.030863 0.07704179 2.0823698
-11.031374 0.063898802 2.0814221
-11.022032 0.021239743 2.0751104
-11.009355 -0.06280525 2.0643606
-10.941529 -0.34513855 2.0208251
-10.933428 -0.38743401 2.0149088
-10.848029 -0.4683122 1.9830351
-10.748715 -0.58568895 1.9440196
-10.715542 -0.73859012 1.9214889
-10.729077 -0.87636095 1.9139597
-10.729836 -0.92853254 1.909824
-10.725518 -1.0617694 1.8974231
-10.675114 -1.0999668 1.8794075
-10.658243 -1.1026642 1.8742203
-10.544991 -1.1517931 1.8368069
-10.496328 -1.1503115 1.8226182
-10.470728 -1.1420821 1.8157767
-10.15449 -1.1537747 1.7217904
-10.053143 -1.1449941 1.6927166
-9.9856606 -1.1417826 1.6731374
-9.9306049 -1.1459267 1.6565988
-9.8849964 -1.1462967 1.6431537
-9.8194103 -1.1450241 1.6239705
-9.7723789 -1.14432 1.6101965
-9.5911884 -1.1721123 1.5545843
-9.2329578 -1.0995514 1.4552864
-9.1760054 -1.1017566 1.4383519
-9.087429 -1.0946912 1.4128909
-9.0178146 -1.1026342 1.3917528
-8.9809189 -1.113927 1.3799577
-8.8895254 -1.1047214 1.353847
-8.7856493 -1.1136756 1.3225478
-8.7115326 -1.1139021 1.3007301
-8.4062595 -1.290552 1.1961875
-8.3512211 -1.3286084 1.1768208
-8.3015985 -1.3304089 1.1620756
-8.1833639 -1.3497858 1.1256826
-8.0415869 -1.3233948 1.086189
-7.9669151 -1.32654 1.0639644
-7.9284954 -1.3205532 1.053165
-7.8914185 -1.3194243 1.0423546
-7.8708878 -1.3171934 1.0365025
-7.8630209 -1.3157496 1.0343094
-7.7498527 -1.2850151 1.003593
-7.7339563 -1.2829255 0.99909222
-7.6849976 -1.2800298 0.98493493
-7.6112118 -1.2362444 0.96689153
-7.3256488 -1.2709203 0.88000703
-7.2986717 -1.2793251 0.87137067
-7.2691975 -1.2752374 0.86304331
-7.2443571 -1.2712903 0.85606718
-7.1701307 -1.2640733 0.83483946
-7.0990891 -1.2207644 0.81756341
-6.9363775 -1.1658131 0.77429873
-6.8992643 -1.1622046 0.76368487
-6.8621879 -1.1610805 0.75287402
-6.7410736 -1.1630859 0.71708536
-6.6669197 -1.1608377 0.69546366
-6.5269427 -1.1399212 0.6560421
-6.3164845 -1.1555779 0.59283584
-6.2538719 -1.1738675 0.57289279
-6.2167959 -1.1727434 0.56208205
-6.1622319 -1.1673299 0.54648644
-5.9840541 -1.1689428 0.49394748
-5.9099545 -1.1690855 0.47214192
-5.8629289 -1.1708416 0.45816439
-5.771646 -1.161476 0.43209946
-5.6875534 -1.1620613 0.40731794
-5.5763526 -1.1585493 0.37490588
-5.5492449 -1.1544518 0.36727545
-5.4551935 -1.1579638 0.33932039
-5.3981752 -1.160162 0.32236692
-5.2969675 -1.1562074 0.29293096
-5.1857667 -1.1526953 0.26051888
-5.1586585 -1.148598 0.25288835
-5.1315508 -1.1445005 0.24525791
-4.8825412 -1.0730845 0.17798764
-4.8635116 -1.0772496 0.17204276
-4.6903324 -1.1837499 0.1122112
-4.517395 -1.262165 0.054797038
-4.2010508 -1.1826866 -0.031603694
-4.1314254 -1.1790633 -0.051778615
-4.0924602 -1.178706 -0.063208818
-3.9353986 -1.2106905 -0.11207473
-3.928232 -1.2140758 -0.11446533
-3.9092507 -1.2207236 -0.12060329
-3.8837729 -1.2077655 -0.12701413
-3.6426775 -1.168185 -0.19461638
-3.6135054 -1.1696496 -0.20331869
-3.5960019 -1.1705283 -0.20854005
-3.583292 -1.1688529 -0.21213818
-3.5335128 -1.1584123 -0.22590664
-3.4591422 -1.1564511 -0.24761602
-3.3570769 -1.1501853 -0.27711126
-3.2827063 -1.148224 -0.29882064
-3.2265396 -1.1538913 -0.31581339
-3.170373 -1.1595585 -0.3328062
-3.0777984 -1.1499687 -0.35923234
-3.003428 -1.1480075 -0.38094172
-2.9377704 -1.1569986 -0.40100357
-2.8546867 -1.1440852 -0.4243606
-2.7568703 -1.151178 -0.45372221
-2.7518439 -1.1520957 -0.45527717
-2.7196798 -1.1502146 -0.46457991
-2.6584921 -1.1567823 -0.48312458
-2.5709183 -1.1463611 -0.50801051
-2.4462016 -1.1550068 -0.54541349
-2.4373171 -1.1577729 -0.54825759
-2.2449656 -1.147506 -0.60397279
-2.0772507 -1.1495537 -0.65347075
-2.0495369 -1.1456398 -0.66129482
-1.9751561 -1.1437131 -0.6830101
-1.9379656 -1.1427497 -0.6938678
-1.8263946 -1.1398597 -0.72644067
-1.7520137 -1.1379328 -0.74815607
-1.7148235 -1.1369694 -0.75901365
-1.6776328 -1.1360061 -0.76987135
-1.6025362 -1.146845 -0.79286373
-1.5376322 -1.1419678 -0.81154537
-1.4632514 -1.1400411 -0.83326066
-1.35168 -1.137151 -0.86583364
-1.3050132 -1.1391382 -0.87972498
-1.2488697 -1.144076 -0.89665008
-1.1744447 -1.1396648 -0.91817081
-1.0067298 -1.1417124 -0.96766889
-0.86620855 -1.0653439 -1.0026177
-0.62411261 -1.0654649 -1.0738311
-0.46596289 -1.0695308 -1.1206845
-0.43833733 -1.0705858 -1.1288977
-0.35407162 -1.0833318 -1.1547462
-0.3356595 -1.0849642 -1.1602978
-0.29833698 -1.0765474 -1.1705716
-0.14045048 -1.0771142 -1.2170553
-0.04684782 -1.0792085 -1.2447599
-0.00053405762 -1.0879415 -1.2591108
0.032683849 -1.0757627 -1.2678633
0.039305687 -1.0378323 -1.2666419
0.035475254 -0.91674834 -1.2553995
0.079298019 -0.77543789 -1.2564825
0.080169678 -0.72574586 -1.2525874
0.066333771 -0.66626811 -1.2435491
0.11468601 -0.33426675 -1.2300333
0.14660406 -0.23658383 -1.2312599
0.1486578 0.07978259 -1.2054334
0.16111326 0.10384069 -1.2070867
0.18254566 0.22507159 -1.2032621
0.18807411 0.28337997 -1.2000166
0.19922447 0.36446369 -1.1965221
0.2037673 0.38287008 -1.1963204
0.20455313 0.47658896 -1.1887219
0.21716881 0.63215011 -1.1794361
0.2376256 0.71722883 -1.1783447
0.24720716 0.75561839 -1.1779556
0.25449944 0.85305184 -1.1719604
0.25904226 0.87145823 -1.1717587
0.26931429 0.90785557 -1.171739
0.28453636 0.94952136 -1.172735
0.29994583 1.0311161 -1.1704504
0.32253838 1.1744305 -1.165122
0.33029175 1.2143357 -1.1640685
0.30027723 1.2639675 -1.1510943
0.28159094 1.3125097 -1.1415431
0.24484539 1.3338723 -1.1289511
0.22703171 1.3461044 -1.12269
0.20809937 1.3552349 -1.1163589
0.087443352 1.3754776 -1.0791814
0.0035824776 1.3768402 -1.0544029
-0.071032524 1.3624662 -1.0336587
-0.13605928 1.3497332 -1.0155973
-0.2572031 1.3451502 -0.98035038
-0.32330704 1.3463233 -0.96081042
-0.40725231 1.3423425 -0.9364537
-0.51895475 1.3319961 -0.90446508
-0.59324837 1.3350368 -0.88236034
-0.66784716 1.3206854 -0.86161888
-0.70503759 1.3197212 -0.85076129
-0.76363707 1.3170768 -0.83374739
-0.84432173 1.3129475 -0.8103621
-0.85384274 1.3133799 -0.80752575
-0.9194212 1.323651 -0.7873801
-1.0405569 1.3187059 -0.75216579
-1.0730524 1.3137988 -0.74301851
-1.3262272 1.3898585 -0.66220236
-1.3357043 1.3927754 -0.65917134
-1.3918929 1.3951604 -0.6424464
-1.4195623 1.3937639 -0.63442504
-1.5413294 1.40642 -0.59755456
-1.6623781 1.4064443 -0.56195068
-1.6995683 1.4054801 -0.5510931
-1.8672845 1.4074571 -0.50160062
-2.0248256 1.4462708 -0.45202324
-2.0714931 1.4482235 -0.43813458
-2.1830645 1.445331 -0.40556177
-2.2202549 1.4443667 -0.39470413
-2.3318262 1.4414741 -0.36213133
-2.4054883 1.4269137 -0.34168288
-2.5002401 1.4036974 -0.3157548
-2.5840979 1.4046859 -0.29100868
-2.6490014 1.3998406 -0.27232453
-2.6861918 1.3988764 -0.26146695
-2.7600005 1.4019432 -0.2395027
-2.7795272 1.4027817 -0.23368964
-2.8167176 1.4018174 -0.22283202
-2.8438618 1.4033059 -0.21472421
-2.881047 1.4023253 -0.20386952
-2.9554179 1.400364 -0.18216002
-2.9926031 1.3993833 -0.17130533
-3.020298 1.3950789 -0.16351953
-3.1413445 1.395461 -0.12788641
-3.2157149 1.3934996 -0.10617697
-3.2529004 1.392519 -0.095322222
-3.4785962 1.3090562 -0.035915196
-3.5158305 1.305593 -0.025253505
-3.6083565 1.2984859 0.001365751
-3.663599 1.2973245 0.017516255
-3.737823 1.302811 0.039804831
-3.7749109 1.3067955 0.051045686
-3.7940385 1.3059957 0.056604534
-3.9152803 1.2964474 0.091465548
-3.9896021 1.2969688 0.11336802
-3.8867598 1.2889583 0.082451537
-3.8591628 1.2882977 0.074279815
-3.8123403 1.293402 0.060935184
-3.7665882 1.2978874 0.047853604
-3.700882 1.2913786 0.027984902
-3.6265602 1.2908573 0.0060823858
-3.5799332 1.2860316 -0.0080343485
-3.5703936 1.28519 -0.010910332
-3.5426989 1.2894946 -0.01869607
-3.4873586 1.2956213 -0.034460545
-3.4405849 1.298243 -0.04799816
-3.4034483 1.2967411 -0.059045941
-3.253881 1.2888699 -0.10369307
-3.161453 1.2910118 -0.13069835
-3.0704737 1.2871562 -0.15777862
-3.0033188 1.2866452 -0.17757237
-2.9422119 1.2824966 -0.1958912
-2.9363773 1.2822037 -0.19763169
-2.8285263 1.2890689 -0.22877845
-2.7723596 1.2834016 -0.2457712
-2.7615983 1.284932 -0.24880841
-2.7239425 1.2918268 -0.25930735
-2.6676292 1.2936074 -0.27572104
-2.5753846 1.3046606 -0.30192783
-2.5010037 1.3065891 -0.32364306
-2.4446845 1.3116578 -0.33978376
-2.4361002 1.3114345 -0.34232715
-2.3989098 1.3123986 -0.35318473
-2.3522422 1.310446 -0.36707339
-2.3054438 1.3159471 -0.3803778
-2.2311068 1.3153908 -0.40228769
-2.119122 1.2882594 -0.43749043
-1.9427347 1.2910281 -0.48913679
-1.9237366 1.287679 -0.49500415
-1.8493118 1.292092 -0.51652467
-1.821686 1.2910039 -0.5247407
-1.7283509 1.2870985 -0.55251801
-1.6262131 1.2953925 -0.58186495
-1.5304651 1.2932426 -0.61020529
-1.4956439 1.2949361 -0.62030506
-1.4466071 1.2922541 -0.63495147
-1.3781493 1.2960056 -0.65477228
-1.3374922 1.2909068 -0.6671561
-1.290781 1.2914386 -0.68084991
-1.2258337 1.2987685 -0.69933939
-1.1324983 1.2948631 -0.7271167
-1.0487278 1.2889055 -0.75225234
-1.0114498 1.2948389 -0.76272047
-0.90931273 1.303133 -0.79206741
-0.85303688 1.3057171 -0.8084029
-0.56292057 0.995884 -0.91961432
-0.56683254 0.95961767 -0.92149377
-0.57500601 0.9182865 -0.92254269
-0.5780282 0.87847263 -0.92498016
-0.57872629 0.83871901 -0.92809606
-0.58174801 0.79890513 -0.93053353
-0.58012152 0.75921178 -0.93432808
-0.56520128 0.67933685 -0.94538939
-0.56481934 0.59928262 -0.9521898
-0.54228926 0.51861668 -0.96555531
-0.53671122 0.43929017 -0.97382319
-0.52635384 0.36753803 -0.9828639
-0.60439157 0.15011694 -0.97807622
-0.83031607 -0.012183428 -0.92518842
-0.84215927 -0.02490674 -0.92276824
-0.83500719 -0.027917549 -0.92512333
-0.82785463 -0.030928336 -0.92747843
-0.8074379 -0.031797752 -0.93355584
-0.68570852 -0.033638373 -0.96951175
-0.67408609 -0.03333731 -0.97290492
-0.3661499 -0.22402489 -1.0794035
-0.30512762 -0.35913953 -1.108639
-0.37450981 -0.64322972 -1.111967
-0.46828556 -0.85920018 -1.1024295
-0.48276186 -0.88937485 -1.1006929
-5.1447277 1.306916 0.45393547
-5.1819615 1.3034527 0.46459705
-5.2096562 1.2991482 0.47238278
-5.2728395 1.2855442 0.48982912
-5.3238721 1.2789603 0.50428849
-5.3857822 1.2777159 0.52239299
-5.3979702 1.2790946 0.52609289
-5.4721355 1.2742605 0.54750192
-5.5168877 1.277663 0.56094831
-5.6207633 1.2866172 0.59224737
-5.7393613 1.2903807 0.62744296
-5.7464757 1.290967 0.62958431
-5.8895288 1.2864103 0.67127734
-5.9209242 1.2888663 0.68071616
-5.9742579 1.284759 0.69605923
-6.0458965 1.284258 0.71708715
-6.0583315 1.2854103 0.72084057
-6.1440358 1.2852838 0.74603683
-6.2297764 1.282673 0.77103597
-6.3376365 1.2882946 0.8032285
-6.391952 1.2802179 0.81852877
-6.4819956 1.2846268 0.84537995
-6.4859443 1.2837784 0.84647036
-6.6242971 1.2788377 0.88674891
-6.6911316 1.2864364 0.9070406
-6.799799 1.2677989 0.93744385
-6.7428474 1.2655939 0.92050958
-6.6631861 1.2612467 0.89671707
-6.6242495 1.2618301 0.88531399
-6.5921321 1.2644138 0.87608373
-6.4463038 1.2696571 0.83363187
-6.3622303 1.2690059 0.80885053
-6.3360906 1.2665906 0.80096066
-6.3152704 1.2647413 0.79468274
-6.2138863 1.2760062 0.7658056
-6.1532879 1.2677413 0.74729234
-6.1298857 1.2703862 0.74063039
-6.0359292 1.2643414 0.71249169
-5.9988885 1.2629861 0.70148432
-5.9169254 1.2601619 0.67714214
-5.8678555 1.25807 0.66253525
-5.8428273 1.2600274 0.65533769
-5.765481 1.2689201 0.63333219
-5.6824703 1.263715 0.6084829
-5.6725154 1.2632902 0.60551941
-5.6475015 1.2654747 0.5983451
-5.5514374 1.2587993 0.56953371
-5.5143242 1.2624127 0.55892015
-5.4401698 1.2646706 0.53729916
-5.4030933 1.2657996 0.52648884
-5.3659801 1.269413 0.51587528
-5.3441839 1.2703733 0.50954503
-5.3094349 1.2714747 0.49941689
-5.2547131 1.2752843 0.48364073
-5.1905146 1.2779672 0.46498334
-5.1805592 1.2775425 0.46201992
-5.1435184 1.2761869 0.45101246
-5.0985894 1.2806414 0.43817055
-5.041059 1.2871116 0.42179072
-5.0039225 1.2856096 0.41074294
-4.9296007 1.2850884 0.38884035
-4.7623663 1.2575371 0.33735305
-4.6697431 1.2696095 0.31111994
-4.59547 1.2666056 0.28902441
-4.5300083 1.2476841 0.26819053
-4.4928226 1.2486646 0.25733572
-4.381218 1.2540891 0.22496462
-4.3439837 1.2575524 0.2143029
-4.2791529 1.2603549 0.19546944
-4.2324767 1.2580117 0.18154576
-4.2229371 1.2571703 0.17866974
-4.1383924 1.2905637 0.15659392
-4.0362296 1.3017945 0.12748487
-7.3041296 1.2791595 1.0867227
-7.249814 1.2872361 1.0714226
-7.1928988 1.2825466 1.0542914
-7.1187444 1.2848046 1.0326704
-7.044591 1.2870626 1.0110495
-7.0075855 1.2832229 0.99984515
-6.9705086 1.2843519 0.98903465
-6.9135213 1.2846311 0.97229719
-6.8467951 1.2695792 0.9514147
-6.9480705 1.2657673 0.98088264
-6.9805851 1.2598107 0.98994792
-7.0971007 1.259474 1.0241884
-7.1533661 1.2609721 1.0408618
-7.1804514 1.2619026 1.0489058
-7.8141356 1.271542 1.2360853
-7.7300997 1.2683718 1.2111044
-7.6559458 1.270629 1.1894835
-7.5990319 1.2658716 1.1723469
-7.5809069 1.264309 1.1668857
-7.4779558 1.2613459 1.1363589
-7.3782835 1.2769016 1.1083436
-7.7697735 1.2801437 1.2237566
-7.6956558 1.2799165 1.2019386
-7.6503773 1.2821895 1.1888114
-7.5934258 1.2799844 1.1718773
-7.547348 1.2844307 1.1586967
-7.4080772 1.2831451 1.1176279
-9.6286354 1.261938 1.7689493
-9.5445261 1.2637362 1.744362
-9.4458847 1.2779969 1.7165415
-9.3492594 1.263952 1.6869496
-9.2949419 1.272095 1.6716546
-9.2206783 1.2818047 1.6506238
-9.1068134 1.2747742 1.6165477
-8.9957294 1.2682229 1.5833291
-8.9585419 1.2768041 1.5731087
-8.884388 1.2790612 1.5514878
-8.8573399 1.2756801 1.54325
-8.8103437 1.2738657 1.5292764
-8.7163906 1.2677528 1.5011327
-8.6693211 1.2709067 1.4875526
-8.5953503 1.2607428 1.4649477
-8.4370871 1.2647982 1.4187393
-8.3357372 1.2736111 1.3896676
-8.2317553 1.2720076 1.3589511
-8.1775484 1.272698 1.3430659
-8.1233044 1.2758727 1.3273772
-8.1033936 1.2749552 1.3214447
-8.0663528 1.2735995 1.3104373
-8.0292759 1.2747281 1.2996268
-8.0193214 1.2742693 1.2966608
-8.0689869 1.2840157 1.3120821
-8.1060638 1.2828871 1.3228927
-8.2245064 1.2769966 1.357236
-8.2912655 1.2896655 1.377929
-8.3012209 1.2901242 1.3808954
-8.3481789 1.2944229 1.3950655
-8.4221506 1.3045868 1.4176705
-8.4964142 1.2948769 1.4387012
-8.5705681 1.2926199 1.4603223
-8.7015266 1.3025727 1.49967
-8.7757177 1.2978314 1.5210946
-8.7856722 1.2982903 1.5240606
-8.8869476 1.2944459 1.5535259
-9.0179806 1.2994304 1.5924804
-9.0629539 1.2965379 1.6054662
-9.0722237 1.2962557 1.608169
-9.1105404 1.2954949 1.6193749
-9.1580744 1.2970902 1.6334884
-9.1834545 1.29287 1.6406003
-9.260498 1.2836397 1.6624888
-9.3346519 1.2813826 1.6841098
-9.3716927 1.2827382 1.695117
-9.6855125 1.2691795 1.7862827
-9.7424269 1.273937 1.8034191
-9.7795029 1.2728084 1.8142296
-9.8904552 1.2617934 1.8459417
-9.900341 1.2646918 1.8490914
-9.947649 1.2741802 1.8637978
-9.9399204 1.2738003 1.861493
-9.8562546 1.2834517 1.8376921
-9.8092594 1.2816372 1.8237185
-9.7251863 1.2809514 1.7989346
-9.6583176 1.2757353 1.7788318
-9.4829235 1.2793524 1.7275487
-4.54879 1.31826 0.27961069
-4.613719 1.310492 0.29805812
-4.6880894 1.3085308 0.31976748
-4.7719021 1.3123761 0.34473905
-4.8242159 1.3105114 0.35996938
-4.9024878 1.3135996 0.38324812
-4.9769564 1.3066732 0.40457159
-5.0513268 1.3047118 0.42628095
-5.056879 1.3051585 0.42795122
-4.0742412 1.3126079 0.13956787
-4.1391697 1.3048401 0.15801516
-4.1858945 1.3047007 0.17174588
-4.2325215 1.3095267 0.18586263
-4.3441753 1.3016196 0.21804078
-4.4278407 1.3129127 0.24359134
-4.4744682 1.3177385 0.25770822
0 0 0 1 0 0 0 1 0 0 0 1 0 0 0 0 0 646 1 0 0
