ply
format ascii 1.0
element vertex 839
property double x
property double y
property double z
property double nx
property double ny
property double nz
end_header
-4.96823 1.22916 -0.413886 -0.0343563 -0.997575 0.0605339
-5.01986 1.27589 -0.62887 -0.137431 -0.987542 0.0766338
-4.85957 1.27842 -0.484996 -0.032183 -0.996483 0.0773735
-4.90013 1.29958 -0.420716 -0.155991 -0.973946 0.16461
-4.73295 1.26829 -0.770461 -0.0105421 -0.999204 -0.0384676
-4.79539 1.25266 -0.806271 0.199548 -0.972478 0.120276
-4.63311 1.25203 -0.839011 -0.289317 -0.955852 -0.0514137
-4.62535 1.2948 -0.824082 0.149374 -0.968794 -0.197801
-4.67937 1.27859 -0.752491 -0.0980402 -0.990954 -0.091642
-4.66121 1.29263 -0.806327 -0.289317 -0.955852 -0.0514137
-4.80512 1.26804 -0.645569 -0.0718119 -0.952046 0.297408
-4.76925 1.27271 -0.663368 -0.0852767 -0.994564 0.0597497
-4.66498 1.25411 -0.722909 -0.127104 -0.9899 0.0627832
-4.62624 1.263 -0.644602 -0.0852767 -0.994564 0.0597497
-4.69753 1.25706 -0.69852 -0.083764 -0.984902 -0.151501
-4.62579 1.26891 -0.734164 -0.083764 -0.984902 -0.151501
-4.44735 1.25547 -0.643591 -0.032183 -0.996483 0.0773735
-4.51821 1.24543 -0.786892 -0.037212 -0.924295 -0.37986
-4.58994 1.24858 -0.751517 -0.102748 -0.993822 0.041955
-4.58343 1.25432 -0.710213 0.15461 -0.98458 0.0818375
-4.57178 1.26762 -0.805442 0.101343 -0.983158 0.152083
-4.4292 1.25701 -0.697205 0.235309 -0.959348 0.155825
-4.48032 1.25338 -0.761129 -0.393691 -0.919243 0.000429745
-4.4498 1.25216 -0.82917 -0.0600433 -0.997974 0.0210427
-4.5451 1.25317 -0.773743 0.023989 -0.996122 0.0846537
-4.48278 1.2567 -0.715353 -0.083764 -0.984902 -0.151501
-4.51754 1.25457 -0.695357 0.0841223 -0.993102 0.0816858
-4.49053 1.25392 -0.730997 0.00642878 -0.996395 0.084591
-4.50049 1.24857 -0.751078 -0.0980402 -0.990954 -0.091642
-4.60896 1.27523 -0.519495 -0.0184816 -0.989856 0.140866
-4.75154 1.25835 -0.627241 -0.083764 -0.984902 -0.151501
-4.75198 1.27244 -0.538037 -0.183153 -0.980385 0.0728081
-4.75241 1.27654 -0.448654 -0.155991 -0.973946 0.16461
-4.68025 1.26179 -0.573279 -0.0215241 -0.998715 0.0458873
-4.42964 1.2736 -0.608045 -0.0184816 -0.989856 0.140866
-4.38342 1.33886 -0.45355 -0.0184816 -0.989856 0.140866
-4.46639 1.23213 -0.410677 -0.216793 -0.907264 0.360378
-4.53878 1.25864 -0.467416 -0.0845769 -0.995535 0.0419221
-4.39465 1.27397 -0.446856 -0.00245817 -0.967088 -0.254431
-4.59081 1.25678 -0.572751 -0.0565715 -0.998003 0.0280932
-4.4841 1.24899 -0.446848 -0.216793 -0.907264 0.360378
-4.57266 1.27331 -0.626632 0.0207247 -0.998878 0.0425797
-4.39376 1.29827 -0.626201 -0.355071 -0.934806 0.00792539
-4.41236 1.28084 -0.482848 -0.353694 -0.929658 0.103137
-4.46102 1.25639 -0.592236 -0.0187048 -0.984135 0.176435
-4.39911 1.339 -0.445802 0.000271517 0.999841 -0.0178532
-4.41864 1.2968 -0.569267 -0.0184816 -0.989856 0.140866
-4.30127 1.23959 -1.25091 0.328886 -0.939163 0.0990286
-4.19231 1.24678 -1.12638 -0.0985285 -0.993516 -0.0567208
-4.24813 1.25899 -1.14364 0.0242989 -0.999191 0.0320442
-4.35529 1.23338 -1.17949 -0.143363 -0.918222 0.369209
-4.28355 1.24522 -1.21514 -0.0813809 -0.996451 -0.0214949
-4.21182 1.25707 -1.25078 0.133375 -0.990824 0.0218651
-4.28782 1.24446 -1.25764 -0.179151 -0.982879 -0.0430627
-3.9621 1.22458 -1.10584 -0.281315 -0.959419 -0.0194054
-4.05152 1.28709 -1.1074 0.0344027 0.983863 0.175585
-4.03295 1.22204 -1.24928 0.0877308 -0.993601 0.071139
-3.96162 1.35296 -1.19759 -0.395077 -0.910319 -0.123426
-4.06881 1.23236 -1.23175 -0.130075 -0.990983 -0.0321571
-4.12282 1.23865 -1.16056 -0.0425064 -0.998872 0.0211478
-3.97981 1.21645 -1.14157 -0.127057 -0.99151 0.0276465
-4.03337 1.29613 -1.16115 -0.362895 0.930565 0.0485446
-4.01524 1.22018 -1.21338 -0.2094 0.9463 -0.246308
-4.34244 1.24795 -1.0634 0.13326 -0.990296 0.0394408
-4.2127 1.24276 -1.07161 -0.14748 -0.988957 -0.0146468
-4.19543 1.245 -0.946327 -0.148437 -0.988386 -0.0325569
-4.32029 1.25374 -1.01866 0.192699 -0.973407 0.123881
-4.28486 1.26501 -0.947123 0.192699 -0.973407 0.123881
-4.30302 1.26347 -0.89351 -0.256636 -0.966495 -0.00508252
-4.23129 1.24532 -0.928617 0.112002 -0.990058 0.0850963
-4.22753 1.24884 -1.01141 -0.14748 -0.988957 -0.0146468
-4.15913 1.24307 -1.05346 -0.0460649 -0.998436 0.0316755
-4.24126 1.24996 -0.948877 -0.0460649 -0.998436 0.0316755
-4.09447 1.28877 -1.01371 0.0344027 0.983863 0.175585
-4.03425 1.26932 -0.981755 0.323529 0.944813 0.0515562
-4.08784 1.22652 -0.999145 -0.0460649 -0.998436 0.0316755
-3.94439 1.21772 -1.06985 -0.0460649 -0.998436 0.0316755
-3.90896 1.22149 -0.998179 -0.112742 -0.993104 -0.0321394
-3.98025 1.22304 -1.05223 -0.0460649 -0.998436 0.0316755
-4.09208 1.32825 -1.04348 -0.362895 0.930565 0.0485446
-4.10799 1.32919 -0.991013 0.0344027 0.983863 0.175585
-3.9625 1.34116 -1.01847 -0.362895 0.930565 0.0485446
-4.07055 1.28375 -0.874841 0.323529 0.944813 0.0515562
-4.07013 1.22716 -0.963286 -0.14748 -0.988957 -0.0146468
-4.01654 1.26996 -0.945897 -0.29932 0.953469 -0.0361237
-4.12633 1.33085 -0.89832 0.0344027 0.983863 0.175585
-4.11261 1.32973 -0.960853 0.323529 0.944813 0.0515562
-3.9811 1.33122 -0.87525 0.0843853 0.989541 0.116994
-3.71061 1.2157 -1.31915 0.0208167 -0.999471 0.0249922
-3.80005 1.21572 -1.31959 -0.0738744 -0.997242 -0.00713302
-3.76507 1.21109 -1.15831 -0.0738744 -0.997242 -0.00713302
-3.83635 1.21514 -1.21241 -0.0213596 -0.999715 0.0107055
-3.71105 1.2148 -1.22968 0.000271517 0.999841 -0.0178532
-3.83592 1.21605 -1.30188 0.000271517 0.999841 -0.0178532
-3.7292 1.21326 -1.17607 -0.0211688 -0.999476 -0.0244722
-3.88993 1.21733 -1.2306 -0.000185223 -1 0.000249404
-3.4723 1.20662 -1.12437 -0.0214452 -0.999369 0.028304
-3.65791 1.20671 -1.12193 -0.0560532 -0.993877 -0.0952191
-3.65747 1.21011 -1.21144 -0.0560532 -0.993877 -0.0952191
-3.51489 1.207 -1.10334 -0.028321 -0.999593 -0.00340733
-3.49674 1.20604 -1.15691 -0.000185223 -1 0.000249404
-3.51489 1.207 -1.10334 -0.0776397 -0.995408 0.0559921
-3.73008 1.21146 -0.997123 0.0526149 -0.998469 -0.017061
-3.73052 1.21306 -0.907696 0.0526149 -0.998469 -0.017061
-3.69421 1.21863 -1.01497 0.0526149 -0.998469 -0.017061
-3.71458 1.20951 -0.965702 -0.0356717 -0.996884 0.0703504
-3.83767 1.22243 -0.944171 0.0526149 -0.998469 -0.017061
-3.54234 1.20924 -0.978272 0.00304004 -0.99819 0.0600657
-3.52573 1.20984 -0.944655 -0.171978 -0.983014 -0.0640887
-3.58662 1.20266 -1.06783 -0.049714 -0.995773 0.0772326
-3.49762 1.20924 -0.978053 -0.0282199 -0.999381 -0.0209892
-3.64063 1.22394 -0.996908 -0.0817779 -0.99307 0.0844065
-3.48655 1.20963 -0.955641 -0.0143028 -0.999872 0.00722078
-3.62336 1.21617 -0.871443 0.00304004 -0.99819 0.0600657
-3.60904 1.20786 -1.05685 -0.000271517 -0.999841 0.0178532
-3.44847 1.20939 -0.968869 -0.00384436 -0.999589 0.0283965
-3.56934 1.21739 -0.942767 -0.049714 -0.995773 0.0772326
-3.67053 1.20787 -1.05715 -0.028497 -0.999088 0.0317824
-3.65835 1.21581 -1.03263 -0.000271517 -0.999841 0.0178532
-4.3216 1.29353 -0.751004 -0.240063 -0.967201 0.0830191
-4.25874 1.25256 -0.80364 -0.256636 -0.966495 -0.00508252
-4.28574 1.2757 -0.768402 -0.240063 -0.967201 0.0830191
-4.31039 1.29342 -0.756539 0.192699 -0.973407 0.123881
-4.26758 1.29224 -0.822283 -0.240063 -0.967201 0.0830191
-4.28531 1.25911 -0.857562 -0.240063 -0.967201 0.0830191
-4.26758 1.29224 -0.822283 0.0591717 -0.995981 0.0672355
-4.1423 1.22441 -0.83835 0.00670128 -0.999466 0.0319669
-4.22725 1.25188 -0.841493 -0.112742 -0.993104 -0.0321394
-4.19587 1.23909 -0.856766 -0.215177 -0.975559 0.0445389
-4.16042 1.31535 -0.786388 -0.389335 0.917786 -0.0780188
-4.14227 1.30939 -0.839867 -0.29932 0.953469 -0.0361237
-4.18732 1.3331 -0.773418 0.202987 0.941418 0.269313
-4.19185 1.33334 -0.760025 0.369933 0.917796 0.144222
-4.2864 1.2556 -0.633859 -0.20293 -0.925725 0.319142
-4.28618 1.2673 -0.678796 0.0696941 -0.984773 0.159262
-4.27954 1.25504 -0.665126 -0.20293 -0.925725 0.319142
-4.3579 1.30795 -0.64409 0.0342536 -0.983684 0.176612
-4.16087 1.29695 -0.696603 0.0730988 -0.983391 0.166131
-4.17902 1.28292 -0.642767 -0.355071 -0.934806 0.00792539
-4.23037 1.33518 -0.65737 0.0944794 0.98033 0.173285
-4.05327 1.29348 -0.749689 0.33395 0.931609 0.143464
-4.08872 1.23222 -0.820335 -0.0215241 -0.998715 0.0458873
-4.0887 1.29221 -0.821406 0.33395 0.931609 0.143464
-4.09094 1.29223 -0.820299 -0.133375 0.990824 -0.0218651
-3.96007 1.29198 -0.831954 0.0843853 0.989541 0.116994
-3.96385 1.23097 -0.748134 0.00312806 -0.999091 0.0425027
-3.95674 1.3321 -0.825945 -0.133375 0.990824 -0.0218651
-4.08958 1.2904 -0.642462 0.174036 -0.960128 -0.218783
-4.05372 1.27508 -0.659904 -0.410549 0.911052 0.0378693
-4.10731 1.23477 -0.677339 -0.355071 -0.934806 0.00792539
-3.99971 1.2363 -0.730514 -0.028497 -0.999088 0.0317824
-4.01112 1.29469 -0.681292 0.126493 0.991049 0.0426772
-4.00413 1.29363 -0.740505 -0.0768905 0.996519 -0.0322164
-4.00899 1.29507 -0.660042 -0.0768905 0.996519 -0.0322164
-4.25075 1.27357 -0.607168 -0.148327 0.961516 0.231268
-4.30476 1.30985 -0.536514 0.0342536 -0.983684 0.176612
-4.19718 1.25138 -0.588618 -0.20293 -0.925725 0.319142
-4.35878 1.27865 -0.464655 -0.326937 -0.944156 -0.0410026
-4.33886 1.25936 -0.423957 0.0335304 -0.924539 -0.379609
-4.2875 1.2521 -0.410157 -0.0111378 -0.996361 0.0845023
-4.32088 1.33909 -0.439829 0.31638 -0.928937 -0.192301
-4.12546 1.23574 -0.62377 -0.105742 -0.993754 -0.0356477
-4.07188 1.23604 -0.605621 -0.0466158 -0.989454 0.137143
-4.04272 1.29577 -0.621082 0.126493 0.991049 0.0426772
-4.07187 1.27604 -0.606336 -0.148327 0.961516 0.231268
-4.12589 1.26483 -0.534834 -0.148327 0.961516 0.231268
-3.94701 1.2348 -0.533421 -0.145447 -0.934663 0.324423
-3.99159 1.37689 -0.558541 -0.162303 -0.986411 -0.0255124
-4.01874 1.24545 -0.498179 0.0220745 -0.970749 -0.239081
-4.05236 1.25825 -0.481799 -0.20293 -0.925725 0.319142
-3.93747 1.29924 -0.424939 0.134626 -0.981359 -0.137154
-3.91158 1.24607 -0.461882 -0.113926 -0.973841 0.196609
-3.96516 1.24576 -0.480031 -0.113217 -0.990849 0.0734855
-3.83811 1.22653 -0.854789 0.0381933 -0.997456 0.0601935
-3.71324 1.23278 -0.782722 -0.0776397 -0.995408 0.0559921
-3.71368 1.23188 -0.69325 -0.0177863 -0.999842 0.000163065
-3.80268 1.2303 -0.783116 -0.0353711 -0.999374 7.67284e-05
-3.83854 1.23313 -0.765451 0.0279542 -0.999602 0.00390639
-3.51708 1.22249 -0.656336 -0.0286944 -0.99602 0.0843875
-3.44492 1.21274 -0.781049 -0.0635904 -0.997477 0.0315591
-3.57066 1.22718 -0.674574 0.202478 -0.931313 0.302752
-3.56978 1.21398 -0.85325 0.0243874 -0.999598 0.0144489
-3.6601 1.23219 -0.675101 -0.0635904 -0.997477 0.0315591
-3.46263 1.2096 -0.816863 -0.0318938 -0.999466 0.0071316
-3.55634 1.21136 -0.859847 0.000271517 0.999841 -0.0178532
-3.48122 1.21966 -0.674001 -0.110319 -0.984874 0.133612
-3.46307 1.2162 -0.727525 -0.0392086 -0.995958 0.0808144
-3.84028 1.3095 -0.408991 -0.145447 -0.934663 0.324423
-3.87528 1.23165 -0.568796 -0.0353711 -0.999374 7.67284e-05
-3.6964 1.23161 -0.567919 -0.081111 -0.995502 0.0489582
-3.73271 1.22354 -0.460603 -0.0712465 -0.993566 0.0880368
-3.72554 1.2284 -0.441078 -0.0921452 -0.962567 0.254899
-3.73227 1.22444 -0.550075 0.038667 -0.998229 -0.045206
-3.76142 1.24118 -0.42358 -0.018076 -0.977632 0.209547
-3.85713 1.23069 -0.622365 0.00312806 -0.999091 0.0425027
-3.80356 1.231 -0.604216 -0.0353711 -0.999374 7.67284e-05
-3.58925 1.23223 -0.531622 0.0596293 -0.998009 -0.0205295
-3.58881 1.23314 -0.621094 -0.0176919 -0.999692 -0.0174272
-3.54622 1.23197 -0.529708 0.120967 -0.988042 -0.0956008
-3.51036 1.23669 -0.547502 0.109074 -0.983005 0.147659
-3.44579 1.22343 -0.602328 -0.131246 -0.983281 0.126226
-3.45678 1.23452 -0.529308 -0.10903 -0.993042 0.0445031
-3.46394 1.23689 -0.548983 -0.0712465 -0.993566 0.0880368
-3.48165 1.24125 -0.584931 -0.0146225 -0.996886 0.0774907
-3.58252 1.21877 -0.422316 0.0856192 -0.985253 -0.148142
-3.58969 1.22133 -0.441971 0.105692 -0.993029 -0.0521733
-3.62555 1.22416 -0.424306 -0.14916 -0.936312 0.317916
-3.56437 1.23287 -0.476139 -0.0166679 -0.997346 -0.0708796
-3.61795 1.23504 -0.494332 0.0320579 -0.999104 0.0276463
-3.66141 1.23198 -0.40673 -0.0401451 -0.961075 0.273355
-3.50025 1.22882 -0.441667 0.0736297 -0.994216 0.078188
-3.53611 1.22414 -0.423867 0.0596293 -0.998009 -0.0205295
-3.49265 1.2448 -0.511769 -0.0166679 -0.997346 -0.0708796
-3.5715 1.35785 -0.497995 -0.132421 0.949146 -0.285634
-3.6003 1.36314 -0.460632 0.0300063 -0.969016 -0.245169
-3.60736 1.35818 -0.480285 -0.0750004 -0.968383 0.237927
-3.52233 1.41799 -0.489882 -0.164706 -0.970962 -0.173507
-3.55377 1.41848 -0.463208 -0.164706 -0.970962 -0.173507
-3.9992 1.49966 -0.824672 0.245421 -0.941852 0.22953
-5.11793 1.14046 -0.356576 -0.094521 -0.99444 0.0464233
-5.09111 1.22014 -0.397142 -0.0556768 -0.988421 0.141151
-4.9853 1.31035 -0.378833 0.08017 -0.983424 0.162633
-5.00407 1.23146 -0.396094 0.144459 -0.966237 -0.213347
-4.94944 1.31503 -0.396632 0.120398 -0.989719 -0.077206
-4.95044 1.23259 -0.378138 0.099365 -0.978179 -0.182464
-4.94988 1.31162 -0.307116 -0.0104441 -0.998377 -0.0559786
-4.89673 1.22873 -0.360089 0.144459 -0.966237 -0.213347
-4.91449 1.2228 -0.395791 0.0711713 -0.997418 -0.00959592
-4.82457 1.31378 -0.324432 -0.0104441 -0.998377 -0.0559786
-4.89586 1.31534 -0.378484 0.120398 -0.989719 -0.077206
-4.84672 1.30049 -0.369032 -0.0077889 -0.993943 0.109616
-4.93172 1.32066 -0.360863 -0.0104441 -0.998377 -0.0559786
-4.93549 1.30214 -0.277802 -0.0956282 -0.987403 0.126058
-4.93241 1.21268 -0.2525 0.197728 -0.926109 -0.321288
-4.87859 1.30257 -0.25293 0.0854009 -0.982466 -0.165733
-4.8298 1.22721 -0.225768 0.197728 -0.926109 -0.321288
-4.84272 1.31724 -0.270908 0.0854009 -0.982466 -0.165733
-4.70038 1.3009 -0.343721 0.108486 -0.976898 0.184123
-4.78871 1.29096 -0.34174 -0.0935866 -0.913513 0.395897
-4.79833 1.30343 -0.20335 0.0854009 -0.982466 -0.165733
-4.75328 1.30723 -0.270291 -0.0818951 -0.978515 0.189212
-4.64613 1.31285 -0.234083 0.0854009 -0.982466 -0.165733
-4.61536 1.30073 -0.352247 -0.28003 -0.935255 0.216518
-4.77143 1.31069 -0.216766 -0.0187048 -0.984135 0.176435
-4.70599 1.301 -0.338159 -0.127992 -0.974178 0.185997
-4.67439 1.29992 -0.398369 -0.00724425 -0.999967 0.00373521
-4.74027 1.3037 -0.187415 0.08017 -0.983424 0.162633
-4.6997 1.31754 -0.25232 -0.0844258 -0.996406 0.00685179
-4.37738 1.26121 -0.321302 -0.0818951 -0.978515 0.189212
-4.41281 1.22994 -0.392484 -0.0282199 -0.999381 -0.0209892
-4.5381 1.29277 -0.376328 -0.00245817 -0.967088 -0.254431
-4.39596 1.28376 -0.178663 0.209985 -0.971921 0.106184
-4.44867 1.26526 -0.375398 -0.0724398 -0.912489 0.402638
-4.39798 1.30298 -0.222627 -0.0282199 -0.999381 -0.0209892
-4.4761 1.3025 -0.250956 -0.15702 -0.933301 0.322947
-4.52082 1.30251 -0.251176 -0.0529231 -0.998599 -9.52472e-06
-4.4491 1.30435 -0.28664 -0.126566 0.99158 0.0274017
-4.3778 1.3103 -0.232722 -0.0520304 -0.979621 -0.194001
-4.37738 1.26121 -0.321302 -0.139048 -0.930213 0.33966
-4.49662 1.18452 -0.0594845 0.000436182 -0.999856 0.0169427
-4.43227 1.25569 -0.0709895 -0.200041 -0.943839 -0.262967
-4.42289 1.22468 -0.0519728 0.00599389 -0.915804 -0.401582
-4.40701 1.29879 -0.105706 -0.145197 -0.90323 -0.403849
-4.43182 1.29659 -0.161176 -0.00793141 -0.989488 0.144394
-4.39805 1.30372 -0.110218 -0.0546533 -0.960283 -0.273625
-4.13349 1.26058 -0.352524 -0.226598 -0.969453 0.0938875
-4.14493 1.22149 -0.301562 0.362025 -0.927589 0.0922881
-4.21622 1.23554 -0.355837 0.0103598 -0.999939 0.00382141
-4.3601 1.28594 -0.196417 0.0735231 -0.997264 0.00763228
-4.28388 1.30274 -0.234364 0.109807 -0.979544 -0.168628
-4.26353 1.26016 -0.175907 -0.034908 -0.998041 0.0519127
-4.30609 1.26215 -0.267294 -0.0520304 -0.979621 -0.194001
-4.26842 1.2634 -0.196684 -0.0282199 -0.999381 -0.0209892
-4.35081 1.26216 -0.267514 0.0230347 -0.96058 0.277048
-4.27065 1.30842 -0.19638 0.0735231 -0.997264 0.00763228
-4.23665 1.30244 -0.189909 -0.069847 -0.996089 -0.0541111
-4.15593 1.24181 -0.228738 -0.034908 -0.998041 0.0519127
-4.21665 1.24714 -0.266588 -0.0606328 -0.987736 0.143881
-4.05548 1.23647 -0.301391 0.0103598 -0.999939 0.00382141
-3.94787 1.29548 -0.355593 0.17691 -0.948295 -0.263512
-3.99679 1.26054 -0.307661 0.000436182 -0.999856 0.0169427
-3.97662 1.27038 -0.317791 0.000436182 -0.999856 0.0169427
-3.98374 1.28081 -0.337615 0.134626 -0.981359 -0.137154
-3.96665 1.26073 -0.297451 -0.0442545 -0.979142 -0.1983
-4.03821 1.2462 -0.176239 -0.0895167 -0.976947 0.193809
-4.0842 1.23124 -0.263986 -0.197071 -0.962981 0.183934
-4.09178 1.25339 -0.194521 -0.173106 -0.971144 0.164051
-4.03062 1.22157 -0.245666 0.0138218 -0.985549 0.168828
-4.1095 1.24276 -0.230202 -0.173106 -0.971144 0.164051
-4.03777 1.22461 -0.265309 -0.0606328 -0.987736 0.143881
-4.06649 1.23935 -0.228254 -0.0524522 -0.99728 0.0517858
-3.96648 1.23055 -0.211391 0.362025 -0.927589 0.0922881
-3.95933 1.23752 -0.19191 0.00130043 -0.987216 -0.159385
-3.99027 1.22125 -0.265589 -0.0442545 -0.979142 -0.1983
-4.00234 1.23588 -0.19377 -0.162519 -0.981859 0.0976797
-3.91269 1.22257 -0.237822 -0.0606328 -0.987736 0.143881
-3.94058 1.22237 -0.249138 0.0220745 -0.970749 -0.239081
-3.99586 1.22125 -0.265617 -0.0838731 -0.995632 0.0410125
-4.01291 1.23719 -0.21006 -0.034908 -0.998041 0.0519127
-3.95889 1.241 -0.281423 -0.0537131 -0.967821 0.245841
-4.25339 1.26066 -0.0702017 -0.0493525 -0.998726 -0.0105376
-4.29942 1.30294 -0.158918 -0.065264 0.967426 0.244597
-4.28415 1.26433 -0.0765589 0.00599389 -0.915804 -0.401582
-4.2888 1.30688 -0.142767 0.0735231 -0.997264 0.00763228
-4.27728 1.30371 -0.114093 -0.065264 0.967426 0.244597
-4.34282 1.28817 -0.0711312 -0.0235376 -0.96505 -0.261005
-4.20998 1.30798 -0.158561 0.178289 -0.9114 -0.370895
-4.17044 1.3049 -0.11196 0.0455903 -0.998868 -0.0135881
-4.21753 1.25533 -0.0878225 0.0032152 -0.999685 0.0249113
-4.1458 1.25718 -0.123287 -0.116323 -0.992977 -0.0215928
-4.23523 1.30469 -0.124574 0.0455903 -0.998868 -0.0135881
-4.19227 1.32609 -0.122997 0.0949848 -0.983382 0.154717
-4.28656 1.26492 -0.0419163 0.00599389 -0.915804 -0.401582
-4.32954 1.26615 -0.0438355 -0.200041 -0.943839 -0.262967
-4.0674 1.30488 -0.0504548 -0.000436182 0.999856 -0.0169427
-4.10993 1.25435 -0.140953 -0.028497 -0.999088 0.0317824
-4.12051 1.25804 -0.157272 -0.0524522 -0.99728 0.0517858
-4.07412 1.30493 -0.0471343 -0.109074 0.983005 -0.147659
-4.10324 1.24767 -0.0317714 -0.0485262 -0.998401 -0.0290058
-4.06694 1.25337 -0.139037 -0.0485262 -0.998401 -0.0290058
-4.09856 1.30437 -0.0796737 -0.000436182 0.999856 -0.0169427
-3.90664 1.24088 0.00509886 -0.0803528 -0.996299 0.0305231
-4.01423 1.22673 0.0584803 0.00130043 -0.987216 -0.159385
-3.99564 1.24681 -0.0848988 -0.0915563 -0.991028 0.0973723
-4.02257 1.30452 -0.0725911 -0.000436182 0.999856 -0.0169427
-4.01337 1.27869 -0.121309 -0.000436182 0.999856 -0.0169427
-4.01336 1.2587 -0.12097 0.00130043 -0.987216 -0.159385
-3.83317 1.30424 -0.389221 -0.188515 -0.918784 0.346839
-3.81137 1.26005 -0.377774 -0.14916 -0.936312 0.317916
-3.86064 1.30039 -0.359726 -0.145447 -0.934663 0.324423
-3.71094 1.26073 -0.338156 -0.14916 -0.936312 0.317916
-3.67956 1.24544 -0.353384 0.0192472 -0.933052 0.359227
-3.77958 1.25958 -0.370308 -0.0921452 -0.962567 0.254899
-3.86103 1.22287 -0.173284 -0.130147 -0.978522 0.159862
-3.89202 1.2218 -0.236039 0.27303 -0.957598 -0.0919784
-3.86785 1.26215 -0.260674 -0.20293 -0.925725 0.319142
-3.6906 1.31613 -0.281369 0.31046 -0.914298 -0.260141
-3.60784 1.23479 -0.388626 0.0192472 -0.933052 0.359227
-3.5697 1.26074 -0.30667 -0.0921452 -0.962567 0.254899
-3.60888 1.26091 -0.295684 -0.050804 -0.925383 0.375613
-3.6437 1.24762 -0.371139 -0.14916 -0.936312 0.317916
-3.60558 1.30102 -0.289638 0.0300063 -0.969016 -0.245169
-3.54711 1.24 -0.350935 -0.127576 -0.93727 0.324421
-3.49353 1.23533 -0.332699 -0.0404373 -0.95908 -0.280232
-3.55878 1.3016 -0.256988 -0.170134 -0.922823 0.345618
-3.69144 1.21417 -0.100732 -0.0461871 -0.980907 0.188911
-3.83447 1.23629 -0.119706 -0.00244248 -0.993546 -0.113405
-3.88805 1.24346 -0.137984 -0.102031 -0.990356 0.0937282
-3.76273 1.21323 -0.154743 0.0300063 -0.969016 -0.245169
-3.75623 1.22393 -0.113518 0.0186944 -0.992148 -0.123661
-3.88893 1.23899 0.0410011 0.0853248 -0.991791 -0.0952419
-3.72776 1.23597 0.00606692 -0.0132029 -0.996538 -0.0820801
-3.67374 1.23229 -0.0651688 0.0183429 -0.998413 -0.0532466
-3.62016 1.23012 -0.0469757 -0.0461871 -0.980907 0.188911
-3.46053 1.22607 0.00532012 -0.0819723 -0.957427 0.276794
-3.5146 1.26352 -0.144304 -0.0155996 -0.912419 0.408959
-3.50219 1.30309 -0.170631 -0.0208917 -0.997824 0.0625296
-3.513 1.22578 -0.0105894 0.0562913 -0.995455 0.0768157
-3.45206 1.26378 -0.13058 -0.0818733 -0.96684 0.241905
-3.54887 1.23356 0.00699262 0.0288618 -0.998348 -0.049683
-3.48118 1.22402 -0.115514 0.170369 -0.954935 -0.243052
-3.65603 1.2554 -0.0296902 -0.0132029 -0.996538 -0.0820801
-3.61971 1.21361 -0.13615 -0.211124 -0.976898 0.033132
-3.53071 1.21517 -0.0462799 -0.0276128 -0.999609 -0.00431862
-3.56658 1.22545 -0.0287402 -0.0155996 -0.912419 0.408959
-3.53924 1.22372 -0.131451 0.0186944 -0.992148 -0.123661
-4.0948 1.187 0.0766463 -0.0313524 -0.998651 0.0413986
-3.7822 1.19618 0.167494 0.039743 -0.99021 -0.133811
-3.6684 1.18957 0.21737 -0.0559841 -0.996488 0.0622713
-3.81764 1.22994 0.0951812 0.0334193 -0.961914 -0.271301
-3.76959 1.22758 0.102168 0.0334193 -0.961914 -0.271301
-3.70384 1.22833 0.144973 -0.230193 0.971701 0.0530004
-3.88915 1.22725 0.0859273 -0.0557068 -0.996574 -0.0611262
-3.76406 1.23027 0.113332 0.0579913 -0.973116 -0.222894
-3.47802 1.22603 0.150602 -0.10162 -0.994385 -0.0295123
-3.51432 1.20283 0.258163 0.0294635 -0.987356 -0.155758
-3.65647 1.23442 0.0601199 -0.0558655 -0.998068 0.0271823
-3.45988 1.24512 0.0966938 0.0288618 -0.998348 -0.049683
-3.52053 1.22858 0.154821 0.0251767 -0.999675 -0.00405833
-3.44216 1.23074 0.132808 -0.0132029 -0.996538 -0.0820801
-3.56746 1.22598 0.15016 -0.0276128 -0.999609 -0.00431862
-3.26384 1.19972 -1.22722 0.03492 -0.999228 0.0180147
-3.33557 1.20037 -1.1918 -0.000271517 -0.999841 0.0178532
-3.282 1.20068 -1.17365 0.0844321 -0.995345 0.0464736
-3.17396 1.19811 -1.31621 0.017416 -0.999848 0.000335666
-3.15625 1.19874 -1.28035 -0.0215241 -0.998715 0.0458873
-3.38871 1.20347 -1.29947 -0.0388443 -0.999221 -0.00697465
-3.34252 1.20623 -1.14385 -0.0285717 -0.998372 0.0493576
-3.04953 1.20596 -1.15471 -0.0143028 -0.999872 0.00722078
-3.12039 1.20342 -1.29815 -0.00724425 -0.999967 0.00373521
-3.10311 1.20565 -1.17286 -0.0211688 -0.999476 -0.0244722
-3.06725 1.20532 -1.19057 0.0524751 -0.998458 0.018087
-3.0556 1.20362 -1.28554 0.0032152 -0.999685 0.0249113
-3.10311 1.20565 -1.17286 -0.00375821 -0.999935 0.0107941
-3.2656 1.20111 -0.869421 -0.0215241 -0.998715 0.0458873
-3.34309 1.20833 -1.02648 -0.0496155 -0.997877 0.0421928
-3.22886 1.20509 -1.06612 -0.000271517 -0.999841 0.0178532
-3.35416 1.20543 -1.04885 -0.0143028 -0.999872 0.00722078
-3.37275 1.21049 -0.905897 -0.0496155 -0.997877 0.0421928
-3.33645 1.20857 -1.01303 0.00678817 -0.999874 0.0143666
-3.0327 1.20479 -0.939912 -0.0318938 -0.999466 0.0071316
-3.10355 1.20725 -1.08344 0.0173324 -0.999689 0.0179368
-3.13291 1.20831 -1.02433 -0.0211688 -0.999476 -0.0244722
-3.19299 1.20226 -1.08379 -0.0215241 -0.998715 0.0458873
-3.17572 1.202 -0.958455 -0.0212675 -0.99975 -0.00689204
-3.05041 1.20665 -0.975815 -0.000271517 -0.999841 0.0178532
-3.01455 1.20633 -0.993526 -0.0143028 -0.999872 0.00722078
-3.10355 1.20725 -1.08344 -0.0143028 -0.999872 0.00722078
-2.94194 1.19998 -1.20776 0.0173324 -0.999689 0.0179368
-2.7635 1.20155 -1.11745 -0.0108176 -0.99984 0.0142798
-2.76262 1.19835 -1.29631 -0.00724425 -0.999967 0.00373521
-2.81664 1.19464 -1.22494 0.0243874 -0.999598 0.0144489
-2.72763 1.19872 -1.13512 0.0173324 -0.999689 0.0179368
-2.63797 1.19291 -1.1793 0.0950909 -0.991326 -0.090726
-2.74469 1.19569 -1.30512 -0.0737452 -0.996972 -0.0246691
-2.63732 1.19301 -1.31349 0.0104419 -0.999851 -0.0137741
-2.70926 1.19696 -1.2334 -0.120154 -0.989773 0.0768928
-2.56646 1.19555 -1.17005 -0.0108176 -0.99984 0.0142798
-2.53038 1.19443 -1.23248 0.00330136 -0.999968 0.00730778
-2.60189 1.19678 -1.24182 -0.00715511 -0.999878 -0.0138608
-2.60167 1.19598 -1.28653 0.00330136 -0.999968 0.00730778
-2.60233 1.19588 -1.15234 -0.0143028 -0.999872 0.00722078
-2.65525 1.19317 -1.30463 -0.120154 -0.989773 0.0768928
-2.62004 1.19524 -1.1882 -0.0143028 -0.999872 0.00722078
-2.54853 1.19789 -1.17895 -0.000271517 -0.999841 0.0178532
-2.70948 1.19526 -1.18864 0.0420409 -0.999111 -0.00306072
-2.69155 1.1926 -1.19745 0.0279542 -0.999602 0.00390639
-2.54875 1.19619 -1.1342 -0.010729 -0.999937 -0.00332219
-2.65612 1.19887 -1.12582 -0.010729 -0.999937 -0.00332219
-2.90652 1.20375 -1.13608 -0.0354627 -0.999215 0.0176696
-2.96009 1.20594 -1.15428 -0.0211688 -0.999476 -0.0244722
-2.92423 1.20562 -1.17199 -0.0143028 -0.999872 0.00722078
-2.79304 1.1985 -0.901133 -0.0417995 -0.998921 0.0202367
-2.78253 1.1982 -0.884894 -0.0214452 -0.999369 0.028304
-2.8361 1.19789 -0.903042 -0.00724425 -0.999967 0.00373521
-2.82891 1.19879 -0.883424 0.00749601 -0.999881 0.0134563
-2.80024 1.20007 -0.920797 -0.000271517 -0.999841 0.0178532
-2.75718 1.20072 -0.918885 -0.0243048 -0.998985 0.0379259
-2.81839 1.19853 -0.867184 -0.0214452 -0.999369 0.028304
-2.81751 1.20033 -1.04613 -0.000271517 -0.999841 0.0178532
-2.65673 1.19039 -1.02767 -0.0398887 -0.998862 -0.0261448
-2.63841 1.1995 -1.08997 -0.0317968 -0.99944 -0.0104588
-2.56721 1.18685 -1.02733 -0.0686221 -0.989367 0.128236
-2.58527 1.19891 -0.982345 -0.000271517 -0.999841 0.0178532
-2.54936 1.18272 -0.991428 -0.0259007 -0.999543 -0.015585
-2.60308 1.18906 -1.00959 -0.0398887 -0.998862 -0.0261448
-2.54199 1.19901 -1.02514 -0.00644629 -0.99987 -0.0147716
-2.61372 1.19958 -0.989721 0.0320579 -0.999104 0.0276463
-2.54897 1.19949 -1.08953 -0.0318938 -0.999466 0.0071316
-2.54924 1.19127 -1.08102 -0.0187915 -0.999152 -0.0366383
-2.54919 1.19778 -1.04477 -0.00724425 -0.999967 0.00373521
-2.58503 1.18848 -1.0632 -0.0401364 -0.997284 -0.0617473
-2.60298 1.19577 -1.01816 -0.00715511 -0.999878 -0.0138608
-2.67493 1.19972 -0.938069 -0.00724425 -0.999967 0.00373521
-2.72131 1.20043 -0.936594 0.014467 -0.999515 0.0275705
-2.64958 1.19986 -0.972012 -0.0135947 -0.999888 0.00630974
-2.54984 1.20018 -0.910628 -0.0849729 -0.996324 -0.0109101
-2.54963 1.19938 -0.95534 -0.0317968 -0.99944 -0.0104588
-2.56778 1.19784 -0.901727 -0.0705544 -0.996088 -0.0532015
-2.60364 1.20067 -0.884061 -0.0595666 -0.997014 -0.0491371
-2.63187 1.19798 -0.93611 -0.0101097 -0.99986 0.0133689
-2.60328 1.1855 -0.920077 0.0339314 -0.998757 -0.036505
-2.62105 1.18463 -0.955901 -0.0398887 -0.998862 -0.0261448
-2.56014 1.19991 -0.97157 -0.0101097 -0.99986 0.0133689
-2.57829 1.19831 -0.917959 -0.0100205 -0.999941 -0.00423317
-2.596 1.2002 -0.953861 -0.0274014 -0.998846 -0.0394513
-2.90695 1.20285 -1.04661 -0.0885544 -0.996071 -0.000324009
-2.85338 1.20316 -1.02846 -0.0318938 -0.999466 0.0071316
-2.96097 1.20664 -0.975377 -0.000271517 -0.999841 0.0178532
-2.96053 1.20254 -1.06476 -0.0249303 -0.999463 0.0212466
-2.77533 1.20412 -0.865358 -0.0556778 -0.998417 -0.00796618
-3.38708 1.21381 -0.720401 -0.132421 0.949146 -0.285634
-3.30146 1.20894 -0.851845 0.00304004 -0.99819 0.0600657
-3.44086 1.25429 -0.69455 0.155033 -0.986807 0.0466485
-3.37319 1.21959 -0.816603 0.0839288 -0.991521 0.099203
-3.29516 1.21748 -0.65346 -0.116707 -0.986055 0.118641
-3.26603 1.21271 -0.780172 0.0348284 -0.998759 0.0356021
-3.33103 1.22277 -0.635835 -0.0136822 -0.99962 0.0239118
-3.28418 1.21867 -0.726693 -0.0496155 -0.997877 0.0421928
-3.40949 1.22901 -0.7096 -0.000185223 -1 0.000249404
-3.22343 1.21441 -0.688836 -0.00670931 -0.999254 0.0380234
-3.42764 1.22497 -0.655942 -0.0176919 -0.999692 -0.0174272
-3.37406 1.22528 -0.637793 0.00678817 -0.999874 0.0143666
-3.21202 1.20892 -0.851406 -0.0251493 -0.996947 0.0739249
-3.33776 1.21586 -0.744797 -0.0355434 -0.998746 0.0352571
-3.23061 1.21398 -0.708455 -0.0496155 -0.997877 0.0421928
-3.33732 1.21426 -0.834224 0.0627496 -0.996415 0.0567361
-3.42345 1.2119 -0.827895 0.0278706 -0.99938 0.0215035
-3.07997 1.21078 -0.75963 -0.0277058 -0.999528 0.0132774
-3.1638 1.21496 -0.652234 -0.028497 -0.999088 0.0317824
-3.0627 1.20791 -0.634256 -0.024223 -0.9995 0.0203355
-3.0441 1.21049 -0.777339 0.00740823 -0.99949 0.0310569
-3.06225 1.21139 -0.72377 -0.0628849 -0.99755 0.0306485
-3.02683 1.21012 -0.652008 -0.137438 -0.982121 0.128644
-3.16432 1.21494 -0.659479 -0.0418775 -0.998407 0.0378168
-3.20572 1.22003 -0.65306 -0.0241337 -0.999705 0.00273663
-3.08715 1.20517 -0.779161 -0.028497 -0.999088 0.0317824
-3.17411 1.21402 -0.713186 -0.0558655 -0.998068 0.0271823
-3.11583 1.20856 -0.741878 -0.0558655 -0.998068 0.0271823
-3.17703 1.21429 -0.690306 -0.03916 -0.997225 0.0633195
-3.14073 1.20486 -0.79731 -0.00749813 -0.998374 0.0565033
-3.06988 1.20741 -0.653875 -0.0885544 -0.996071 -0.000324009
-3.00823 1.20521 -0.794963 -0.0556778 -0.998417 -0.00796618
-3.18756 1.21413 -0.706545 -0.127576 -0.93727 0.324421
-3.06944 1.20831 -0.743347 -0.00724425 -0.999967 0.00373521
-3.1517 1.21135 -0.724211 0.0424141 -0.993894 0.101862
-3.43862 1.22862 -0.582793 0.000523196 -1 -0.000661267
-3.34919 1.23616 -0.582478 -0.0353344 -0.993843 0.105008
-3.3745 1.23188 -0.548455 0.105692 -0.993029 -0.0521733
-3.40276 1.24083 -0.600714 -0.0404373 -0.95908 -0.280232
-3.39221 1.24374 -0.584537 0.0211199 -0.998749 -0.0453158
-3.2492 1.21903 -0.565503 0.0132597 -0.990879 0.1341
-3.31331 1.21588 -0.599848 -0.0558655 -0.998068 0.0271823
-3.21333 1.22371 -0.583303 -0.0355434 -0.998746 0.0352571
-3.22387 1.21843 -0.599449 -0.0595043 -0.995575 0.0727349
-3.21288 1.2166 -0.560226 0.000436182 -0.999856 0.0169427
-3.40321 1.23985 -0.511242 -0.0353344 -0.993843 0.105008
-3.33191 1.2333 -0.457105 -0.10903 -0.993042 0.0445031
-3.42851 1.24316 -0.477355 -0.0398534 -0.981648 0.186489
-3.40365 1.24886 -0.421941 -0.0101097 -0.99986 0.0133689
-3.3855 1.25046 -0.475552 -0.359018 -0.931824 -0.0530127
-3.36779 1.26608 -0.439946 0.134945 0.921908 -0.363147
-3.39265 1.24284 -0.495065 0.0736297 -0.994216 0.078188
-3.31376 1.2249 -0.510547 -0.050804 -0.925383 0.375613
-3.3142 1.23391 -0.421245 -0.0595043 -0.995575 0.0727349
-3.22432 1.22494 -0.510105 -0.0880885 -0.993695 0.0693656
-3.35012 1.35418 -0.405569 0.134945 0.921908 -0.363147
-3.26068 1.35672 -0.405169 0.130856 0.964256 -0.230407
-3.00912 1.21074 -0.616148 0.0842417 -0.98208 0.168588
-3.20616 1.21405 -0.563504 -0.137438 -0.982121 0.128644
-3.02772 1.21565 -0.473192 -0.0348371 -0.998803 0.0343463
-3.17074 1.21778 -0.491827 -0.0907482 -0.989283 -0.114384
-3.13598 1.21745 -0.511777 -0.0417995 -0.998921 0.0202367
-3.14161 1.21306 -0.618544 -0.0423131 -0.999006 -0.0140212
-3.18823 1.2164 -0.572401 -0.0102788 -0.998768 0.0485508
-3.04499 1.21602 -0.598523 -0.0595043 -0.995575 0.0727349
-3.15258 1.22188 -0.545481 -0.0417995 -0.998921 0.0202367
-3.17029 1.21626 -0.581256 -0.0415457 -0.996811 -0.0681296
-3.20837 1.21647 -0.568029 -0.0348371 -0.998803 0.0343463
-3.13532 1.22401 -0.420192 -0.0519775 -0.997998 -0.03603
-2.86521 1.20059 -0.776286 0.000436182 -0.999856 0.0169427
-2.85469 1.20045 -0.760046 0.0313511 -0.9991 0.028555
-2.81883 1.20013 -0.777756 0.0381933 -0.997456 0.0601935
-2.5256 1.19917 -0.720908 -0.0206518 -0.999739 0.00979433
-2.56102 1.20044 -0.79267 -0.0100205 -0.999941 -0.00423317
-2.56765 1.18224 -0.84835 -0.0259659 -0.999661 0.00199573
-2.5321 1.18398 -0.776703 -0.0330025 -0.99944 0.00549156
-2.67537 1.19882 -0.848597 -0.000271517 -0.999841 0.0178532
-2.54991 1.18561 -0.812567 0.00571663 -0.999971 -0.00495239
-2.9365 1.20214 -0.830339 0.000436182 -0.999856 0.0169427
-2.90064 1.20186 -0.848048 -0.0033081 -0.998031 0.06263
-2.75851 1.21526 -0.650767 0.126797 -0.983356 0.13013
-2.97956 1.2017 -0.832247 -0.0143028 -0.999872 0.00722078
-2.92598 1.20201 -0.814098 0.0284256 -0.997354 -0.0669072
-2.86566 1.2146 -0.687069 0.126797 -0.983356 0.13013
-2.84706 1.20219 -0.829897 -0.0171678 -0.999711 0.0168532
-2.91879 1.20526 -0.794522 0.000436182 -0.999856 0.0169427
-2.90108 1.20337 -0.758619 0.00740823 -0.99949 0.0310569
-2.96229 1.20643 -0.707005 -0.0667334 -0.997374 -0.0281523
-2.79769 1.21543 -0.639782 -0.0206518 -0.999739 0.00979433
-2.92642 1.2036 -0.724671 -0.0353711 -0.999374 7.67284e-05
-2.8298 1.21932 -0.704863 -0.0137655 -0.999044 0.0415022
-2.71124 1.20415 -0.830976 -0.0840036 -0.991571 -0.0986425
-2.7471 1.20197 -0.813221 0.0211199 -0.998749 -0.0453158
-2.73991 1.20285 -0.793596 0.000436182 -0.999856 0.0169427
-2.52604 1.20569 -0.631564 -0.0524987 -0.996213 0.0693011
-2.61549 1.20814 -0.632048 -0.024223 -0.9995 0.0203355
-2.90241 1.21042 -0.490375 0.00026183 -0.998641 0.0521186
-2.92056 1.21132 -0.436806 -0.00670931 -0.999254 0.0380234
-2.83068 1.21235 -0.525836 0.00026183 -0.998641 0.0521186
-2.95598 1.21009 -0.508526 -0.0880885 -0.993695 0.0693656
-2.79481 1.20956 -0.543502 -0.112497 -0.992947 0.0374254
-2.84839 1.20923 -0.561653 0.00740823 -0.99949 0.0310569
-2.56279 1.209 -0.434997 -0.0348371 -0.998803 0.0343463
-2.63364 1.20404 -0.578394 0.0211129 -0.995329 0.0942018
-2.72308 1.20899 -0.57892 -0.0417995 -0.998921 0.0202367
-2.65135 1.20343 -0.614254 0.0174048 0.997426 -0.0695603
-2.68722 1.20871 -0.59663 -0.0207382 -0.99941 0.0273932
-2.63408 1.21056 -0.48905 -0.0207382 -0.99941 0.0273932
-2.61593 1.20716 -0.542577 -0.0137655 -0.999044 0.0415022
-2.44164 1.18465 -1.13425 0.0927041 -0.965868 0.24188
-2.36998 1.18524 -1.16982 -0.0188608 -0.99964 -0.0190839
-2.47636 1.19314 -1.30376 0.0140069 -0.999606 -0.0243027
-2.35106 1.1928 -1.32103 -0.0246418 -0.9992 -0.0315104
-2.38799 1.18331 -1.11617 0.0446911 -0.996642 -0.0686134
-2.47724 1.19633 -1.1249 -0.028321 -0.999593 -0.00340733
-2.35221 1.18611 -1.134 -0.0224753 -0.999707 0.00904252
-2.47755 1.18936 -1.11655 -0.0686221 -0.989367 0.128236
-2.29828 1.18332 -1.20535 -0.0364868 -0.999333 -0.00155088
-2.40507 1.19409 -1.24975 0.0100945 -0.998347 0.0565878
-2.44138 1.19351 -1.14257 -0.010729 -0.999937 -0.00332219
-2.33422 1.19413 -1.10627 0.0172435 -0.99922 0.0355324
-2.33415 1.18553 -1.1876 -0.0188608 -0.99964 -0.0190839
-2.15541 1.17989 -1.0975 0.0479795 -0.997902 -0.0434636
-2.08273 1.19525 -1.31976 0.0140805 -0.999025 -0.0418516
-2.11947 1.19127 -1.12306 -0.0142117 -0.999845 -0.0103768
-2.13712 1.18037 -1.24058 -0.0259659 -0.999661 0.00199573
-2.20905 1.18123 -1.11558 0.0268971 -0.999093 -0.0330188
-2.08336 1.18758 -1.31209 0.0446911 -0.996642 -0.0686134
-2.11934 1.18124 -1.20476 -0.00832572 -0.999844 -0.0155441
-2.1186 1.19557 -1.30205 0.0566339 -0.995128 -0.0807051
-2.26205 1.19188 -1.23112 -0.0213596 -0.999715 0.0107055
-2.11904 1.18717 -1.21244 0.0240996 -0.997451 0.0671628
-2.24464 1.18199 -1.18727 -0.00843942 -0.999771 0.0196462
-2.11919 1.18729 -1.29431 -0.0119899 -0.999472 0.03019
-2.22663 1.19065 -1.15936 0.0566339 -0.995128 -0.0807051
-2.22619 1.18905 -1.24878 0.0029512 -0.996981 0.0775841
-2.22659 1.18141 -1.24088 -0.0224753 -0.999707 0.00904252
-2.19072 1.1792 -1.25862 0.0164916 -0.992082 -0.124503
-2.15446 1.1884 -1.2842 0.0244683 -0.999696 -0.0031488
-2.15534 1.1916 -1.10535 -0.0142117 -0.999845 -0.0103768
-2.15517 1.18094 -1.18697 0.0162151 -0.999737 0.0162017
-2.4779 1.19623 -0.990716 -0.000271517 -0.999841 0.0178532
-2.48841 1.19934 -1.00699 0.014467 -0.999515 0.0275705
-2.51333 1.19746 -1.06248 -0.000271517 -0.999841 0.0178532
-2.49561 1.19809 -1.02662 -0.000271517 -0.999841 0.0178532
-2.44181 1.19511 -1.05314 -0.0142117 -0.999845 -0.0103768
-2.45965 1.18273 -1.0806 -0.0259659 -0.999661 0.00199573
-2.50612 1.20123 -1.04289 0.00383438 -0.999127 0.0415929
-2.37052 1.19105 -0.999044 0.0346132 -0.996897 0.070695
-2.37008 1.19695 -1.08861 -0.00724425 -0.999967 0.00373521
-2.31651 1.19226 -1.07037 -0.0318938 -0.999466 0.0071316
-2.33466 1.20072 -1.01693 0.0346132 -0.996897 0.070695
-2.33459 1.18092 -1.00862 -0.0259007 -0.999543 -0.015585
-2.46019 1.19687 -0.954857 -0.0317968 -0.99944 -0.0104588
-2.51398 1.19736 -0.928293 -0.0142117 -0.999845 -0.0103768
-2.50656 1.19774 -0.953377 -0.0101097 -0.99986 0.0133689
-2.4707 1.19746 -0.971086 -0.0243048 -0.998985 0.0379259
-2.41756 1.1993 -0.863507 -0.0100205 -0.999941 -0.00423317
-2.44207 1.18004 -0.955269 -0.00488706 -0.999947 0.00909743
-2.40628 1.18284 -0.973094 0.00571663 -0.999971 -0.00495239
-2.51377 1.18196 -0.919741 -0.00488706 -0.999947 0.00909743
-2.44225 1.1942 -0.963669 0.0284256 -0.997354 -0.0669072
-2.49605 1.19719 -0.937147 -0.000271517 -0.999841 0.0178532
-2.47812 1.19453 -0.945958 -0.0634879 -0.99637 -0.0567102
-2.40656 1.18428 -0.883663 -0.00488706 -0.999947 0.00909743
-2.45299 1.19807 -0.935226 -0.0274014 -0.998846 -0.0394513
-2.29896 1.17766 -0.936894 -0.0119899 -0.999472 0.03019
-2.22707 1.19475 -1.06997 -0.0526857 -0.997993 -0.0351193
-2.08451 1.17981 -0.864698 0.00910533 -0.999263 0.0372977
-2.12006 1.17807 -0.936344 -0.0117533 -0.999125 -0.0401333
-2.26293 1.19507 -1.05226 -0.0492344 -0.998392 -0.0280949
-2.28122 1.18103 -0.901112 -0.00133409 -0.999998 -0.0014525
-2.26341 1.1794 -0.865248 -0.0546857 -0.993067 0.104051
-2.04796 1.18327 -1.1509 -0.00832572 -0.999844 -0.0155441
-1.86842 1.19399 -1.24712 0.0383019 -0.998356 0.0426436
-1.99397 1.19154 -1.31188 0.00581828 -0.999179 -0.0400969
-1.90458 1.19549 -1.31167 0.00581828 -0.999179 -0.0400969
-2.04731 1.19152 -1.24795 0.00330136 -0.999968 0.00730778
-2.01188 1.19029 -1.17619 0.0029512 -0.996981 0.0775841
-2.04775 1.19062 -1.15848 0.0421939 -0.997557 -0.055674
-1.90429 1.19431 -1.22941 0.0313511 -0.9991 0.028555
-1.85125 1.18205 -1.11448 0.0198576 -0.999367 -0.0295288
-1.97602 1.19247 -1.19394 -9.89255e-05 -0.99985 -0.0173436
-2.03015 1.18164 -1.11503 0.0162151 -0.999737 0.0162017
-1.79729 1.19281 -1.27551 -0.00122301 -0.999329 -0.0366052
-1.67263 1.19995 -1.11422 0.00571663 -0.999971 -0.00495239
-1.79769 1.18571 -1.09648 0.128826 -0.99 -0.0574723
-1.79669 1.19583 -1.28258 0.0418738 -0.998607 0.0321116
-1.72611 1.19129 -1.13213 0.0232671 -0.999649 0.0127004
-1.72496 1.19768 -1.31805 -9.89255e-05 -0.99985 -0.0173436
-1.76083 1.19551 -1.30029 -0.0286375 -0.997349 0.066898
-1.74385 1.18792 -1.16792 0.00936043 -0.998675 -0.0506009
-1.76146 1.19311 -1.29329 0.0198576 -0.999367 -0.0295288
-1.6902 1.18658 -1.14984 0.384059 -0.914872 -0.124529
-2.0484 1.17866 -0.971913 0.00571663 -0.999971 -0.00495239
-1.83351 1.18541 -1.0787 0.0235128 -0.995367 -0.093227
-2.01261 1.18145 -0.989737 -0.0757903 -0.996147 0.0441242
-1.88763 1.18464 -0.917836 -0.0189243 -0.99982 -0.00150195
-2.04812 1.17721 -1.06134 0.00581828 -0.999179 -0.0400969
-1.94096 1.18204 -1.02531 0.0127158 -0.999877 0.00914957
-1.90513 1.18233 -1.04309 0.00571663 -0.999971 -0.00495239
-1.99456 1.18087 -1.04334 0.00581828 -0.999179 -0.0400969
-1.97694 1.17569 -0.917969 0.012767 -0.999883 -0.00845198
-1.60113 1.17843 -0.970517 0.0117533 0.999125 0.0401333
-1.78011 1.18302 -0.971148 0.0117533 0.999125 0.0401333
-1.72651 1.18418 -0.953109 0.0235128 -0.995367 -0.093227
-1.60144 1.18238 -0.881127 0.0235128 -0.995367 -0.093227
-1.612 1.1744 -1.05435 0.0232102 -0.999271 0.0303015
-1.65477 1.17977 -0.988597 0.0127158 -0.999877 0.00914957
-1.70841 1.18111 -1.00668 0.128826 -0.99 -0.0574723
-1.70656 1.2129 -1.05303 0.0235128 -0.995367 -0.093227
-1.65284 1.21342 -1.07412 -0.0863776 -0.979766 0.180545
-2.46072 1.18601 -0.722841 -0.0365963 -0.998765 0.0336036
-2.49655 1.18572 -0.705057 -0.0757903 -0.996147 0.0441242
-2.31129 1.198 -0.648263 -0.0207382 -0.99941 0.0273932
-2.418 1.19582 -0.773993 -0.0488366 -0.998525 0.0237115
-2.33506 1.17881 -0.82968 -0.00483092 -0.999952 -0.00850029
-2.44267 1.18543 -0.776448 -0.0260722 -0.998969 0.0371652
-2.36443 1.19615 -0.755842 -0.0102788 -0.998768 0.0485508
-2.35348 1.18583 -0.686722 0.0126015 -0.998937 0.0443409
-2.40029 1.19894 -0.738175 -0.024223 -0.9995 0.0203355
-2.39985 1.19492 -0.827562 -0.0243048 -0.998985 0.0379259
-2.45343 1.19959 -0.845797 -0.0206518 -0.999739 0.00979433
-2.36487 1.20017 -0.666456 -0.0101959 -0.999468 0.030969
-2.34671 1.19677 -0.719982 -0.0243048 -0.998985 0.0379259
-2.46104 1.18995 -0.633451 -0.0260722 -0.998969 0.0371652
-2.51432 1.18485 -0.74088 -0.0365963 -0.998765 0.0336036
-2.35312 1.17939 -0.776072 0.0267046 -0.998945 0.0373467
-2.17449 1.18124 -0.686091 -0.0757903 -0.996147 0.0441242
-2.28198 1.18037 -0.632739 0.0126015 -0.998937 0.0443409
-2.22782 1.17864 -0.793561 -0.0365963 -0.998765 0.0336036
-2.19223 1.17788 -0.721874 0.00549204 -0.997845 0.065381
-2.20996 1.17451 -0.757657 0.012767 -0.999883 -0.00845198
-2.47202 1.202 -0.7028 -0.0207382 -0.99941 0.0273932
-2.50789 1.20229 -0.68509 0.000174653 -0.997571 0.0696579
-2.35435 1.19267 -0.418471 -0.0225293 -0.999391 0.0266325
-2.3899 1.19093 -0.490117 -0.096672 -0.995315 0.00167181
-2.4078 1.19756 -0.526062 -0.00488706 -0.999947 0.00909743
-2.3538 1.18978 -0.597332 -0.0400861 -0.998843 0.0265602
-2.34716 1.19828 -0.630553 0.000349033 -0.999403 0.0345415
-2.44327 1.19082 -0.597628 0.0336838 -0.998109 0.0514209
-2.3363 1.19209 -0.472078 -0.0259659 -0.999661 0.00199573
-2.37217 1.1943 -0.454335 -0.0400861 -0.998843 0.0265602
-2.19327 1.19471 -0.453784 -0.00849236 -0.99927 0.0372372
-2.12117 1.18385 -0.578622 -0.170787 -0.982342 -0.0763887
-2.22901 1.18942 -0.435919 -0.00149775 -0.998681 0.0513206
-2.2827 1.19325 -0.454039 -0.0296092 -0.998423 0.0476854
-2.26456 1.18768 -0.507566 0.0441194 -0.996394 0.0724725
-2.08562 1.18559 -0.506975 0.0619104 -0.997885 0.0198321
-2.24045 1.20046 -0.504823 -0.0698934 -0.996971 0.0341093
-2.08602 1.19453 -0.417666 0.00155131 0.997625 -0.0688582
-2.157 1.18356 -0.560837 -0.00149775 -0.998681 0.0513206
-2.24683 1.19105 -0.471783 -0.0225293 -0.999391 0.0266325
-2.06793 1.19146 -0.471233 -0.0225293 -0.999391 0.0266325
-2.29447 1.20664 -0.43363 -0.0137655 -0.999044 0.0415022
-2.36531 1.20668 -0.577111 0.000349033 -0.999403 0.0345415
-2.32945 1.2039 -0.594778 -0.0698934 -0.996971 0.0341093
-2.47247 1.20352 -0.613371 -0.024223 -0.9995 0.0203355
-2.29402 1.20263 -0.523016 -0.0313524 -0.998651 0.0413986
-2.20503 1.20669 -0.433188 -0.0101959 -0.999468 0.030969
-2.25816 1.20234 -0.540725 0.000174653 -0.997571 0.0696579
-2.24089 1.20697 -0.415479 -0.0137655 -0.999044 0.0415022
-1.9775 1.17858 -0.739108 0.00910533 -0.999263 0.0372977
-1.90616 1.18311 -0.685286 0.0162151 -0.999737 0.0162017
-1.87006 1.18196 -0.792501 0.0126606 -0.999562 0.0267526
-1.83451 1.18369 -0.720855 -0.00149775 -0.998681 0.0513206
-1.85228 1.18283 -0.756678 0.0232102 -0.999271 0.0303015
-1.92426 1.18618 -0.631719 0.0162151 -0.999737 0.0162017
-2.01369 1.18473 -0.631974 0.0162151 -0.999737 0.0162017
-2.03114 1.17992 -0.757188 -0.0117533 -0.999125 -0.0401333
-1.67302 1.17679 -0.845477 0.0303631 -0.999504 -0.00840105
-1.72698 1.18207 -0.774167 0.00921605 -0.999955 0.00209778
-1.61942 1.17795 -0.827438 0.0091621 -0.999764 0.0197019
-2.04947 1.18194 -0.614149 0.0091621 -0.999764 0.0197019
-1.87117 1.18774 -0.434778 -0.00488706 -0.999947 0.00909743
-1.92449 1.18513 -0.542248 0.0160955 -0.99855 0.0513787
-1.88867 1.18542 -0.560032 0.0160955 -0.99855 0.0513787
-1.96004 1.18339 -0.613895 0.00560775 -0.999527 0.0302504
-1.71008 1.18978 -0.470092 -0.285237 -0.922333 0.260657
-1.76341 1.18717 -0.577562 0.0162151 -0.999737 0.0162017
-1.60288 1.1921 -0.434014 -0.00843942 -0.999771 0.0196462
-1.81705 1.18851 -0.595641 -0.00849236 -0.99927 0.0372372
-3.10032 1.19926 -0.258577 0.0673398 -0.997419 -0.0248989
-3.37248 1.21938 -0.392213 -0.121971 -0.960678 -0.249442
-3.38637 1.2335 -0.296355 -0.128705 -0.901253 0.413737
-3.42179 1.21727 -0.367821 -0.15161 -0.984951 0.0829834
-3.36821 1.2126 -0.349585 -0.0404373 -0.95908 -0.280232
-3.24291 1.21986 -0.36698 -0.15161 -0.984951 0.0829834
-3.24297 1.35484 -0.369267 0.130856 0.964256 -0.230407
-3.29654 1.35201 -0.387376 -0.042359 0.9969 -0.0663032
-3.40455 1.28189 -0.243591 0.128141 -0.962397 -0.239525
-3.3151 1.27444 -0.243022 -0.128705 -0.901253 0.413737
-3.11804 1.20614 -0.294564 0.0493966 -0.996802 0.0628148
-3.17161 1.20331 -0.312673 0.0673398 -0.997419 -0.0248989
-3.01045 1.21778 -0.347903 0.0673398 -0.997419 -0.0248989
-3.06403 1.21995 -0.366097 -0.0277058 -0.999528 0.0132774
-3.02816 1.21467 -0.383721 -0.00670931 -0.999254 0.0380234
-3.18939 1.35267 -0.351074 -0.0558643 0.97438 -0.217859
-3.13581 1.3555 -0.332966 -0.0704463 -0.98773 0.139379
-3.2071 1.35456 -0.386976 0.0545609 -0.975547 -0.212911
-3.20795 1.2726 -0.206678 -0.124001 -0.976741 0.17493
-3.16653 1.22251 -0.212334 -0.138054 -0.937046 0.320758
-3.11848 1.21265 -0.20522 0.0389438 -0.99473 0.0948475
-3.02904 1.2052 -0.204651 0.0110681 -0.999934 0.00291116
-3.01089 1.2068 -0.258263 0.191244 -0.970318 -0.148016
-3.15397 1.3589 -0.279439 -0.105344 0.967735 -0.228891
-3.18984 1.38168 -0.262111 -0.0558643 0.97438 -0.217859
-3.02201 1.3414 -0.282963 -0.017078 -0.999854 -0.000748081
-3.07603 1.34258 -0.211684 0.092433 0.966785 -0.238294
-3.08489 1.34227 -0.229614 0.092433 0.966785 -0.238294
-3.35227 1.21927 0.04399 -0.0945987 -0.994968 -0.0330213
-3.21881 1.30528 -0.0485001 0.184225 -0.945854 -0.267248
-3.29825 1.20559 -0.0270763 -0.0769365 -0.995513 0.0550829
-3.2635 1.22527 -0.0473655 -0.0769365 -0.995513 0.0550829
-3.38397 1.30413 -0.111917 -0.124001 -0.976741 0.17493
-3.35143 1.31373 -0.13652 0.0278574 -0.983427 0.179151
-3.06291 1.26372 -0.144309 -0.0950425 -0.994764 0.0375814
-2.98914 1.22389 -0.135442 0.0493966 -0.996802 0.0628148
-3.13752 1.20659 0.027376 -0.0769365 -0.995513 0.0550829
-3.01898 1.30639 0.0117348 -0.030452 -0.987818 -0.152608
-3.01427 1.30559 -0.0351933 -0.0171678 -0.999711 0.0168532
-3.04809 1.22913 0.0274365 -0.0704463 -0.98773 0.139379
-2.97458 1.2175 -0.365613 0.0673398 -0.997419 -0.0248989
-2.9033 1.21845 -0.311602 -0.0738934 -0.985972 0.149661
-2.88514 1.21505 -0.365129 -0.0738934 -0.985972 0.149661
-2.95687 1.21811 -0.329753 0.000609995 -0.999833 -0.0182541
-2.92527 1.21961 -0.390005 -0.0738934 -0.985972 0.149661
-2.76426 1.21965 -0.391446 -0.289595 -0.955645 0.0536437
-2.75579 1.22129 -0.295265 -0.0204599 -0.999468 -0.0253831
-2.83157 1.22038 -0.347062 -0.289595 -0.955645 0.0536437
-2.75984 1.21981 -0.382481 -0.0241337 -0.999705 0.00273663
-2.76028 1.22132 -0.293052 -0.0101959 -0.999468 0.030969
-2.81385 1.21599 -0.311118 -0.0208917 -0.997824 0.0625296
-2.76249 1.22125 -0.297534 -0.00653597 -0.999975 0.00282432
-2.92698 1.22165 -0.269281 -0.0950425 -0.994764 0.0375814
-2.92145 1.22185 -0.258075 0.0218882 -0.997728 -0.063709
-2.88602 1.21308 -0.186186 -0.00653597 -0.999975 0.00282432
-2.77843 1.21972 -0.23944 -0.0102788 -0.998768 0.0485508
-2.83201 1.21939 -0.257591 0.0493966 -0.996802 0.0628148
-2.88609 1.37305 -0.188897 0.0672924 -0.997706 -0.00735395
-2.65312 1.21699 -0.256666 -0.017078 -0.999854 -0.000748081
-2.52737 1.21273 -0.363319 -0.00653597 -0.999975 0.00282432
-2.75087 1.21974 -0.386908 -0.0208917 -0.997824 0.0625296
-2.54553 1.21863 -0.309835 -0.0101097 -0.99986 0.0133689
-2.68899 1.21727 -0.238956 -0.0135031 -0.999845 -0.0112878
-2.67128 1.22039 -0.203139 0.00758146 -0.999963 -0.00414638
-2.6177 1.21572 -0.184903 -0.0135031 -0.999845 -0.0112878
-2.74212 1.21542 -0.346536 -0.0419424 -0.997584 0.0553722
-2.94004 1.21176 -0.114866 0.112757 -0.984101 0.13723
-2.8506 1.22181 -0.114593 -0.00305021 -0.999947 0.00988339
-2.79702 1.21464 -0.0963155 -0.00305021 -0.999947 0.00988339
-2.91506 1.30665 0.0245447 0.14108 -0.989841 -0.0176558
-2.9674 1.26598 -0.0130444 0.14108 -0.989841 -0.0176558
-2.54035 1.22638 -0.000196917 -0.127234 -0.963091 0.237205
-2.6363 1.22313 -0.0419902 -0.0173312 -0.998495 0.0520237
-2.64229 1.26695 0.0355124 -0.0388914 -0.987901 0.15013
-2.56412 1.21605 -0.166753 -0.127234 -0.963091 0.237205
-2.74345 1.21747 -0.0782071 0.0251767 -0.999675 -0.00405833
-3.24556 1.22895 0.169593 -0.00278401 -0.999078 -0.0428516
-3.29869 1.21711 0.0621831 -0.0945987 -0.994968 -0.0330213
-3.26327 1.22334 0.133818 -0.0705342 -0.992006 0.104638
-3.37087 1.22669 0.186903 -0.0128358 -0.988207 -0.152582
-3.31132 1.2282 0.126789 0.0824666 -0.970695 -0.225722
-3.28143 1.22674 0.187345 -0.00278401 -0.999078 -0.0428516
-3.24556 1.22895 0.169593 -0.00278401 -0.999078 -0.0428516
-3.17383 1.21838 0.134345 0.0824666 -0.970695 -0.225722
-2.99494 1.21348 0.135313 0.0348553 -0.986921 0.157392
-3.03036 1.20475 0.0637199 -0.0705342 -0.992006 0.104638
