ply
format ascii 1.0
element vertex 827
property double x
property double y
property double z
property double nx
property double ny
property double nz
end_header
-3.92766 -0.804728 -0.908412 -0.0988975 -0.994864 -0.0215473
-4.05294 -0.704402 -0.892926 -0.176449 0.978698 0.104958
-4.07066 -0.75003 -0.927981 -0.0445014 -0.962552 -0.26742
-4.12423 -0.725343 -0.946576 -0.334789 0.93808 -0.0890134
-3.90992 -0.704109 -0.874339 -0.0105206 0.999453 0.0313458
-3.83645 -0.756141 -1.26667 -0.12264 -0.989933 -0.0706548
-3.71115 -0.763982 -1.2838 0.0140069 -0.999606 -0.0243027
-3.67529 -0.779306 -1.30125 -0.309419 -0.94873 0.0645812
-3.7293 -0.755522 -1.23037 -0.123546 -0.992191 0.0171126
-3.87231 -0.753316 -1.249 -0.193229 -0.977104 -0.0890526
-3.8723 -0.698324 -1.24998 0.00715511 0.999878 0.0138608
-3.76472 -0.754294 -1.30213 0.0957174 -0.979154 -0.179154
-3.74699 -0.693668 -1.26734 -0.0315157 0.999481 0.00663135
-3.8909 -0.758256 -1.10587 -0.0504659 -0.984871 0.165779
-3.84176 -0.773103 -1.09642 -0.116139 -0.99246 -0.0391698
-3.81918 -0.781404 -1.14089 0.0957174 -0.979154 -0.179154
-3.71203 -0.793283 -1.10437 -0.218215 -0.975781 -0.0153106
-3.89046 -0.752354 -1.19543 -0.309419 -0.94873 0.0645812
-3.89089 -0.700765 -1.1069 -0.0665177 0.997723 -0.0111146
-3.80101 -0.697379 -1.19597 0.0316934 0.997467 0.0636794
-3.89045 -0.697363 -1.19641 -0.0665177 0.997723 -0.0111146
-3.83687 -0.692054 -1.17835 -0.0209023 0.999754 -0.0073925
-3.72973 -0.753925 -1.14094 0.0157324 -0.926093 -0.376968
-3.67616 -0.751116 -1.12284 0.0882978 -0.983572 -0.157445
-3.712 -0.693299 -1.10615 -0.0244683 0.999696 0.0031488
-3.49662 -0.776041 -1.2557 0.185824 -0.974277 0.127486
-3.44304 -0.775731 -1.23755 -0.0631456 -0.989827 -0.127498
-3.49638 -0.689353 -1.30198 -0.0631505 0.997522 0.0310268
-3.62909 -0.77404 -1.14568 -0.032183 -0.996483 0.0773735
-3.658 -0.754577 -1.17636 -0.22758 -0.960605 -0.159516
-3.65375 -0.773816 -1.1335 -0.22758 -0.960605 -0.159516
-3.61766 -0.774941 -1.19593 -0.186248 -0.965641 -0.181242
-3.54089 -0.773597 -1.11954 -0.121733 -0.932325 0.340516
-3.60443 -0.754268 -1.15821 -0.0631456 -0.989827 -0.127498
-3.64027 -0.691452 -1.14162 -0.0452346 0.997366 -0.0567042
-3.62258 -0.750807 -1.10469 0.0157324 -0.926093 -0.376968
-3.45692 -0.734019 -1.1422 0.223307 0.959575 -0.171316
-3.44368 -0.690849 -1.10488 0.0530953 0.997971 -0.0351436
-3.44811 -0.693507 -1.1138 -0.0104419 0.999851 0.0137741
-3.78376 -0.787632 -1.06904 0.0209023 -0.999754 0.0073925
-3.83733 -0.775444 -1.08741 -0.164706 -0.970962 -0.173507
-3.87361 -0.698533 -0.98161 -0.0209814 0.999728 0.0102029
-3.80232 -0.700087 -0.927559 -0.0104419 0.999851 0.0137741
-3.74833 -0.79136 -0.997231 -0.116139 -0.99246 -0.0391698
-3.82656 -0.771449 -1.00356 0.169684 -0.955276 -0.242188
-3.88911 -0.771677 -1.01728 -0.212843 -0.938461 -0.272009
-3.69473 -0.693566 -0.980823 -0.00695552 0.999759 0.0208245
-3.83509 -0.772964 -1.08856 -0.116139 -0.99246 -0.0391698
-3.6766 -0.784514 -1.03278 -0.132101 -0.94954 0.28447
-3.80191 -0.79167 -1.01538 0.0698297 -0.991886 0.106235
-3.80189 -0.701684 -1.01699 -0.0452346 0.997366 -0.0567042
-3.58716 -0.792029 -1.03221 0.180743 -0.958191 -0.221817
-3.65845 -0.792974 -1.08622 -0.0523984 -0.988571 -0.141358
-3.64074 -0.78484 -1.05049 0.0698297 -0.991886 0.106235
-3.52429 -0.773002 -1.08592 -0.280036 -0.917056 -0.283882
-3.51587 -0.776086 -0.978473 0.360612 -0.918565 -0.161853
-3.44414 -0.791736 -1.01363 0.305867 -0.951956 0.0149791
-3.48001 -0.781411 -0.996093 -0.0516088 -0.957879 -0.282496
-3.50547 -0.772327 -1.04782 -0.0631456 -0.989827 -0.127498
-3.65843 -0.69049 -1.08805 -0.0385568 0.999205 0.0101113
-3.623 -0.691719 -1.01629 -0.00695552 0.999759 0.0208245
-3.56942 -0.68891 -0.998183 -0.00695552 0.999759 0.0208245
-3.58714 -0.692045 -1.034 -0.102801 0.970597 0.217654
-3.51542 -0.752687 -1.06835 0.0179427 -0.994264 -0.105437
-3.55129 -0.749862 -1.05068 0.0782091 -0.960712 -0.266301
-3.4623 -0.790774 -0.960056 -0.384812 -0.901664 0.197285
-3.53402 -0.790122 -0.924636 0.0473787 -0.937731 0.344115
-3.64115 -0.698256 -0.962585 -0.0419639 0.999014 -0.0145266
-3.56986 -0.694811 -0.908622 -0.0495889 0.996983 0.0597194
-3.44457 -0.747646 -0.924956 0.0608723 -0.974658 -0.21526
-3.49815 -0.747955 -0.943105 0.0608723 -0.974658 -0.21526
-4.16053 -0.713422 -0.839617 -0.0701104 0.997395 0.0169566
-3.93585 -0.808408 -0.834584 -0.21272 -0.969434 0.122257
-4.05339 -0.745298 -0.80274 -0.290813 -0.936594 0.195497
-4.08925 -0.719976 -0.785476 -0.0957237 0.989417 0.109044
-4.03568 -0.749662 -0.766792 -0.155801 -0.987498 0.0239402
-3.9821 -0.751852 -0.748599 0.086881 -0.973475 0.211656
-3.98165 -0.705956 -0.838874 -0.056613 0.99356 0.0981475
-4.01797 -0.771523 -0.730532 0.217377 -0.911249 0.349818
-3.91082 -0.775903 -0.694145 0.133481 -0.990962 -0.0132967
-3.97111 -0.766153 -0.709152 -0.0911401 -0.981821 -0.166495
-3.92853 -0.76654 -0.730182 -0.0911401 -0.981821 -0.166495
-4.02468 -0.726469 -0.728014 -0.056613 0.99356 0.0981475
-3.96439 -0.751216 -0.71274 -0.0762186 -0.906994 0.414189
-3.91977 -0.725829 -0.69061 -0.102801 0.970597 0.217654
-3.92851 -0.714048 -0.73112 -0.0682114 0.959887 0.271964
-3.96482 -0.749619 -0.623313 -0.0719784 -0.9665 0.246369
-3.89223 -0.775962 -0.837186 0.287221 -0.916514 0.2784
-3.88796 -0.767705 -0.79482 -0.18303 -0.978955 0.0902612
-3.87429 -0.768626 -0.846175 0.130028 -0.991301 -0.0203485
-3.74921 -0.798165 -0.818197 -0.00565357 -0.91737 0.397995
-3.69563 -0.785357 -0.800272 0.033515 -0.953829 0.298475
-3.8032 -0.704392 -0.74857 -0.0682114 0.959887 0.271964
-3.71376 -0.701909 -0.748176 -0.0245417 0.999484 0.0207324
-3.7669 -0.696317 -0.855886 -0.00695552 0.999759 0.0208245
-3.8615 -0.766353 -0.718675 0.033515 -0.953829 0.298475
-3.82137 -0.758422 -0.694019 0.262003 -0.898719 0.35165
-3.71422 -0.760303 -0.657677 -0.00565357 -0.91737 0.397995
-3.8125 -0.725609 -0.67667 -0.0682114 0.959887 0.271964
-3.74964 -0.744076 -0.729707 -0.00565357 -0.91737 0.397995
-3.75679 -0.724921 -0.637271 -0.0462797 0.984057 0.171724
-3.62434 -0.764416 -0.746621 0.0287553 -0.990064 -0.137648
-3.62432 -0.696926 -0.747827 -0.00703584 0.999238 0.0383826
-3.49857 -0.693866 -0.854615 -0.0140069 0.999606 0.0243027
-3.46315 -0.695095 -0.782853 -0.0245417 0.999484 0.0207324
-3.61437 -0.766558 -0.726406 -0.0481455 -0.969779 -0.239189
-3.6602 -0.766589 -0.728867 -0.118277 -0.942355 0.313015
-3.48133 -0.826613 -0.726919 -0.22674 -0.949538 0.216716
-3.53534 -0.782832 -0.656398 -0.2248 -0.969272 -0.0998847
-3.64248 -0.748456 -0.693321 -0.081755 -0.991428 0.101915
-3.66063 -0.712501 -0.640377 -0.0219131 0.982098 0.187093
-3.62476 -0.697829 -0.658355 -0.0219131 0.982098 0.187093
-3.55303 -0.70098 -0.69373 -0.387362 0.921928 -0.000743222
-3.68653 -0.724315 -0.602273 -0.0219131 0.982098 0.187093
-3.69649 -0.712175 -0.622667 -0.0745287 0.988222 0.133649
-3.58935 -0.779045 -0.585164 -0.294717 -0.919863 0.258831
-3.62521 -0.763721 -0.567722 -0.033693 -0.932781 0.358867
-3.64293 -0.761857 -0.603625 -0.121516 -0.912076 0.3916
-3.49542 -0.764104 -0.587207 -0.033693 -0.932781 0.358867
-3.50887 -0.763982 -0.580566 -0.033693 -0.932781 0.358867
-3.51762 -0.744702 -0.621209 -0.0219131 0.982098 0.187093
-3.4443 -0.722982 -0.523952 -0.387362 0.921928 -0.000743222
-3.49989 -0.711572 -0.585931 -0.0815101 0.987213 0.136991
-3.49563 -0.723312 -0.543208 -0.0736226 0.996908 0.0274504
-3.57209 -0.801808 -0.459432 0.263888 0.961851 0.0721524
-3.44898 -0.762237 -0.4819 -0.358551 -0.922803 0.140986
-3.55168 -0.762797 -0.514822 -0.240063 -0.967201 0.0830191
-3.4937 -0.762228 -0.482119 -0.358551 -0.922803 0.140986
-3.53671 -0.988008 -0.384367 -0.0295889 0.909049 -0.415638
-3.49201 -1.05051 -0.383032 -0.320928 -0.946719 -0.0269879
-2.76307 -1.03609 -1.30146 0.014178 -0.996677 0.0802182
-2.78094 -1.03693 -1.29226 -0.113174 -0.989401 0.0909834
-2.69178 -1.03514 -1.24745 -0.0360102 -0.964207 0.262693
-2.65607 -1.03568 -1.22011 -0.173106 -0.971144 0.164051
-2.674 -1.01552 -1.21161 -0.173106 -0.971144 0.164051
-2.74529 -1.01646 -1.26562 -0.113174 -0.989401 0.0909834
-2.63775 -1.05632 -1.31839 0.014178 -0.996677 0.0802182
-2.63775 -1.05632 -1.31839 -0.28172 -0.940424 0.190358
-2.70972 -1.015 -1.23894 -0.133692 -0.979156 0.152906
-2.74536 -1.03547 -1.2656 -0.133692 -0.979156 0.152906
-2.56669 -1.05462 -1.21967 -0.0930633 -0.934361 0.34396
-2.62005 -1.03321 -1.28291 -0.133692 -0.979156 0.152906
-2.6379 -0.95415 -1.27515 -0.111808 0.97522 -0.190904
-2.67367 -0.943556 -1.30259 0.095797 0.97588 -0.196165
-2.67376 -0.961323 -1.2573 -0.308679 0.91759 -0.250492
-2.65562 -0.969783 -1.31074 0.324264 0.945824 0.0164162
-2.5665 -0.96789 -1.26586 0.101963 0.988558 -0.111157
-2.62008 -0.960722 -1.28414 0.0641076 0.976232 -0.207029
-2.58466 -0.961991 -1.21238 0.120917 0.950182 -0.287287
-2.59117 -0.935199 -1.25424 0.186818 0.964284 -0.187763
-2.64721 -1.01536 -1.20253 -0.0688629 -0.931152 0.35807
-2.66522 -1.01422 -1.194 -0.0930633 -0.934361 0.34396
-2.60249 -1.03287 -1.202 -0.173106 -0.971144 0.164051
-2.98986 -0.870098 -0.634276 -0.0570006 0.97741 0.203521
-3.41164 -1.00408 -0.582511 0.19001 0.978342 0.0821152
-3.35023 -1.00379 -0.565442 0.207537 0.952162 0.224313
-3.25535 -1.04331 -0.536316 0.349344 -0.932219 -0.0944843
-3.29665 -1.00348 -0.547294 -0.197028 -0.966019 -0.167296
-3.32106 -0.881578 -0.582019 -0.275181 -0.960218 0.0475082
-3.41098 -1.05494 -0.489905 0.0275684 -0.996864 0.0741765
-3.36626 -1.05494 -0.489686 0.0791263 -0.937328 -0.339345
-3.37511 -1.01527 -0.50833 -0.197028 -0.966019 -0.167296
-3.3574 -1.01963 -0.472382 0.231446 0.955168 0.184624
-3.39327 -1.0518 -0.454091 0.1395 -0.90744 -0.39635
-3.42913 -1.01898 -0.436962 0.0207409 0.993428 0.112561
-3.32154 -1.05245 -0.489512 0.194852 -0.934101 -0.299145
-3.32485 -1.00258 -0.497128 0.260946 0.956787 -0.128318
-3.32153 -1.01496 -0.490181 0.19001 0.978342 0.0821152
-3.24095 -1.01279 -0.507717 -0.190398 -0.979579 -0.0646066
-3.28566 -0.975292 -0.508605 0.349344 -0.932219 -0.0944843
-3.29494 -0.936518 -0.437777 0.121516 0.912076 -0.3916
-3.02353 -0.964678 -0.610387 0.305543 -0.950857 0.0501335
-3.20553 -1.06651 -0.435017 -0.0560964 0.998375 0.0100167
-2.77514 -0.982939 -0.6491 -0.132201 0.925071 -0.356044
-2.90696 -1.00583 -0.67282 0.0437841 0.952546 -0.30123
-2.90042 -0.885112 -0.633569 -0.089948 -0.947595 -0.30655
-2.80876 -0.965137 -0.63281 0.0602069 0.995466 -0.0736435
-2.95447 -1.0263 -0.559747 -0.190398 -0.979579 -0.0646066
-2.94074 -1.00493 -0.622682 -0.190398 -0.979579 -0.0646066
-2.93676 -1.02567 -0.523888 -0.199909 -0.910578 0.361779
-2.95445 -0.923819 -0.561576 -0.12745 0.962705 0.238653
-2.87166 -0.964067 -0.573871 0.178208 0.934505 0.308126
-2.92734 -0.964855 -0.618859 0.0437841 0.952546 -0.30123
-2.76561 -0.963488 -0.539815 0.0602069 0.995466 -0.0736435
-2.86279 -0.923756 -0.556656 -0.0614711 0.918383 0.390888
-2.87433 -1.04254 -0.487497 0.0602069 0.995466 -0.0736435
-2.77602 -0.984745 -0.470156 -0.0184077 0.977378 0.210699
-2.73749 -0.964092 -0.573213 -0.0926622 -0.970905 0.220811
-2.68612 -0.918869 -0.56035 0.0425614 -0.993162 -0.10871
-2.70827 -0.964656 -0.60437 -0.217445 0.973724 -0.0676773
-2.63302 -1.05194 -0.450364 -0.159476 0.940885 0.298835
-2.6507 -0.937595 -0.488276 -0.205189 0.933116 0.295283
-2.56568 -0.922772 -0.49707 -0.0718119 -0.952046 0.297408
-2.38757 -1.07528 -1.26316 0.00187785 -0.904453 0.42657
-2.39642 -1.09559 -1.28075 -0.108627 -0.993742 -0.0260054
-2.35171 -1.07557 -1.28087 0.287977 -0.956372 0.0492124
-2.48132 -0.976065 -1.3078 -0.00187785 0.904453 -0.42657
-2.47706 -0.972843 -1.26534 0.105729 0.979026 -0.174155
-2.49477 -0.975958 -1.30116 0.268354 0.924326 -0.271306
-2.493 -0.974366 -1.20724 -0.215245 0.976249 -0.0246511
-2.40555 -0.975154 -1.256 0.380283 0.923885 0.0426766
-2.31633 -0.97185 -1.21089 0.380283 0.923885 0.0426766
-2.31676 -1.00533 -1.12086 0.182526 0.981695 -0.054398
-2.38802 -1.07377 -1.17373 -0.135448 0.964658 0.226028
-2.44165 -0.941617 -1.19413 -0.215245 0.976249 -0.0246511
-2.37035 -0.963167 -1.13973 0.380283 0.923885 0.0426766
-2.22642 -1.04081 -1.29873 0.276004 0.955964 -0.0997694
-2.19098 -1.06707 -1.22654 0.245528 -0.916355 0.316243
-2.20869 -1.06519 -1.26245 0.0485907 -0.965361 0.256355
-2.26227 -1.06802 -1.28055 0.128161 -0.980038 -0.151986
-2.20872 -1.0152 -1.26329 -0.0731882 0.977191 -0.199353
-2.10113 -1.00355 -1.31663 0.148508 0.936707 -0.317058
-2.11925 -1.07264 -1.26188 -0.181157 -0.908077 0.377596
-2.26926 -0.974723 -1.23409 -0.281189 0.949297 -0.140601
-2.28086 -1.0781 -1.13734 0.0517515 -0.947462 0.315653
-2.20265 -1.01298 -1.13247 0.0517515 -0.947462 0.315653
-2.2273 -1.04028 -1.11983 0.0517515 -0.947462 0.315653
-2.25165 -1.05362 -1.16892 0.0517515 -0.947462 0.315653
-2.06611 -1.0733 -1.15426 0.000436158 -0.999856 0.0169428
-2.08489 -1.05534 -1.19236 0.191519 0.967596 -0.164557
-2.09308 -1.07402 -1.11826 -0.200846 -0.978321 -0.0504956
-2.13455 -1.01262 -1.11313 -0.106073 0.992965 -0.0526258
-2.19146 -0.978072 -1.1386 -0.282879 0.939375 0.193791
-2.07537 -1.07338 -1.0824 0.147397 -0.976709 0.155931
-1.98505 -1.08409 -1.26068 0.129705 0.979249 0.15572
-1.92939 -1.05438 -1.22211 0.18208 -0.953243 -0.241196
-1.86908 -1.05411 -1.20728 -0.123408 -0.970108 0.208952
-2.0395 -1.06621 -1.10025 -0.0128909 -0.899839 0.436032
-1.90497 -1.01633 -1.19021 -0.123408 -0.970108 0.208952
-2.04058 -0.973762 -1.10414 0.000271517 0.999841 -0.0178532
-1.73483 -0.900706 -1.20906 -0.13984 0.987628 -0.0709687
-1.69 -0.896115 -1.23129 -0.119187 0.990804 -0.0640458
-1.80659 -1.02253 -1.17145 -0.0615801 0.925521 -0.373656
-1.82475 -1.03907 -1.11757 0.217079 0.899913 -0.378197
-1.62769 -0.94758 -1.17191 0.136262 -0.987317 0.0814673
-1.98593 -1.0734 -1.08196 -0.0887276 -0.99544 0.0350186
-2.00408 -1.06994 -1.02844 -0.0887276 -0.99544 0.0350186
-1.89646 -0.993426 -1.08295 0.191519 0.967596 -0.164557
-1.84289 -1.00561 -1.06458 0.0828827 0.940258 -0.330219
-1.97918 -0.973474 -1.08707 -0.147901 0.986674 -0.0678238
-1.97704 -0.973095 -1.06582 0.184777 0.959215 -0.213926
-1.71804 -1.06435 -0.991354 0.115024 -0.965674 0.232902
-1.82564 -1.08337 -0.937867 0.178489 -0.934726 0.307294
-1.78977 -1.0687 -0.955845 0.048632 -0.991971 0.116742
-1.7362 -1.08838 -0.937339 0.048632 -0.991971 0.116742
-2.51322 -0.962496 -0.480448 -0.028321 -0.999593 -0.00340733
-1.62986 -0.877105 -0.725892 0.0448311 -0.988488 0.144505
-3.33589 -0.775112 -1.20125 -0.032183 -0.996483 0.0773735
-3.29977 -0.663755 -1.26569 0.0671996 0.994759 -0.0770682
-3.15679 -0.795941 -1.24473 -0.307459 -0.907237 -0.287037
-3.10075 -0.776453 -1.27276 -0.307459 -0.907237 -0.287037
-3.08506 -0.794093 -1.2802 -0.307459 -0.907237 -0.287037
-3.02499 -0.815542 -1.22025 -0.307459 -0.907237 -0.287037
-3.19262 -0.665635 -1.22934 0.0181089 0.99735 -0.0704692
-3.19219 -0.677231 -1.31859 0.0532019 0.996113 -0.0702101
-3.10698 -0.81415 -1.14352 -0.023078 0.908051 0.418223
-3.13067 -0.813387 -1.10116 -0.023078 0.908051 0.418223
-2.99425 -0.773439 -1.10232 0.0439814 -0.952415 0.301614
-2.98933 -0.775076 -1.19396 -0.023078 0.908051 0.418223
-3.09223 -0.814931 -1.18705 -0.0790107 0.944377 -0.319234
-3.08102 -0.815033 -1.19258 -0.0790107 0.944377 -0.319234
-3.12134 -0.682187 -1.17502 0.0386147 0.998368 0.0420828
-3.38016 -0.772669 -1.06509 -0.0516088 -0.957879 -0.282496
-3.37242 -0.792388 -1.04905 0.305867 -0.951956 0.0149791
-3.35672 -0.772534 -1.05715 -0.384812 -0.901664 0.197285
-3.25529 -0.771414 -0.992934 0.0608723 -0.974658 -0.21526
-3.32354 -0.771242 -0.984326 -0.280036 -0.917056 -0.283882
-3.23185 -0.771279 -0.984994 -0.000271517 -0.999841 0.0178532
-3.42642 -0.748607 -0.978525 -0.059259 -0.991066 -0.119487
-3.40827 -0.752068 -1.03205 0.0782091 -0.960712 -0.266301
-3.34318 -0.732962 -1.08127 0.0108176 0.99984 -0.0142798
-3.33652 -0.69273 -1.06854 0.0144717 0.998995 -0.0424124
-3.42598 -0.750204 -1.06795 -0.00586591 -0.960149 -0.279428
-3.21838 -0.691414 -0.993064 -0.00901654 0.958318 -0.28556
-3.30111 -0.751449 -0.995752 -0.059259 -0.991066 -0.119487
-3.22937 -0.692111 -1.03224 0.0179588 0.999213 -0.0353598
-3.22938 -0.747102 -1.03126 0.0608723 -0.974658 -0.21526
-3.3011 -0.688959 -0.996868 0.0144717 0.998995 -0.0424124
-3.28296 -0.749911 -1.04937 0.374567 -0.899444 0.225167
-3.37838 -0.770993 -0.971181 0.0473787 -0.937731 0.344115
-3.33744 -0.824514 -0.887275 -0.0843853 -0.989541 -0.116994
-3.37772 -0.769356 -0.879512 0.0220848 -0.974686 -0.222487
-3.37285 -0.758296 -0.960198 -0.059259 -0.991066 -0.119487
-3.30156 -0.784847 -0.9057 -0.280036 -0.917056 -0.283882
-3.24799 -0.787037 -0.887506 0.160505 -0.914555 -0.371251
-3.24024 -0.809255 -0.871417 0.168973 0.984826 0.039579
-3.29503 -0.689124 -0.866003 0.0179588 0.999213 -0.0353598
-3.28382 -0.689226 -0.871537 0.0144717 0.998995 -0.0424124
-3.0058 -0.812133 -1.029 0.126426 0.980736 0.148906
-3.03259 -0.812287 -1.03808 -0.0362935 -0.976973 0.210254
-2.98851 -0.769907 -0.904433 0.27867 -0.916237 -0.287842
-3.08883 -0.770986 -0.966407 0.126426 0.980736 0.148906
-3.05913 -0.769215 -0.866771 -0.0164668 -0.964308 -0.264269
-3.0868 -0.747711 -0.923202 0.352265 -0.907697 -0.228024
-2.92434 -0.835658 -1.22499 -0.307459 -0.907237 -0.287037
-2.83666 -0.77736 -1.31954 -0.000271517 -0.999841 0.0178532
-2.9243 -0.683182 -1.22772 0.0177863 0.999842 -0.000163065
-2.96421 -0.69691 -1.297 0.0144717 0.998995 -0.0424124
-2.78129 -0.695387 -1.20891 0.0251493 0.996947 -0.0739249
-2.83486 -0.690697 -1.22714 0.121068 0.944852 -0.304296
-2.76322 -0.698637 -1.30718 0.0135948 0.999888 -0.00630979
-2.94247 -0.764707 -1.17267 -0.023078 0.908051 0.418223
-2.90663 -0.832523 -1.18918 -0.025966 -0.972352 0.23207
-2.8889 -0.769397 -1.15444 -0.000271517 -0.999841 0.0178532
-2.83089 -0.773928 -1.12723 0.0439814 -0.952415 0.301614
-2.92474 -0.676586 -1.13838 0.0386147 0.998368 0.0420828
-2.90703 -0.683449 -1.10239 -0.0320241 0.993161 0.112271
-2.76357 -0.684753 -1.17323 0.120627 0.981716 -0.147249
-2.67377 -0.696091 -1.30678 0.00339189 0.996778 -0.0801389
-2.67422 -0.699575 -1.21727 0.106561 0.937371 -0.331632
-2.65606 -0.697975 -1.27088 -0.0567365 0.998367 -0.00664763
-2.63783 -0.69919 -1.2797 -0.00330136 0.999968 -0.00730778
-2.66935 -0.695937 -1.29782 -0.000436158 0.999856 -0.0169428
-2.65584 -0.696233 -1.31564 -0.0493966 0.996802 -0.0628149
-2.62012 -0.698555 -1.24384 0.0180367 0.998435 -0.0529335
-2.6202 -0.69826 -1.28859 0.0274014 0.998846 0.0394513
-2.70344 -0.694061 -1.1862 -0.0493966 0.996802 -0.0628149
-2.65642 -0.699131 -1.13666 -0.0316412 0.998627 0.0417486
-2.72814 -0.680982 -1.10155 -0.00678817 0.999874 -0.0143666
-2.67466 -0.69556 -1.12788 -0.120271 0.992687 -0.0103657
-2.66996 -0.693854 -1.17485 -0.0493966 0.996802 -0.0628149
-2.69237 -0.688677 -1.16387 -0.0567365 0.998367 -0.00664763
-2.71008 -0.699291 -1.19956 -0.0493966 0.996802 -0.0628149
-2.70999 -0.686943 -1.15503 0.0109846 0.998716 -0.0494607
-2.62055 -0.696958 -1.15442 -0.0525532 0.998618 -0.000507638
-2.59355 -0.695102 -1.1901 0.0178753 0.999682 -0.0177642
-2.54926 -0.693513 -1.10045 -0.0525532 0.998618 -0.000507638
-2.56034 -0.693967 -1.18437 -0.134076 0.990749 -0.0209676
-2.54926 -0.693513 -1.10045 0.00288809 0.986233 0.165335
-2.56698 -0.694149 -1.13631 -0.0522705 0.997214 -0.0532127
-2.93628 -0.812864 -1.06891 0.126426 0.980736 0.148906
-2.94336 -0.806506 -0.993016 0.0547378 0.940932 -0.334142
-2.91082 -0.811951 -1.01736 0.100101 -0.944075 -0.314168
-2.96086 -0.812939 -1.0735 0.000271517 0.999841 -0.0178532
-2.96107 -0.802143 -1.02896 0.000271517 0.999841 -0.0178532
-2.85391 -0.771528 -0.993202 0.126426 0.980736 0.148906
-2.83576 -0.754992 -1.04708 -0.226688 -0.930909 0.286394
-2.88955 -0.732007 -1.02092 0.167121 0.958366 -0.231529
-2.8291 -0.692264 -1.03475 0.00367093 0.99997 0.00680724
-2.79987 -0.68283 -1.06609 0.0564871 0.998348 -0.0105185
-2.78216 -0.684694 -1.03018 0.280273 0.931748 0.230853
-2.84919 -0.69238 -1.04156 -0.0140805 0.999025 0.0418516
-2.90119 -0.730308 -0.925958 0.0178753 0.999682 -0.0177642
-2.97964 -0.6971 -0.887798 0.0891536 0.983364 -0.158261
-2.8902 -0.699616 -0.887314 0.0284134 0.999496 -0.0141886
-2.82766 -0.729384 -0.873058 0.0891536 0.983364 -0.158261
-2.75604 -0.704639 -0.886567 -0.0915832 0.995476 -0.025295
-2.78059 -0.729811 -0.896302 -0.281056 0.943241 -0.176926
-2.71043 -0.687846 -1.06556 0.00288809 0.986233 0.165335
-2.54085 -0.691598 -0.993096 -0.0209023 0.999754 -0.0073925
-2.56293 -0.692593 -1.0491 -0.188999 0.979886 -0.0640504
-2.54981 -0.691517 -0.988669 0.000271517 0.999841 -0.0178532
-2.54085 -0.691598 -0.993096 -0.073333 0.996392 -0.0427315
-2.5498 -0.691783 -1.05576 -0.0391914 0.99921 -0.00656631
-2.60381 -0.693099 -0.984443 -0.0145545 0.999844 -0.00996946
-2.74718 -0.701823 -0.868683 -0.108943 0.993119 -0.0429612
-2.64844 -0.695619 -0.939876 -0.0418738 0.998607 -0.0321116
-2.68431 -0.700292 -0.922077 -0.091722 0.995734 0.0100372
-2.70246 -0.699331 -0.868508 -0.0524751 0.998458 -0.018087
-2.74674 -0.715918 -0.957887 -0.0630485 0.998002 -0.00407241
-2.57671 -0.693771 -0.975341 -0.0844321 0.995345 -0.0464736
-2.56839 -0.691868 -0.912723 -0.120271 0.992687 -0.0103657
-2.5466 -0.690998 -0.959589 -0.0665177 0.997723 -0.0111146
-2.57693 -0.692973 -0.930628 -0.0419639 0.999014 -0.0145266
-2.57936 -0.689754 -0.89044 -0.0664296 0.997379 -0.0286779
-2.55921 -0.689838 -0.894814 0.00724425 0.999967 -0.00373521
-2.5861 -0.692483 -0.948583 -0.0145545 0.999844 -0.00996946
-2.56396 -0.689215 -0.903801 -0.0391914 0.99921 -0.00656631
-2.56829 -0.691857 -0.867984 -0.0595013 0.998121 -0.0145998
-2.59464 -0.693609 -0.966487 -0.0665177 0.997723 -0.0111146
-2.55068 -0.688753 -0.876906 -0.0285778 0.999379 -0.0205944
-2.60372 -0.695628 -0.939657 0.000271517 0.999841 -0.0178532
-2.61257 -0.693445 -0.957631 -0.0844321 0.995345 -0.0464736
-2.56342 -0.690795 -0.948492 -0.0419639 0.999014 -0.0145266
-2.53243 -0.689684 -0.885739 -0.0523809 0.99799 -0.0356608
-3.37374 -0.822591 -0.780138 -0.201582 -0.976755 0.0728972
-3.23028 -0.828894 -0.850889 -0.0179588 -0.999213 0.0353598
-3.30201 -0.823243 -0.815558 0.399672 -0.909217 0.116557
-3.3737 -0.692612 -0.782459 0.0142117 0.999845 0.0103768
-3.23025 -0.688917 -0.853388 -0.0383019 0.998356 -0.0426436
-3.36521 -0.806078 -0.695406 -0.246302 -0.963229 -0.107351
-3.36532 -0.805679 -0.673049 -0.000271517 -0.999841 0.0178532
-3.38112 -0.805137 -0.642944 -0.0937055 -0.90567 0.413499
-3.25817 -0.812558 -0.636618 0.202488 -0.94685 0.249948
-3.23115 -0.798205 -0.672525 0.0909646 -0.991247 0.0956806
-3.21301 -0.826662 -0.725603 0.086181 -0.938624 0.334004
-3.30288 -0.790054 -0.637239 -0.0179588 -0.999213 0.0353598
-3.28473 -0.801014 -0.690629 -0.000271517 -0.999841 0.0178532
-3.30245 -0.826646 -0.726041 -0.0575293 -0.96949 0.238285
-3.25813 -0.695077 -0.638716 0.0285717 0.998372 -0.0493576
-3.23113 -0.695721 -0.674355 -0.112501 0.993123 -0.0323934
-3.14083 -0.778919 -0.851343 0.29301 -0.940512 -0.171997
-3.14128 -0.824814 -0.761068 0.0636542 -0.99442 -0.0841308
-3.10542 -0.82764 -0.778733 -0.0281103 -0.998862 -0.0385407
-3.12309 -0.693297 -0.817002 -0.0174941 0.999698 0.0172547
-3.17667 -0.688607 -0.83524 1.2704e-05 0.99939 0.0349095
-3.16872 -0.795077 -0.636492 -0.166842 -0.966252 0.19627
-3.124 -0.797586 -0.636228 -0.0179588 -0.999213 0.0353598
-3.14172 -0.825717 -0.671596 0.086181 -0.938624 0.334004
-3.19103 -0.805272 -0.647601 -0.176414 -0.983718 0.0343116
-3.1864 -0.693229 -0.674181 -0.0570006 0.97741 0.203521
-3.13283 -0.692919 -0.656032 -0.042156 0.998381 0.0381772
-3.14168 -0.693238 -0.673961 0.0142117 0.999845 0.0103768
-3.15054 -0.693555 -0.691891 -0.042156 0.998381 0.0381772
-3.09696 -0.690746 -0.673787 -0.0812379 0.995495 0.0488985
-3.06995 -0.69389 -0.709381 -0.0105206 0.999453 0.0313458
-3.04295 -0.694533 -0.745021 0.0424163 0.999094 -0.00355949
-2.98937 -0.696723 -0.726828 0.0176919 0.999692 0.0174272
-3.02524 -0.696397 -0.709117 0.0176919 0.999692 0.0174272
-3.03453 -0.692619 -0.637664 -0.0105206 0.999453 0.0313458
-2.99866 -0.692945 -0.655374 0.0284134 0.999496 -0.0141886
-3.00752 -0.693262 -0.673303 -0.0844321 0.995345 -0.0464736
-3.07881 -0.694207 -0.727311 -0.0812379 0.995495 0.0488985
-3.3299 -0.814406 -0.601153 0.0902164 -0.971692 0.218347
-3.35893 -0.844536 -0.608585 -0.146244 -0.959918 0.239104
-3.41047 -0.784077 -0.584198 -0.0430929 -0.993069 0.109347
-3.33673 -0.803948 -0.575654 -0.0179588 -0.999213 0.0353598
-3.35007 -0.804224 -0.59137 -0.0224703 0.950347 0.310381
-3.37461 -0.784403 -0.601908 -0.2248 -0.969272 -0.0998847
-3.33684 -0.803548 -0.553297 -0.177192 -0.965174 0.192466
-3.2586 -0.788465 -0.547592 -0.134854 -0.972635 0.189199
-3.29403 -0.819731 -0.618774 -0.177192 -0.965174 0.192466
-3.23159 -0.801607 -0.583008 0.048632 -0.991971 0.116742
-3.24974 -0.785648 -0.529707 0.0233859 -0.97801 0.207243
-3.30332 -0.793456 -0.547722 0.0233859 -0.97801 0.207243
-3.23159 -0.804106 -0.582964 0.0413424 -0.984025 0.173166
-3.37458 -0.699416 -0.603426 -0.0531186 0.996116 0.0702283
-3.294 -0.69975 -0.620916 -0.0284256 0.997354 0.0669072
-3.24042 -0.696941 -0.602812 0.0810458 0.995095 0.0567243
-3.24972 -0.698162 -0.53127 0.0106371 0.999725 0.0209101
-3.21385 -0.698488 -0.54898 -0.0210539 0.999392 0.0277778
-3.22271 -0.696305 -0.566954 -0.0812379 0.995495 0.0488985
-3.3932 -0.779345 -0.458956 -0.358551 -0.922803 0.140986
-3.38412 -0.762328 -0.486053 -0.152305 -0.984767 0.0838855
-3.42009 -0.761603 -0.445986 -0.358551 -0.922803 0.140986
-3.33033 -0.797811 -0.511994 -0.239903 -0.970533 -0.0226473
-3.41123 -0.761285 -0.428057 -0.124088 -0.96983 0.209839
-3.37505 -0.792804 -0.512302 0.016836 -0.994273 0.105534
-3.26373 -0.761032 -0.411684 0.198145 0.976903 -0.0799898
-3.22649 -0.762317 -0.483045 0.115382 -0.989045 0.0920673
-3.31262 -0.794676 -0.47618 -0.152305 -0.984767 0.0838855
-3.21431 -0.76188 -0.458392 -0.247925 -0.961081 0.121886
-3.36284 -0.682385 -0.489613 0.0922886 0.993725 -0.0631984
-3.40887 -0.721711 -0.452235 -0.387362 0.921928 -0.000743222
-3.33724 -0.68197 -0.466012 0.132965 0.977708 0.162502
-3.34845 -0.671869 -0.460656 -0.0224703 0.950347 0.310381
-3.29488 -0.726551 -0.441526 -0.0113791 0.978188 0.207409
-3.28558 -0.702835 -0.51347 -0.042156 0.998381 0.0381772
-3.25901 -0.70688 -0.459593 -0.0224703 0.950347 0.310381
-3.11558 -0.780673 -0.529139 -0.0576588 -0.973441 0.221559
-3.20348 -0.804711 -0.616362 0.086181 -0.938624 0.334004
-3.17802 -0.801298 -0.56486 0.048632 -0.991971 0.116742
-3.11293 -0.804688 -0.613682 -0.176414 -0.983718 0.0343116
-3.1333 -0.813803 -0.564417 -0.202643 -0.942307 0.266446
-3.20502 -0.785655 -0.529488 -0.247925 -0.961081 0.121886
-3.12198 -0.804307 -0.592487 -0.354914 -0.92978 -0.0976991
-3.16916 -0.788481 -0.547154 0.310235 -0.946964 -0.0837447
-3.14215 -0.794125 -0.582704 0.048632 -0.991971 0.116742
-3.02614 -0.810685 -0.528165 0.310235 -0.946964 -0.0837447
-3.02571 -0.814781 -0.617548 -0.155844 -0.986906 0.0415959
-3.06932 -0.804735 -0.615704 0.202488 -0.94685 0.249948
-3.07043 -0.812274 -0.617811 0.0558433 -0.997526 0.0426942
-3.10626 -0.694467 -0.602199 -0.0278706 0.99938 -0.0215035
-3.20456 -0.697267 -0.620522 -0.0570006 0.97741 0.203521
-3.14212 -0.69664 -0.584444 -0.017416 0.999848 -0.000335666
-3.15852 -0.761491 -0.435761 -0.0351552 -0.998767 -0.0350602
-3.15144 -0.790345 -0.51125 -0.136691 -0.972665 -0.18772
-3.18775 -0.783423 -0.404202 -0.136691 -0.972665 -0.18772
-3.0983 -0.78094 -0.403808 -0.0351552 -0.998767 -0.0350602
-3.00842 -0.787553 -0.492708 -0.136691 -0.972665 -0.18772
-3.08015 -0.774403 -0.457511 -0.226324 -0.957006 0.181431
-3.20544 -0.70907 -0.4414 0.147585 0.985372 0.0852102
-3.08013 -0.699414 -0.45885 0.0209524 0.998007 0.0595155
-2.89951 -0.773324 -0.814477 0.170582 -0.927915 -0.331474
-2.79236 -0.767706 -0.778269 0.138249 -0.973348 -0.18298
-2.97122 -0.695185 -0.780441 0.000271517 0.999841 -0.0178532
-2.8725 -0.746473 -0.850608 0.100101 -0.944075 -0.314168
-2.93535 -0.695511 -0.798151 0.0176919 0.999692 0.0174272
-2.88178 -0.697701 -0.779958 9.89255e-05 0.99985 0.0173436
-2.90836 -0.751147 -0.832808 0.100101 -0.944075 -0.314168
-2.7742 -0.746171 -0.83224 0.170582 -0.927915 -0.331474
-2.76533 -0.698362 -0.815158 0.0891536 0.983364 -0.158261
-2.78348 -0.6974 -0.76159 -0.290572 0.939798 -0.179856
-2.77418 -0.698679 -0.833088 0.0424163 0.999094 -0.00355949
-2.82776 -0.698988 -0.851237 -0.0178926 0.995959 0.0880096
-2.81005 -0.698353 -0.815378 -0.0555145 0.989874 -0.130641
-2.86364 -0.751154 -0.832589 -0.0411129 -0.96448 -0.260938
-2.82778 -0.746481 -0.850389 0.138249 -0.973348 -0.18298
-2.86363 -0.696163 -0.833571 0.0566384 0.99735 -0.0456526
-2.86676 -0.765437 -0.652315 0.000271517 0.999841 -0.0178532
-2.88002 -0.846101 -0.688959 -0.0705984 -0.99689 0.0350196
-2.92694 -0.696096 -0.690749 0.0108176 0.99984 -0.0142798
-2.89107 -0.696422 -0.70846 0.000271517 0.999841 -0.0178532
-2.81934 -0.697074 -0.74388 0.000271517 0.999841 -0.0178532
-2.74956 -0.808886 -0.8433 -0.0275684 0.996864 -0.0741765
-2.67813 -0.80844 -0.817239 -0.0793372 -0.91071 0.405355
-2.6424 -0.808266 -0.807002 -0.240721 -0.913521 0.327921
-2.67142 -0.768408 -0.815684 -0.00533102 0.916173 0.400747
-2.71177 -0.763042 -0.795849 -0.250705 -0.929175 0.271627
-2.74763 -0.747718 -0.778407 0.100101 -0.944075 -0.314168
-2.71175 -0.698052 -0.79701 -0.0665177 0.997723 -0.0111146
-2.67589 -0.698378 -0.81472 -0.0734394 0.996982 -0.0251879
-2.60416 -0.691531 -0.850274 -0.0595013 0.998121 -0.0145998
-2.52379 -0.688567 -0.823097 0.000271517 0.999841 -0.0178532
-2.55987 -0.687442 -0.760672 -0.0490007 0.998738 -0.0110398
-2.5415 -0.689203 -0.858955 0.000271517 0.999841 -0.0178532
-2.61345 -0.687752 -0.778821 -0.0524751 0.998458 -0.018087
-2.6852 -0.782085 -0.741704 -0.00298341 -0.988952 -0.148206
-2.71111 -0.806397 -0.703378 -0.000271517 -0.999841 0.0178532
-2.72105 -0.699272 -0.725467 9.89255e-05 0.99985 0.0173436
-2.70333 -0.693637 -0.689698 -0.00670128 0.999466 -0.0319669
-2.88269 -0.826986 -0.598737 -0.247522 -0.904089 0.348363
-2.9418 -0.804998 -0.628493 0.0430929 0.993069 -0.109347
-2.93626 -0.794801 -0.617466 -0.0275684 0.996864 -0.0741765
-2.95195 -0.804656 -0.609539 0.066321 -0.996727 0.0462257
-2.84681 -0.764822 -0.617563 0.0430929 0.993069 -0.109347
-2.86497 -0.816352 -0.563057 -0.13438 -0.978921 0.153802
-2.8114 -0.816043 -0.544909 -0.00741584 -0.999214 0.0389336
-2.82911 -0.819178 -0.580723 -0.0705984 -0.99689 0.0350196
-2.84726 -0.808218 -0.527332 -0.0705984 -0.99689 0.0350196
-2.88266 -0.699506 -0.601014 -0.0174941 0.999698 0.0172547
-2.75779 -0.698252 -0.528858 -0.0245417 0.999484 0.0207324
-2.97964 -0.801517 -0.43417 -0.11486 -0.906353 0.406609
-2.91899 -0.807566 -0.491912 -0.00741584 -0.999214 0.0389336
-2.87886 -0.802135 -0.467212 0.0484322 -0.984304 0.169707
-2.95374 -0.802201 -0.47205 -0.0570006 0.97741 0.203521
-2.8477 -0.796622 -0.438083 -0.203706 -0.976157 -0.0749819
-2.79368 -0.812907 -0.509095 -0.127068 -0.988639 0.0802883
-2.77148 -0.802314 -0.475628 0.013006 -0.982299 0.18687
-2.77929 -0.802393 -0.480138 -0.110559 -0.964787 0.238667
-2.86541 -0.817255 -0.473585 -0.00384436 -0.999589 0.0283965
-2.82955 -0.805083 -0.491518 0.0195702 -0.957184 0.288819
-2.75826 -0.816636 -0.437288 0.111745 -0.967635 0.226264
-2.82998 -0.780989 -0.402493 -0.092286 -0.992451 0.0807703
-2.9194 -0.703485 -0.404315 -0.0890148 0.955538 0.28111
-2.97254 -0.700392 -0.51198 -0.0570006 0.97741 0.203521
-2.95482 -0.702257 -0.476077 -0.0986835 0.99291 0.0662631
-2.86538 -0.702273 -0.475638 -0.010596 0.998749 0.0488774
-2.82952 -0.702599 -0.493348 -0.0245417 0.999484 0.0207324
-2.72192 -0.698578 -0.546568 -0.0175667 0.999239 0.0348179
-2.61524 -0.821342 -0.418611 0.185549 -0.95011 0.250723
-2.65067 -0.820113 -0.490373 -0.147461 -0.979356 -0.138263
-2.65107 -0.698535 -0.403088 -0.0281528 0.998413 0.0487747
-2.59706 -0.694824 -0.474456 -0.0281528 0.998413 0.0487747
-2.66791 -0.692366 -0.61798 -0.0524751 0.998458 -0.018087
-2.74011 -0.815098 -0.490901 0.146408 -0.925545 0.349186
-2.63295 -0.821977 -0.45447 0.146408 -0.925545 0.349186
-2.57938 -0.819168 -0.436366 0.013006 -0.982299 0.18687
-2.57846 -0.692383 -0.617542 -0.0386179 0.998871 0.027677
-2.61477 -0.695459 -0.510315 -0.0530566 0.991057 0.122434
-2.70424 -0.820423 -0.508522 0.013006 -0.982299 0.18687
-2.73741 -0.764223 -0.582373 0.0430929 0.993069 -0.109347
-2.61433 -0.694556 -0.599787 -0.0280953 0.999117 0.031249
-2.38818 -0.686322 -1.1803 -0.0391914 0.99921 -0.00656631
-2.29622 -0.814533 -1.22352 0.000436158 -0.999856 0.0169428
-2.35232 -0.686606 -1.19801 0.0417087 0.999126 -0.0026482
-2.47712 -0.830363 -1.26775 0.124454 -0.969477 -0.211247
-2.44126 -0.825648 -1.28555 0.265554 -0.964096 -2.42658e-05
-2.40541 -0.77844 -1.30406 0.0510905 -0.965658 -0.254742
-2.24468 -0.782446 -1.24952 0.139937 -0.921826 -0.361461
-2.10165 -0.822063 -1.23025 -0.316735 -0.932707 0.172443
-2.06579 -0.799851 -1.24834 0.139937 -0.921826 -0.361461
-2.06691 -0.774893 -1.25101 0.139937 -0.921826 -0.361461
-2.06584 -0.684867 -1.25029 -0.0146375 0.999864 0.00763034
-2.13712 -0.695812 -1.30413 0.00305023 0.999947 -0.00988345
-2.18242 -0.68906 -1.12557 -0.0416551 0.996869 -0.0672096
-2.21828 -0.688734 -1.10786 -0.0242989 0.999191 -0.0320442
-2.19159 -0.690613 -1.14347 -0.0108926 0.999214 -0.0381093
-2.236 -0.691869 -1.14368 -0.0242989 0.999191 -0.0320442
-2.27186 -0.689044 -1.12601 -0.0486926 0.996779 -0.0637208
-2.08444 -0.684952 -1.10725 0.006536 0.999975 -0.00282437
-2.16427 -0.687522 -1.17919 0.028497 0.999088 -0.0317824
-2.07482 -0.685039 -1.17879 0.000271517 0.999841 -0.0178532
-2.1284 -0.690348 -1.19685 -0.0455225 0.998955 -0.00399008
-2.11069 -0.689712 -1.16099 -0.0275684 0.996864 -0.0741765
-2.50498 -0.689424 -1.01085 -0.0175667 0.999239 0.0348179
-2.49612 -0.689107 -0.992921 -0.0595013 0.998121 -0.0145998
-2.43347 -0.686778 -1.0016 -0.0209023 0.999754 -0.0073925
-2.51384 -0.689743 -1.02878 -0.0916669 0.995761 -0.00762677
-2.45118 -0.689914 -1.03742 -0.0209023 0.999754 -0.0073925
-2.48705 -0.689588 -1.01971 -0.0279542 0.999602 -0.00390639
-2.29963 -0.688244 -1.00091 -0.000436158 0.999856 -0.0169428
-2.39761 -0.689604 -1.01927 -0.0419639 0.999014 -0.0145266
-2.30816 -0.687121 -1.01887 -0.0419639 0.999014 -0.0145266
-2.33549 -0.682961 -0.983287 0.0100205 0.999941 0.00423313
-2.31734 -0.68636 -1.03681 -0.0250951 0.999593 -0.0135395
-2.37945 -0.685566 -1.07293 0.0353711 0.999374 -7.67284e-05
-2.51478 -0.769026 -0.893259 0.000436158 -0.999856 0.0169428
-2.48224 -0.769426 -0.917692 0.173669 0.911583 0.372633
-2.38037 -0.827349 -0.891482 0.000271517 0.999841 -0.0178532
-2.51428 -0.690645 -0.939308 0.000271517 0.999841 -0.0178532
-2.47895 -0.686822 -0.912366 -0.0286622 0.999585 -0.00299712
-2.44309 -0.687107 -0.930075 -0.0357088 0.999362 0.000487055
-2.45184 -0.687518 -0.903274 -0.0419639 0.999014 -0.0145266
-2.48727 -0.688789 -0.974992 -0.0419639 0.999014 -0.0145266
-2.5052 -0.688626 -0.966138 -0.0209023 0.999754 -0.0073925
-2.49656 -0.68751 -0.903493 -0.108943 0.993119 -0.0429612
-2.46955 -0.688153 -0.939133 -0.0419639 0.999014 -0.0145266
-2.47841 -0.688472 -0.957062 -0.0595013 0.998121 -0.0145998
-2.4607 -0.687836 -0.921204 -0.0523809 0.99799 -0.0356608
-2.37136 -0.685176 -0.965536 -0.000436158 0.999856 -0.0169428
-2.29001 -0.688082 -1.07244 0.0108176 0.99984 -0.0142798
-2.26376 -0.686029 -1.01866 0.006536 0.999975 -0.00282437
-2.19203 -0.686598 -1.05408 0.0137655 0.999044 -0.0415023
-2.11113 -0.683116 -1.07165 0.0249303 0.999463 -0.0212466
-2.15617 -0.686883 -1.07179 -0.028272 0.996911 -0.0732698
-1.99408 -0.765424 -1.28435 -0.242817 -0.937366 0.249769
-2.02566 -0.814411 -1.2233 0.213109 -0.917774 -0.335076
-2.05671 -0.828478 -1.22982 0.425975 0.90375 -0.0421949
-2.00645 -0.81579 -1.21861 0.0798086 -0.97332 0.215125
-1.96726 -0.791 -1.23005 -0.092818 -0.962269 0.255778
-1.91325 -0.822283 -1.30079 0.0344899 -0.995508 0.0881682
-1.91325 -0.817284 -1.30088 0.205693 0.921868 -0.328405
-1.89331 -0.856662 -1.26541 0.370992 -0.917932 -0.140589
-1.89553 -0.771655 -1.26583 0.0798086 -0.97332 0.215125
-1.9405 -0.775092 -1.26603 0.0438144 0.905039 -0.423066
-1.94136 -0.776686 -1.2682 0.0798086 -0.97332 0.215125
-1.89329 -0.776675 -1.26684 0.0798086 -0.97332 0.215125
-1.91723 -0.814279 -1.21829 -0.247653 -0.953111 0.173918
-1.8889 -0.81641 -1.25157 0.0798086 -0.97332 0.215125
-1.93717 -0.774977 -1.25931 0.0438144 0.905039 -0.423066
-2.02081 -0.693825 -1.24994 0.0318938 0.999466 -0.0071316
-1.96703 -0.736807 -1.27574 0.0781105 0.986545 -0.143622
-1.96723 -0.691016 -1.23183 0.010729 0.999937 0.00332219
-1.86028 -0.694228 -1.21781 -0.0378533 0.956917 -0.287883
-1.88693 -0.737267 -1.24852 -0.247653 -0.953111 0.173918
-1.97232 -0.773328 -1.16111 -0.000436158 0.999856 -0.0169428
-2.04454 -0.855537 -1.20467 0.370992 -0.917932 -0.140589
-1.97678 -0.830784 -1.15792 0.213109 -0.917774 -0.335076
-1.97988 -0.814836 -1.16483 -0.092818 -0.962269 0.255778
-1.97902 -0.773369 -1.16338 -0.247653 -0.953111 0.173918
-2.03035 -0.833615 -1.17603 -0.000436158 0.999856 -0.0169428
-2.02129 -0.832206 -1.15801 0.33098 -0.921017 0.205379
-1.93421 -0.77363 -1.17993 -0.247653 -0.953111 0.173918
-1.91412 -0.779095 -1.12265 0.205693 0.921868 -0.328405
-1.91413 -0.831587 -1.12171 0.0844321 -0.995345 0.0464736
-1.99455 -0.69142 -1.19615 -0.0871655 0.969851 -0.227578
-2.04857 -0.687736 -1.12492 -0.000436158 0.999856 -0.0169428
-1.87823 -0.694435 -1.14188 0.010729 0.999937 0.00332219
-1.90511 -0.691373 -1.19571 0.0670246 0.994805 -0.0766257
-1.8065 -0.695087 -1.1773 0.0108176 0.99984 -0.0142798
-1.64577 -0.701657 -1.12272 0.000271517 0.999841 -0.0178532
-1.64537 -0.850731 -1.20951 0.0751587 -0.967814 -0.240181
-1.82422 -0.695722 -1.21316 0.0108176 0.99984 -0.0142798
-1.78549 -0.774319 -1.13329 -0.119187 0.990804 -0.0640458
-1.60095 -0.734559 -1.14428 0.15702 0.933301 -0.322947
-1.68165 -0.753823 -1.10407 0.0281528 -0.998413 -0.0487747
-1.66682 -0.734907 -1.16472 0.0781105 0.986545 -0.143622
-1.87537 -0.772706 -1.0443 0.0281528 -0.998413 -0.0487747
-1.93228 -0.830626 -1.06814 0.0844321 -0.995345 0.0464736
-2.02256 -0.687437 -0.892227 -0.140034 0.988702 -0.0534669
-1.87911 -0.69624 -0.962934 0.032569 0.985783 -0.164838
-1.89726 -0.695279 -0.909365 -0.128309 0.952694 0.275519
-1.91456 -0.779998 -1.03318 0.205693 0.921868 -0.328405
-1.86161 -0.689807 -0.882451 -0.0560964 0.998375 0.0100167
-1.98626 -0.686861 -0.99941 0.0318938 0.999466 -0.0071316
-1.8521 -0.691885 -0.998663 0.0248417 0.999685 -0.00364788
-1.66395 -0.795681 -1.06745 0.0101861 -0.999187 0.0390187
-1.77151 -0.689719 -1.0162 -0.231572 0.958503 -0.16627
-1.78923 -0.692854 -1.05201 0.0249303 0.999463 -0.0212466
-1.7538 -0.676586 -0.980562 -0.0983576 0.993514 -0.057052
-1.62828 -0.692724 -1.04228 0.0106371 0.999725 0.0209101
-1.65064 -0.69272 -1.04239 -0.123007 0.992237 -0.0183215
-1.62849 -0.66693 -0.998012 -0.161535 0.983758 -0.0782751
-1.62807 -0.751014 -1.08597 -0.0932097 0.919905 0.380901
-1.70066 -0.664681 -0.873165 -0.0742193 0.996206 0.0454395
-2.42662 -0.768293 -0.805542 0.101939 -0.993704 0.0464833
-2.50388 -0.76784 -0.781327 0.000271517 0.999841 -0.0178532
-2.44334 -0.768489 -0.816801 0.120627 0.981716 -0.147249
-2.4521 -0.826697 -0.856062 -0.000271517 -0.999841 0.0178532
-2.43885 -0.76853 -0.819016 -0.14582 0.927098 0.34529
-2.48818 -0.828072 -0.793593 0.0454405 -0.998734 0.0215757
-2.41644 -0.773733 -0.829995 -0.334534 -0.93223 0.137965
-2.41868 -0.768714 -0.828978 0.101939 -0.993704 0.0464833
-2.38079 -0.768262 -0.803081 0.00678817 -0.999874 0.0143666
-2.38079 -0.770761 -0.803037 0.0805162 -0.996745 0.0041533
-2.39874 -0.825589 -0.793199 0.0454405 -0.998734 0.0215757
-2.48792 -0.688893 -0.840807 0.000271517 0.999841 -0.0178532
-2.41642 -0.686247 -0.831557 -0.0419639 0.999014 -0.0145266
-2.48836 -0.687296 -0.751379 0.0108176 0.99984 -0.0142798
-2.3987 -0.685611 -0.795698 -0.0419639 0.999014 -0.0145266
-2.38077 -0.685775 -0.804554 0.00375821 0.999935 -0.0107941
-2.38099 -0.684976 -0.75984 -0.0419639 0.999014 -0.0145266
-2.41689 -0.824628 -0.73963 0.0418738 -0.998607 0.0321116
-2.45276 -0.826801 -0.721875 0.0454405 -0.998734 0.0215757
-2.4751 -0.766807 -0.723057 -0.0843113 -0.996382 -0.0106849
-2.43481 -0.761975 -0.731892 0.000271517 0.999841 -0.0178532
-2.41931 -0.766418 -0.700426 -0.147625 -0.989039 0.00289525
-2.3456 -0.826182 -0.685578 -0.0705544 -0.996088 -0.0532015
-2.38124 -0.821656 -0.712672 -0.000271517 -0.999841 0.0178532
-2.39918 -0.821492 -0.703816 0.0763008 -0.966861 0.243635
-2.38147 -0.823357 -0.667913 -0.112305 -0.991399 -0.0671987
-2.34538 -0.824481 -0.730337 -0.045983 -0.998843 0.0140932
-2.36331 -0.821818 -0.721526 -0.0705544 -0.996088 -0.0532015
-2.47065 -0.686661 -0.715521 0.000271517 0.999841 -0.0178532
-2.50674 -0.690535 -0.653007 0.136095 0.969345 0.20457
-2.43522 -0.687889 -0.643759 -0.0244683 0.999696 0.0031488
-2.47087 -0.685862 -0.670806 -0.0530566 0.991057 0.122434
-2.41707 -0.686351 -0.697372 -0.0284256 0.997354 0.0669072
-2.45294 -0.686025 -0.679662 -0.0313511 0.9991 -0.028555
-2.34556 -0.683705 -0.688122 0.130548 0.990707 -0.0381653
-2.32763 -0.681369 -0.697023 0.000185223 1 -0.000249404
-2.13947 -0.767667 -0.766126 0.033515 -0.953829 0.298475
-2.1669 -0.68044 -0.642577 -0.0244683 0.999696 0.0031488
-2.22004 -0.679847 -0.750198 -0.0244683 0.999696 0.0031488
-2.11291 -0.771713 -0.712249 -0.147625 -0.989039 0.00289525
-2.2196 -0.678944 -0.83967 -0.0279542 0.999602 -0.00390639
-2.1176 -0.725881 -0.666125 0.236656 0.967406 -0.0901093
-2.12882 -0.685686 -0.655715 -0.045644 0.998472 0.0311426
-2.41751 -0.689754 -0.607855 -0.0284256 0.997354 0.0669072
-2.48902 -0.6899 -0.617148 -0.0210539 0.999392 0.0277778
-2.38187 -0.684282 -0.580941 -0.143778 0.989579 -0.00783765
-2.31943 -0.683654 -0.544862 -0.0560964 0.998375 0.0100167
-2.38187 -0.686781 -0.580895 -0.0280953 0.999117 0.031249
-2.346 -0.679608 -0.598739 -0.0108228 0.99636 0.0845554
-2.31014 -0.679934 -0.616449 -0.0560964 0.998375 0.0100167
-2.29242 -0.679299 -0.580591 -0.0386179 0.998871 0.027677
-2.3998 -0.689118 -0.571997 -0.143778 0.989579 -0.00783765
-2.39274 -0.801426 -0.420113 0.150234 -0.934935 0.321445
-2.30328 -0.721455 -0.421103 -0.0750467 0.9759 0.204905
-2.17162 -0.764587 -0.594132 0.00965452 0.976743 0.214195
-2.18281 -0.684498 -0.590026 -0.0560964 0.998375 0.0100167
-2.27471 -0.683662 -0.544643 -0.0281528 0.998413 0.0487747
-2.25259 -0.762855 -0.498391 0.0772388 -0.994716 0.0676289
-2.27269 -0.682884 -0.501036 -0.0108228 0.99636 0.0845554
-2.257 -0.683027 -0.508784 -0.0386179 0.998871 0.027677
-2.25257 -0.682868 -0.49982 0.136095 0.969345 0.20457
-2.23133 -0.722906 -0.501238 0.136718 0.978851 0.152182
-2.02346 -0.749233 -0.712212 0.0213596 0.999715 -0.0107055
-1.97391 -0.68799 -0.782393 0.0109028 0.999432 -0.0318796
-2.02079 -0.688261 -0.798273 0.0109028 0.999432 -0.0318796
-1.93401 -0.741751 -0.711908 -0.0932097 0.919905 0.380901
-1.95217 -0.753287 -0.658116 0.135809 0.934543 0.328916
-1.84414 -0.77086 -0.800405 0.19001 0.978342 0.0821152
-1.87998 -0.688047 -0.784168 0.0109028 0.999432 -0.0318796
-1.85122 -0.767002 -0.72447 0.0213596 0.999715 -0.0107055
-2.0053 -0.712701 -0.76645 -0.128309 0.952694 0.275519
-1.82643 -0.772724 -0.764502 0.0560532 0.993877 0.0952191
-1.80401 -0.767929 -0.77566 -0.201389 0.955813 0.214157
-1.80825 -0.6812 -0.819722 -0.0561461 0.998042 0.0275679
-1.66523 -0.675908 -0.801224 -0.143187 0.97254 -0.183473
-1.81646 -0.767367 -0.744421 0.119351 -0.991764 0.0464788
-1.73743 -0.773643 -0.674592 0.113199 0.992833 -0.0383335
-1.75514 -0.759281 -0.710718 -0.0315157 0.999481 0.00663135
-1.79324 -0.766433 -0.691767 0.299223 0.920846 0.250017
-1.6657 -0.766796 -0.710146 -0.198091 -0.936458 0.289492
-1.61212 -0.763987 -0.692042 0.388495 -0.917276 -0.0876152
-1.70156 -0.776469 -0.692257 0.00271539 0.979634 0.200773
-1.81136 -0.725578 -0.644502 -0.222343 0.971359 0.0838222
-1.61209 -0.676501 -0.693604 0.201685 0.978725 -0.0376843
-1.63024 -0.660542 -0.640303 -0.171024 0.970636 -0.169162
-1.88241 -0.683296 -0.518127 0.000162593 -0.997506 -0.070587
-1.8813 -0.685756 -0.515841 -0.0495889 0.996983 0.0597194
-1.84502 -0.780164 -0.621327 -0.0816193 0.978462 0.189608
-1.81292 -0.804008 -0.555887 -0.410812 0.911146 -0.0323419
-1.80288 -0.80395 -0.552484 -0.281659 -0.958164 0.0508901
-1.77373 -0.766721 -0.567543 0.0540104 0.985828 -0.158829
-1.69571 -0.763337 -0.516901 -0.0932097 0.919905 0.380901
-1.74891 -0.684957 -0.609138 -0.0495889 0.996983 0.0597194
-1.75555 -0.665199 -0.622942 -0.091722 0.995734 0.0100372
-1.60148 -0.724499 -0.580872 0.388495 -0.917276 -0.0876152
-1.66613 -0.750202 -0.620986 0.180659 -0.920176 0.34733
-1.66611 -0.660216 -0.622593 -0.091722 0.995734 0.0100372
-1.70197 -0.669888 -0.604704 -0.0284651 0.996022 0.08444
-1.7383 -0.755452 -0.496004 -0.120154 -0.989773 0.0768928
-1.69912 -0.763157 -0.506857 -0.410812 0.911146 -0.0323419
-1.66253 -0.762046 -0.444077 0.170445 0.978135 -0.119164
-1.74537 -0.721598 -0.420604 0.0496724 0.996978 -0.0597349
-1.71183 -0.721604 -0.42044 0.00417596 0.995129 -0.0984904
-3.43926 -0.892026 -0.188796 0.335536 -0.925494 -0.175718
-3.20592 -0.879946 -0.348893 0.0111497 -0.987852 -0.154999
-3.20039 -0.879748 -0.337687 0.0566339 -0.995128 -0.0807051
-3.03677 -0.877103 -0.18709 0.27878 -0.955705 -0.0943931
-3.01223 -0.876928 -0.176909 -0.0613729 -0.910455 -0.40903
-3.44081 -0.875472 -0.101877 0.335536 -0.925494 -0.175718
-2.4295 -0.877893 -0.22212 0.219385 0.967531 -0.125516
-2.29423 -0.880378 -0.219177 -0.0363251 -0.980459 0.193342
-2.29647 -0.877858 -0.218114 0.108107 0.945058 0.308511
-2.29425 -0.935369 -0.218195 0.195094 0.958023 -0.210071
-2.34781 -0.895685 -0.237057 -0.36253 -0.930095 -0.0591171
-2.38368 -0.892859 -0.219392 -0.36253 -0.930095 -0.0591171
-2.21109 -0.919425 -0.304176 0.244014 0.958671 -0.146313
-2.25794 -0.904797 -0.325912 -0.0363251 -0.980459 0.193342
-2.20436 -0.921985 -0.307451 0.108107 0.945058 0.308511
-2.26592 -0.959269 -0.295906 0.244014 0.958671 -0.146313
-2.15079 -0.936673 -0.289035 0.219385 0.967531 -0.125516
-2.072 -1.03714 -0.172797 0.161585 -0.96949 0.184334
-2.1021 -0.997416 -0.189308 -0.146082 -0.921314 0.360334
-2.09767 -0.989758 -0.180477 -0.145269 -0.971853 0.185467
-2.09745 -1.01555 -0.224745 0.161585 -0.96949 0.184334
-2.12883 -0.99777 -0.20956 -0.38404 -0.910207 -0.155035
-2.1871 -0.977243 -0.181139 -0.202405 -0.931902 0.300982
-2.24044 -0.905863 -0.245296 0.244014 0.958671 -0.146313
-2.20482 -0.977879 -0.216997 0.0560964 -0.998375 -0.0100167
-2.18665 -0.92135 -0.271593 0.195094 0.958023 -0.210071
-2.20458 -0.918687 -0.262783 0.120418 0.979007 -0.16445
-2.11315 -0.917825 -0.213148 0.0749386 0.979698 -0.185947
-2.17118 -0.918194 -0.234672 0.195094 0.958023 -0.210071
-2.16895 -0.975705 -0.234752 -0.38404 -0.910207 -0.155035
-2.13329 -0.915243 -0.208821 0.0688629 0.931152 -0.35807
-2.07971 -0.917433 -0.190627 0.244014 0.958671 -0.146313
-2.47421 -0.873853 0.0034703 -0.261217 -0.964104 -0.0476266
-2.33033 -0.916748 -0.156083 0.0749386 0.979698 -0.185947
-2.31282 -0.870321 -0.0763143 0.318253 0.947881 -0.0153673
-2.4202 -0.87514 -0.0678085 -0.261217 -0.964104 -0.0476266
-2.16188 -1.03552 -0.0838078 -0.231574 0.903551 -0.360511
-2.15191 -1.02017 -0.0639051 0.103422 0.974264 -0.200284
-2.07443 -1.03642 -0.132564 -0.0677265 -0.994687 0.0775338
-2.1873 -0.896458 -0.137854 0.142589 0.958745 -0.24592
-2.20769 -0.875479 -0.0835346 0.219385 0.967531 -0.125516
-2.25882 -0.931599 -0.146522 0.099834 0.973201 -0.207153
-2.18752 -0.883161 -0.0933626 0.0859327 0.975876 -0.200701
-2.2234 -0.935327 -0.0747153 -0.147788 -0.98746 0.055503
-2.25881 -0.886606 -0.147325 0.099834 0.973201 -0.207153
-2.28368 -0.875585 -0.0906144 0.0383019 -0.998356 0.0426436
-2.23641 -0.956798 -0.157144 -0.390277 -0.908194 -0.151217
-2.27806 -0.875686 -0.0961762 0.0647918 0.975998 -0.20792
-2.18753 -0.933153 -0.09247 -0.111036 -0.959998 0.257049
-2.13373 -0.931143 -0.119081 0.0666588 -0.996912 -0.0415047
-2.16714 -0.956632 -0.146745 -0.381787 -0.923085 0.0464008
-2.0888 -0.956945 -0.163128 0.0420409 -0.999111 -0.00306072
-2.09786 -0.901474 -0.137326 0.0259741 0.976214 -0.215249
-2.11579 -0.898811 -0.128515 -0.0448311 0.988488 -0.144505
-2.062 -0.909299 -0.154902 0.0259741 0.976214 -0.215249
-2.07994 -0.926632 -0.145734 -0.0426976 -0.996359 0.0737955
-2.1696 -0.930817 -0.101371 -0.191229 -0.977018 0.0941693
-2.15188 -0.932681 -0.0654673 0.0544723 -0.931782 0.358908
