ply
format ascii 1.0
element vertex 833
property double x
property double y
property double z
property double nx
property double ny
property double nz
end_header
0.40265 -1.19128 0.194322 -0.937385 0.0886264 -0.336831
0.380213 -1.27106 0.20682 -0.928945 0.215577 -0.300979
0.408421 -1.23197 0.15594 -0.938054 0.0808209 -0.336931
0.386539 -0.988162 0.265381 -0.933844 -0.0064673 -0.357623
0.456944 -1.07348 0.0705983 -0.928762 0.0409725 -0.368406
0.39575 -1.03044 0.2395 -0.943231 0.0179001 -0.331655
0.386504 -0.908174 0.264025 -0.929797 -0.00664158 -0.368012
0.44104 -0.952461 0.126507 -0.933387 0.0254292 -0.35797
0.384315 -1.02814 0.267165 -0.94426 0.0414108 -0.326585
0.38309 -0.947905 0.280336 -0.977018 -0.00403757 -0.213121
0.419546 -1.03161 0.174781 -0.937673 0.00984742 -0.34738
0.418406 -0.951459 0.18229 -0.935787 0.00966637 -0.352432
0.386521 -0.948168 0.264703 -0.925392 0.0168343 -0.378638
0.287147 -1.26431 0.497682 -0.949023 0.160278 -0.271415
0.34021 -1.10631 0.376738 -0.935939 0.0567661 -0.347557
0.314341 -1.23728 0.417238 -0.910498 0.214497 -0.353531
0.359471 -1.10717 0.32541 -0.895302 0.0235557 -0.444836
0.316592 -1.26558 0.421811 0.992206 0.00254396 0.124584
0.325573 -1.1474 0.410097 -0.907315 0.118671 -0.403356
0.309904 -1.26744 0.408809 -0.925649 0.0879615 -0.368018
0.457803 -1.21859 0.346041 -0.927537 0.088599 -0.363077
0.457798 -1.23859 0.346398 -0.910498 0.214497 -0.353531
0.352887 -1.22923 0.308815 -0.925649 0.0879615 -0.368018
0.466637 -1.13651 0.36222 -0.953286 0.033747 -0.300179
0.359489 -1.14717 0.326088 -0.952005 0.160356 -0.260714
0.332659 -1.30693 0.34208 -0.827662 0.411463 -0.381672
0.346196 -1.30935 0.302386 -0.924723 0.159517 -0.345604
0.325583 -1.1074 0.409383 -0.930093 0.0564501 -0.362961
0.471125 -1.14654 0.360176 -0.938495 0.0967209 -0.331469
0.334571 -1.0275 0.403527 -0.927747 0.00927978 -0.373094
0.373104 -1.06944 0.295997 -0.937385 0.0886264 -0.336831
0.332319 -1.06747 0.405348 -0.953272 0.0341489 -0.300177
0.34799 -0.986345 0.373625 -0.935939 0.0567661 -0.347557
0.364936 -0.947005 0.333905 -0.950361 0.0178873 -0.310635
0.323146 -1.06538 0.43187 -0.93975 0.0569576 -0.337085
0.362878 -1.0288 0.331004 -0.935437 0.0253573 -0.352582
0.341394 -1.06795 0.378564 -0.934482 0.0488495 -0.352644
0.359465 -1.09218 0.325156 -0.93975 0.0569576 -0.337085
0.323094 -0.945398 0.429837 -0.925392 0.0168343 -0.378638
0.304992 -1.06448 0.485439 -0.953286 0.033747 -0.300179
0.618946 -0.719169 -0.349176 -0.934006 0.0187119 -0.356766
0.561972 -0.757549 -0.194459 -0.941729 0.0189568 -0.335837
0.59927 -0.758676 -0.299406 -0.934006 0.0187119 -0.356766
0.580538 -0.718096 -0.246469 -0.947027 0.026755 -0.320037
0.57702 -0.718912 -0.23483 -0.93374 0.009654 -0.357822
0.576999 -0.798899 -0.233401 -0.935787 0.00966637 -0.352432
0.563247 -0.837528 -0.193147 -0.93605 0.0185571 -0.351378
0.584118 -0.798331 -0.263034 -0.936261 0.00286991 -0.351294
0.603816 -0.758916 -0.318394 -0.93605 0.0185571 -0.351378
0.565671 -0.838391 -0.204796 -0.933592 0.0175436 -0.357907
0.581503 -0.518784 -0.229436 -0.933592 0.0175436 -0.357907
0.581514 -0.478791 -0.23015 -0.931214 0.0329926 -0.362976
0.579267 -0.598851 -0.23249 -0.933387 0.0254292 -0.35797
0.603045 -0.438324 -0.286738 -0.94566 -0.00460403 -0.325126
0.578149 -0.638885 -0.234017 -0.93374 0.009654 -0.357822
0.639872 -0.479496 -0.393268 -0.953892 0.0269803 -0.298934
0.598543 -0.438268 -0.278929 -0.935858 0.0263924 -0.351388
0.62114 -0.438916 -0.340331 -0.947027 0.026755 -0.320037
0.572471 -0.558497 -0.213116 -0.93374 0.009654 -0.357822
0.52229 -0.676496 -0.0930648 -0.937925 0.0188355 -0.346326
0.541659 -0.757066 -0.145346 -0.924048 -0.0131558 -0.382049
0.523093 -0.796519 -0.0933357 -0.937925 0.0188355 -0.346326
0.501083 -0.755179 -0.026564 -0.948628 0.0183162 -0.315864
0.519245 -0.716146 -0.0808469 -0.961917 0.0111663 -0.273115
0.542812 -0.757195 -0.154284 -0.944963 0.0348344 -0.325317
0.519224 -0.796134 -0.0794186 -0.937524 0.01774 -0.347467
0.538493 -0.757062 -0.13146 -0.93374 0.009654 -0.357822
0.5453 -0.757422 -0.151549 -0.93374 0.009654 -0.357822
0.523114 -0.79661 -0.0989251 -0.936242 -0.0128296 -0.351123
0.504492 -0.835446 -0.0407691 -0.943025 0.0257473 -0.331724
0.486428 -0.514535 0.00708659 -0.925627 0.00138074 -0.378434
0.513567 -0.435591 -0.0523379 -0.933592 0.0175436 -0.357907
0.524343 -0.596354 -0.087658 -0.940964 0.0425791 -0.335818
0.523705 -0.556364 -0.0883143 -0.939444 0.0343468 -0.340976
0.482997 -0.514255 0.0227199 -0.937524 0.01774 -0.347467
0.535937 -0.476554 -0.113054 -0.937925 0.0188355 -0.346326
0.525759 -0.476222 -0.0829074 -0.938062 0.0109492 -0.346294
0.50681 -0.555511 -0.0468749 -0.937318 0.0256285 -0.347532
0.481858 -0.634276 0.0226212 -0.93374 0.009654 -0.357822
0.501138 -0.55521 -0.0301347 -0.935641 0.0175138 -0.352518
0.484115 -0.474222 0.024247 -0.903258 -0.0152598 -0.428827
0.544325 -0.436769 -0.134917 -0.936184 0.0107158 -0.351347
0.481868 -0.594282 0.021907 -0.93374 0.009654 -0.357822
0.528888 -0.596593 -0.106646 -0.944963 0.0348344 -0.325317
0.642066 -0.199243 -0.384423 -0.941729 0.0189568 -0.335837
0.564307 -0.277184 -0.182177 -0.938062 0.0109492 -0.346294
0.619844 -0.358845 -0.336054 -0.940024 0.0108351 -0.340936
0.604317 -0.23825 -0.28665 -0.938062 0.0109492 -0.346294
0.640816 -0.399408 -0.390101 -0.935858 0.0263924 -0.351388
0.586018 -0.198676 -0.226184 -0.933387 0.0254292 -0.35797
0.583039 -0.317765 -0.235114 -0.938062 0.0109492 -0.346294
0.579272 -0.278602 -0.221435 -0.929343 0.025227 -0.368354
0.5849 -0.23871 -0.227711 -0.933387 0.0254292 -0.35797
0.583771 -0.318737 -0.228524 -0.933592 0.0175436 -0.357907
0.584314 -0.397744 -0.233801 -0.93424 -0.00495056 -0.356611
0.556599 -0.357142 -0.170835 -0.938062 0.0109492 -0.346294
0.564524 -0.277821 -0.17791 -0.909924 -0.0229578 -0.414139
0.582653 -0.35877 -0.230051 -0.933592 0.0175436 -0.357907
0.62946 -0.118803 -0.346651 -0.938062 0.0109492 -0.346294
0.642372 -0.0791652 -0.381913 -0.925924 -0.0209461 -0.377128
0.64157 0.0408579 -0.381642 -0.93628 -0.00497902 -0.351219
0.566771 -0.157761 -0.175571 -0.933145 -0.0455628 -0.356602
0.567899 -0.0777337 -0.174758 -0.93588 -0.0138854 -0.352044
0.568456 -0.117082 -0.182542 -0.938141 0.00305832 -0.34624
0.583787 -0.158662 -0.225791 -0.938705 0.0412278 -0.342246
0.586032 -0.146184 -0.227121 0.990032 0.041557 0.134576
0.586029 -0.158683 -0.226898 -0.929548 0.0173453 -0.368293
0.587147 -0.118649 -0.225371 -0.937893 0.0568685 -0.342232
0.588265 -0.0786157 -0.223844 -0.931911 0.00162693 -0.362684
0.586979 -0.0774462 -0.223373 -0.940102 0.00298684 -0.340881
0.585068 0.0425225 -0.225342 -0.95423 0.0112992 -0.29886
0.567921 0.00225361 -0.176186 -0.937673 0.00984742 -0.34738
0.56791 -0.0377401 -0.175472 -0.939729 0.00200572 -0.341914
0.569422 -0.0370852 -0.184964 -0.938062 0.0109492 -0.346294
0.567924 0.012252 -0.176364 -0.939733 -0.0137009 -0.341634
0.570146 0.0423267 -0.172418 -0.939733 -0.0137009 -0.341634
0.603799 0.00194181 -0.278279 -0.939833 -0.0284225 -0.340449
0.58719 0.0413255 -0.228228 -0.939733 -0.0137009 -0.341634
0.587169 -0.0386618 -0.226799 -0.93588 -0.0138854 -0.352044
0.587179 0.00133187 -0.227513 -0.931911 0.00162693 -0.362684
0.527952 -0.195968 -0.0740627 -0.938141 0.00305832 -0.34624
0.507878 -0.195029 -0.0231148 -0.933592 0.0175436 -0.357907
0.506738 -0.31505 -0.0232136 -0.921129 0.0169429 -0.38889
0.490944 -0.394595 0.00273044 -0.912543 -0.00705397 -0.408921
0.527009 -0.276056 -0.0772297 -0.938062 0.0109492 -0.346294
0.495459 -0.274655 -0.00162571 -0.890352 0.0235591 -0.454662
0.504502 -0.395116 -0.0262677 -0.912282 0.0165334 -0.409228
0.526537 -0.3161 -0.0788132 -0.94522 0.0269589 -0.32532
0.527456 0.0441326 -0.071281 -0.928222 -0.0130488 -0.371797
0.547935 -0.0363832 -0.121322 -0.936242 -0.0128296 -0.351123
0.544279 -0.156533 -0.124963 -0.93773 0.0267157 -0.346337
0.509017 -0.0750082 -0.0230161 -0.912434 -0.0227792 -0.40859
0.549781 0.0432087 -0.123331 -0.952103 0.0815574 -0.2947
0.504501 0.00521951 -0.0110521 -0.863172 0.0227064 -0.504399
0.47511 -0.113698 0.0501934 -0.903258 -0.0152598 -0.428827
0.510157 0.0450125 -0.0229173 -0.933861 -0.0061315 -0.357584
0.490888 0.00594061 0.0291244 -0.912434 -0.0227792 -0.40859
0.528094 0.00414309 -0.0706247 -0.936145 -0.0206803 -0.351005
0.490877 -0.0340531 0.0298385 -0.887875 -7.46934e-05 -0.460084
0.548641 -0.076812 -0.12343 -0.931911 0.00162693 -0.362684
0.528259 -0.0758905 -0.071552 -0.932326 -0.00509285 -0.361583
0.507889 -0.155035 -0.023829 -0.921168 -0.124507 -0.368712
0.5462 -0.13652 -0.126401 -0.938062 0.0109492 -0.346294
0.510135 -0.0349748 -0.021489 -0.921129 0.0169429 -0.38889
0.38411 -0.747895 0.279189 -0.947082 0.00200535 -0.320987
0.388693 -0.788209 0.260885 -0.919999 0.0480912 -0.388958
0.441094 -0.752493 0.122936 -0.944242 0.0417823 -0.32659
0.384437 -0.709694 0.278446 -0.933387 0.0254292 -0.35797
0.441116 -0.672505 0.121508 -0.925627 0.00138074 -0.378434
0.390882 -0.668244 0.257745 -0.939257 0.064806 -0.337041
0.404792 -0.75057 0.230074 -0.948869 0.0025227 -0.315661
0.383038 -0.827922 0.278303 -0.946997 0.00985981 -0.32109
0.420701 -0.751511 0.177612 -0.935876 0.00181637 -0.352325
0.388711 -0.828203 0.261563 -0.935641 0.0171721 -0.352535
0.421912 -0.471615 0.169265 -0.913065 -0.194277 -0.358565
0.424115 -0.51153 0.174462 -0.909639 -0.211532 -0.357507
0.461503 -0.5934 0.0709934 -0.931942 -0.00622078 -0.362555
0.440074 -0.432583 0.114982 -0.937524 0.01774 -0.347467
0.443363 -0.552445 0.123848 -0.937335 -0.0375105 -0.346405
0.393107 -0.628267 0.255961 -0.939257 0.064806 -0.337041
0.380085 -0.429897 0.264483 -0.932021 -0.0691406 -0.355748
0.423008 -0.511569 0.17222 -0.939755 -0.0688045 -0.334853
0.424093 -0.591517 0.17589 -0.933387 0.0254292 -0.35797
0.462643 -0.473379 0.0710922 -0.921362 0.00119031 -0.388705
0.386673 -0.629627 0.2815 -0.932021 -0.0691406 -0.355748
0.462621 -0.553367 0.0725205 -0.937335 -0.0375105 -0.346405
0.442266 -0.512491 0.120893 -0.949388 0.0735677 -0.30537
0.391429 -0.430498 0.231002 -0.946664 -0.0368753 -0.320106
0.364312 -0.429455 0.288998 -0.925989 -0.163585 -0.340272
0.574358 -0.41148 0.207338 -0.935641 0.0171721 -0.352535
0.364028 -0.868787 0.330389 -0.946853 0.01809 -0.321157
0.357249 -0.868526 0.344888 -0.927747 0.00927978 -0.373094
0.365956 -0.746995 0.332758 -0.939718 0.00165148 -0.341945
0.331938 -0.665509 0.420666 -0.939718 0.00165148 -0.341945
0.343635 -0.667637 0.392672 -0.937673 0.00984742 -0.34738
0.341383 -0.70761 0.394493 -0.933387 0.0254292 -0.35797
0.323041 -0.825415 0.427804 -0.929797 -0.00664158 -0.368012
0.359523 -0.748565 0.341639 -0.943231 0.0179001 -0.331655
0.350144 -0.786391 0.36913 -0.953749 0.0180606 -0.300061
0.367045 -0.706962 0.334322 -0.945274 0.00196034 -0.326272
0.346678 -0.706139 0.383408 -0.92093 0.0245158 -0.388955
0.350385 -0.575213 0.3877 -0.960404 0.00313619 -0.278594
0.343646 -0.627643 0.391958 -0.909313 0.0323383 -0.414854
0.368522 -0.628666 0.335069 -0.960404 0.00313619 -0.278594
0.370758 -0.548599 0.338123 -0.925189 0.0250219 -0.37868
0.368549 -0.528682 0.333284 -0.918566 -0.0852105 -0.385973
0.36701 -0.626974 0.332966 -0.939718 0.00165148 -0.341945
0.368533 -0.588672 0.334355 -0.943378 0.0100488 -0.331566
0.372711 -0.627349 0.310636 -0.946997 0.00985981 -0.32109
0.350403 -0.507723 0.386495 -0.930076 -0.116473 -0.348414
0.340461 -0.428094 0.364897 -0.901122 -0.125512 -0.415001
0.349911 -0.506052 0.386743 -0.947414 -0.0609638 -0.314151
0.350403 -0.507723 0.386495 -0.930076 -0.116473 -0.348414
0.339206 -0.467628 0.391316 -0.871265 -0.24363 -0.426077
0.323527 -0.427492 0.39835 -0.955529 -0.107298 -0.274684
0.345986 -0.467889 0.376817 -0.890603 -0.196441 -0.410167
0.338807 -0.426448 0.362975 -0.921092 -0.20296 -0.33226
0.345466 -0.466212 0.377101 -0.925222 -0.155471 -0.346111
0.358988 -0.506502 0.359959 -0.899447 -0.312575 -0.305437
0.448167 -0.410712 0.403505 -0.877929 -0.0716554 -0.473399
0.365244 -0.46881 0.325489 -0.918566 -0.0852105 -0.385973
0.313767 -0.624615 0.473557 -0.94088 0.03335 -0.337094
0.310318 -0.584357 0.488513 -0.957273 -0.00531704 -0.289137
0.309228 -0.62439 0.486949 -0.931225 0.0326635 -0.362979
0.438928 -0.544485 0.477291 -0.955209 -0.036971 -0.293615
0.331851 -0.465537 0.417277 -0.951395 -0.0997141 -0.291385
0.312497 -0.504291 0.49164 -0.921253 -0.0227417 -0.388299
0.277704 -0.42398 0.510235 -0.936626 -0.108226 -0.333195
0.328419 -0.465274 0.432911 -0.951395 -0.0997141 -0.291385
0.317332 -0.425664 0.409821 -0.920762 -0.171711 -0.350305
0.296964 -0.424841 0.458907 -0.921092 -0.20296 -0.33226
0.447741 -0.446691 0.49357 -0.897288 -0.281066 -0.340406
0.483641 -0.526964 0.477216 0.941113 0.0376907 0.335984
0.473669 -0.504814 0.456663 -0.945579 -0.108359 -0.306822
0.375069 -0.388159 0.260749 -0.931803 -0.0222437 -0.362283
0.417538 -0.271806 0.15673 -0.927756 -0.02209 -0.372534
0.376796 -0.310035 0.255617 -0.916993 -0.0147431 -0.39863
0.377224 -0.188205 0.256254 -0.950594 -0.177555 -0.254646
0.377315 -0.398175 0.259812 -0.916866 -0.124915 -0.379148
0.436731 -0.312522 0.117295 -0.895497 0.0159196 -0.444782
0.438983 -0.272548 0.115474 -0.895497 0.0159196 -0.444782
0.359862 -0.309434 0.28907 -0.907523 -0.0386369 -0.41822
0.434467 -0.392489 0.11983 -0.887649 0.0157155 -0.460252
0.399463 0.00911126 0.2053 -0.833448 -0.166955 -0.526773
0.391549 0.00943209 0.223147 -0.90772 0.063816 -0.414695
0.419785 -0.151745 0.15907 -0.906014 -0.172561 -0.386473
0.366662 -0.029539 0.28075 -0.912282 0.0165334 -0.409228
0.444633 0.0474997 0.115377 -0.914913 0.143341 -0.377344
0.377154 -0.0282282 0.253543 -0.8529 -0.0721194 -0.51707
0.379076 -0.069994 0.255814 -0.839556 -0.00947135 -0.543191
0.41192 -0.0715371 0.169899 -0.823726 0.00583102 -0.566958
0.448036 0.0473195 0.105333 -0.900353 0.0161318 -0.434861
0.467201 0.00670348 0.0714873 -0.912434 -0.0227792 -0.40859
0.381322 0.0500664 0.258154 -0.842786 -0.0880276 -0.531001
0.362147 -0.149479 0.285106 -0.905342 0.000558992 -0.424683
0.377189 -0.108217 0.254898 -0.874321 0.00720697 -0.485295
0.314593 -0.307429 0.400635 -0.907523 -0.0386369 -0.41822
0.314577 -0.36492 0.401661 -0.913679 -0.211447 -0.347102
0.336724 -0.347105 0.323602 -0.868352 -0.0481651 -0.493604
0.319054 -0.387457 0.399849 -0.91677 -0.0304786 -0.39825
0.317054 -0.308248 0.354814 -0.921168 -0.124507 -0.368712
0.354729 -0.387431 0.304246 -0.916866 -0.124915 -0.379148
0.466089 -0.385858 0.394227 -0.921106 -0.0306147 -0.388106
0.356409 -0.389141 0.306131 -0.907523 -0.0386369 -0.41822
0.314605 -0.262436 0.399831 -0.916993 -0.0147431 -0.39863
0.332766 -0.228403 0.345638 -0.927756 -0.02209 -0.372534
0.314621 -0.204945 0.398805 -0.927756 -0.02209 -0.372534
0.313907 -0.185814 0.399031 -0.931465 -0.0773136 -0.355522
0.354677 -0.267448 0.302213 -0.882521 0.0153016 -0.470023
0.314604 -0.267435 0.399921 -0.88779 0.00782162 -0.460182
0.305649 -0.22736 0.403634 -0.900825 -0.16405 -0.401997
0.330971 -0.226746 0.343898 -0.877442 0.0072305 -0.479627
0.356463 -0.189172 0.302561 -0.97459 -0.0743987 -0.211282
0.307858 -0.347362 0.40467 -0.913679 -0.211447 -0.347102
0.465859 -0.365103 0.438603 0.999988 0.000519967 0.00493805
0.304865 -0.265352 0.427171 -0.860216 -0.00110865 -0.509929
0.246362 -0.264133 0.500662 -0.888391 -0.374593 -0.265407
0.270957 -0.184245 0.492721 -0.858039 -0.0799595 -0.507322
0.312614 -0.148233 0.354171 -0.906014 -0.172561 -0.386473
0.290625 -0.106633 0.350609 -0.890542 0.0154893 -0.454637
0.301417 -0.108137 0.358992 -0.912282 0.0165334 -0.409228
0.31463 -0.169951 0.39818 -0.927756 -0.02209 -0.372534
0.305007 -0.0861356 0.379406 -0.946834 -0.0294089 -0.320375
0.347827 -0.107228 0.314001 -0.890542 0.0154893 -0.454637
0.356474 -0.149179 0.301847 -0.912282 0.0165334 -0.409228
0.269098 0.0141346 0.395421 -0.904665 0.0318566 -0.424931
0.352275 -0.027275 0.310432 -0.874321 0.00720697 -0.485295
0.33282 -0.0284349 0.342067 0.858934 -0.0463963 0.50998
0.330884 -0.0267747 0.34051 -0.916755 0.0164531 -0.39911
0.332831 0.0115588 0.341353 -0.90772 0.063816 -0.414695
0.269097 0.0166342 0.395379 -0.801218 -0.112849 -0.587635
0.24989 -0.104987 0.448782 -0.935008 -0.279598 -0.218139
0.289076 -0.105156 0.437797 -0.964749 0.0187851 -0.262502
0.268724 -0.139328 0.487476 -0.964749 0.0187851 -0.262502
0.292243 -0.0672634 0.407419 -0.823726 0.00583102 -0.566958
0.289991 -0.107237 0.40924 -0.85368 0.0382384 -0.519393
0.286853 -0.0852358 0.432975 -0.904846 0.118932 -0.408789
0.249873 -0.0649927 0.448104 -0.776572 0.0363408 -0.62898
0.287987 -0.145189 0.436233 -0.950594 -0.177555 -0.254646
0.401746 -0.0643075 0.484627 -0.918313 0.205869 -0.33811
0.289069 -0.0252621 0.430852 -0.918313 0.205869 -0.33811
0.268663 0.000651887 0.485104 -0.844702 -0.321996 -0.427547
0.290012 -0.0272493 0.407811 -0.839556 -0.00947135 -0.543191
0.286835 -0.0427419 0.432255 -0.904846 0.118932 -0.408789
0.290023 0.0127443 0.407097 0.858934 -0.0463963 0.50998
0.179425 -1.48017 0.599209 -0.987596 -0.150568 -0.0445282
0.233441 -1.47385 0.527804 0.973952 0.0827222 0.211126
0.121119 -1.42221 0.627012 -0.939631 0.335677 -0.0664502
0.213227 -1.38371 0.53624 -0.939631 0.335677 -0.0664502
0.17897 -1.44866 0.68813 -0.920906 0.15894 -0.355908
0.22475 -1.34111 0.68877 -0.961135 -0.184535 -0.205344
0.230479 -1.34158 0.660852 -0.935621 -0.0299223 -0.351737
0.214819 -1.41395 0.669828 -0.949669 0.257304 -0.178673
0.120473 -1.45994 0.761833 0.928358 0.0617742 0.366517
0.142664 -1.45186 0.795352 -0.948859 0.00213806 -0.315692
0.187004 -1.33821 0.860739 -0.977807 -0.0589525 -0.201041
0.195085 -1.33908 0.809356 -0.95377 -0.0684387 -0.292643
0.216604 -1.37995 0.757599 0.953476 -0.232589 0.191797
0.0882071 -1.45916 0.956229 0.981329 -0.130992 0.140836
0.0527506 -1.3829 0.883196 -0.945269 0.0568825 -0.321294
0.0523038 -1.37138 0.972455 0.829843 0.00981579 0.557911
0.0841479 -1.41814 0.868294 0.981329 -0.130992 0.140836
0.146452 -1.37713 0.926054 0.953476 -0.232589 0.191797
0.219146 -1.18133 0.674853 -0.911091 -0.0939274 -0.401362
0.221443 -1.18153 0.662568 -0.958798 -0.0210085 -0.283311
0.202099 -1.18039 0.730664 -0.997348 -0.0713672 -0.0142626
0.236965 -1.30088 0.701568 -0.945269 0.0568825 -0.321294
0.228036 -1.26101 0.694139 -0.961994 -0.0129332 -0.272763
0.196494 -1.0206 0.716747 -0.902832 0.0237074 -0.429339
0.145142 -0.980957 0.696811 -0.945267 -0.0138379 -0.326005
0.228115 -1.0616 0.657214 -0.925392 0.0168343 -0.378638
0.144025 -1.0209 0.700837 -0.875729 -0.103015 -0.471686
0.142896 -0.970941 0.697749 -0.893988 0.0549491 -0.444709
0.189818 -0.940845 0.701944 -0.902832 0.0237074 -0.429339
0.196512 -1.0606 0.717424 0.991799 -0.108973 0.0667799
0.165384 -1.25706 0.928586 -0.945269 0.0568825 -0.321294
0.123927 -1.12699 0.932886 -0.960323 0.233147 -0.153041
0.158043 -1.17886 0.822113 -0.933192 -0.271523 -0.23543
0.169002 -1.17809 0.866883 -0.940642 -0.331502 -0.072796
0.164332 -1.25729 0.915166 -0.945269 0.0568825 -0.321294
0.178003 -1.25815 0.863811 -0.961135 -0.184535 -0.205344
0.189432 -1.259 0.813562 -0.91656 0.0243175 -0.399157
0.170783 -1.1366 0.954527 -0.950395 0.1293 -0.282897
0.167563 -1.177 0.931713 -0.977381 -0.167842 -0.12867
0.111111 -1.05916 0.804198 -0.993846 -0.110773 0.000485337
0.129265 -1.06006 0.750629 -0.90013 -0.0392732 -0.433848
0.1602 -1.0488 0.824393 -0.942343 0.111946 -0.315369
0.135564 -1.0986 0.837415 -0.909509 -0.164273 -0.381847
0.12766 -1.0584 0.848995 -0.915928 -0.148821 -0.372731
0.131406 -1.0198 0.765612 -0.968628 -0.114173 -0.220737
0.180502 -0.899643 0.772765 -0.954972 0.0340518 -0.294736
0.169357 -0.979638 0.774065 -0.982833 0.130894 -0.130023
0.172771 -0.939907 0.757754 -0.952151 0.0811512 -0.294659
0.157938 -0.938892 0.818047 -0.992381 -0.0494258 -0.112857
0.175259 -1.05674 0.945369 -0.960323 0.233147 -0.153041
0.177491 -1.09666 0.950529 -0.960323 0.233147 -0.153041
0.121382 -0.93624 0.975488 -0.949923 -0.0764754 -0.30298
0.155282 -0.937453 0.902993 -0.992381 -0.0494258 -0.112857
0.167476 -0.977024 0.928324 -0.968628 -0.114173 -0.220737
-0.00212055 -1.45367 1.1346 -0.826792 0.329659 -0.455785
-0.00209111 -1.52116 1.13575 0.908653 0.280744 0.309083
-0.0202722 -1.45777 1.18826 0.874178 -0.379776 0.302626
0.021568 -1.45438 1.09224 0.977391 0.152422 0.146539
0.101047 -1.45468 1.07251 -0.913143 0.142083 -0.382076
0.0877777 -1.48764 1.04617 0.939601 -0.120284 0.320438
0.104316 -1.33458 1.0772 -0.919268 0.0878075 -0.383713
0.0160125 -1.40708 1.08023 -0.913143 0.142083 -0.382076
0.0976913 -1.37481 1.06443 -0.942343 0.111946 -0.315369
0.0626289 -1.37344 1.14586 -0.856129 0.156516 -0.49249
-0.036204 -1.4119 1.23996 0.955947 0.291853 0.0314294
-0.0384456 -1.41188 1.24106 -0.826792 0.329659 -0.455785
0.149427 -1.21609 0.98596 -0.977381 -0.167842 -0.12867
0.0872513 -1.29365 1.13233 -0.942343 0.111946 -0.315369
0.110905 -1.21437 1.08862 -0.841551 -0.103749 -0.530121
0.0883234 -1.21362 1.13322 -0.779258 0.0994993 -0.618754
0.107647 -1.29457 1.07766 -0.915587 -0.0621671 -0.397284
0.136773 -1.13501 1.04938 -0.915587 -0.0621671 -0.397284
0.0624209 -1.21299 1.1711 -0.736265 -0.00394848 -0.676682
0.0331626 -1.13249 1.2009 -0.879419 -0.0947097 -0.466533
0.0331975 -1.21248 1.20226 -0.871738 0.0702253 -0.484914
0.0975343 -1.01486 1.05833 -0.889458 0.0468646 -0.454609
0.134524 -1.0551 1.04354 -0.942343 0.111946 -0.315369
0.161578 -1.09578 1.00299 -0.915587 -0.0621671 -0.397284
0.169265 -1.01543 1.02291 -0.895146 -0.380248 -0.232648
0.123416 -0.967995 1.01965 -0.889458 0.0468646 -0.454609
0.10082 -0.934754 1.0637 -0.904005 -0.171951 -0.391417
0.125633 -0.975417 1.02426 -0.760272 -0.301132 -0.575592
0.0364486 -1.05238 1.20627 -0.879419 -0.0947097 -0.466533
0.21244 -1.02393 1.11049 -0.822325 0.0847289 -0.562675
0.0385927 -0.892329 1.20804 -0.847958 0.0775601 -0.524358
0.08047 -0.973925 1.11346 -0.760272 -0.301132 -0.575592
0.0815595 -0.933893 1.11503 -0.900349 0.0158901 -0.434877
-0.0424183 -0.930547 1.31564 -0.730757 0.0273993 -0.682088
-0.0859973 -1.01052 1.31901 -0.775044 0.0677553 -0.628265
0.0149041 -0.891622 1.2504 -0.847958 0.0775601 -0.524358
0.231008 -0.461006 0.687308 -0.889469 -0.235559 -0.391609
0.207289 -0.579997 0.748472 -0.953547 0.0259066 -0.30013
0.23324 -0.500923 0.692469 -0.897528 0.268589 -0.34972
0.232168 -0.58095 0.691583 -0.922215 0.0796171 -0.378392
0.212855 -0.460106 0.740877 -0.92244 0.134917 -0.361804
0.153015 -0.817547 0.896477 -0.992381 -0.0494258 -0.112857
0.177763 -0.708232 0.854492 -0.886644 -0.125788 -0.445016
0.155139 -0.737292 0.910783 -0.953547 0.0259066 -0.30013
0.194823 -0.739166 0.79919 -0.934901 0.0724466 -0.347436
0.134796 -0.856358 0.967492 -0.949899 0.0335767 -0.310748
0.193751 -0.819193 0.798304 -0.893988 0.0549491 -0.444709
0.166603 -0.818127 0.86189 -0.952151 0.0811512 -0.294659
0.134761 -0.776369 0.966137 -0.939635 0.00950404 -0.342047
0.200288 -0.578997 0.807686 -0.970962 0.0430208 -0.235335
0.164053 -0.617381 0.904323 0.981054 0.182474 0.0650913
0.185403 -0.457998 0.865945 -0.932445 0.0487127 -0.358013
0.19695 -0.539118 0.800284 -0.953547 0.0259066 -0.30013
0.177211 -0.456753 0.939685 -0.988562 0.100357 -0.112577
0.200343 -0.579186 0.796507 -0.976987 0.0430695 -0.208903
0.139105 -0.45645 0.958501 -0.872018 0.14147 -0.468583
0.211456 -0.303236 0.554826 0.919485 -0.351413 0.176228
0.235844 -0.382378 0.605489 -0.863744 -0.118477 -0.489806
0.203569 -0.303032 0.567084 -0.916733 0.0640329 -0.394334
0.188822 -0.182507 0.597397 -0.900242 -0.180516 -0.396205
0.208017 -0.223078 0.563515 0.919485 -0.351413 0.176228
0.224722 -0.26278 0.581043 0.783727 -0.351992 0.511735
0.214369 -0.381594 0.652334 -0.889469 -0.235559 -0.391609
0.217655 -0.30149 0.657703 -0.916194 0.0718897 -0.394235
0.160315 -0.300421 0.722257 -0.741786 0.0831579 -0.66546
0.160536 -0.301179 0.677543 -0.786078 -0.0343317 -0.617174
0.198387 -0.220735 0.702086 -0.853869 0.197171 -0.481697
0.196167 -0.27071 0.70404 -0.920906 0.15894 -0.355908
0.192274 -0.102971 0.56923 -0.848911 -0.00145726 -0.528534
0.171878 -0.102054 0.623905 -0.929527 -0.0303017 -0.367508
0.189911 -0.142474 0.598961 -0.891971 -0.312813 -0.326397
0.18768 -0.102557 0.5938 -0.935387 -0.0771652 -0.345105
0.168437 -0.14169 0.645806 -0.755632 -0.254086 -0.603706
0.166205 -0.101772 0.640646 -0.929527 -0.0303017 -0.367508
0.163514 -0.0203455 0.724237 -0.949429 0.0731732 -0.305337
0.146982 -0.0611061 0.680117 -0.929675 -0.0224179 -0.367699
0.149206 -0.0211296 0.678333 -0.848911 -0.00145726 -0.528534
0.16726 0.018249 0.640854 -0.791907 0.0762929 -0.605857
0.10631 -0.331732 0.794086 0.880521 0.244141 0.406299
0.195776 -0.386678 0.795459 -0.943374 0.0096825 -0.33159
0.0811965 -0.297526 0.895139 0.963565 -0.0502524 0.26271
0.113603 -0.297452 0.898653 -0.939601 0.120284 -0.320438
0.0877131 -0.326818 0.937041 0.893177 -0.0946363 0.439635
0.0876662 -0.219333 0.93522 0.963565 -0.0502524 0.26271
0.0517978 -0.21155 0.952802 -0.971711 -0.0592792 -0.228614
0.0677399 -0.217526 0.894835 -0.954609 -0.0995003 -0.280752
0.090986 -0.216718 0.941901 0.995966 0.00195461 0.0897069
0.230689 -0.228954 0.953982 -0.966977 0.0979363 -0.235297
0.192577 -0.216154 0.972586 -0.930261 0.135371 -0.341012
0.201764 -0.216982 0.923444 -0.967813 0.178399 -0.177516
0.220446 -0.0998878 0.750467 -0.997495 -0.056351 -0.0427666
0.0811267 -0.137549 0.892428 0.971916 -0.138229 0.190455
0.123257 -0.0963772 0.96015 0.971916 -0.138229 0.190455
0.22731 -0.0965883 0.945013 -0.961436 0.0815611 -0.262658
0.208233 -0.136289 0.963483 -0.966977 0.0979363 -0.235297
0.239784 -0.017313 0.90124 -0.98933 0.0925317 -0.112531
0.167116 -0.652486 1.19343 0.933392 -0.0250941 0.357979
0.102884 -0.654622 1.06903 -0.936372 0.0489082 -0.347586
0.19618 -0.732327 1.20275 -0.725465 0.0352814 -0.687354
0.104089 -0.814656 1.06839 -0.944842 0.0256457 -0.326521
0.105213 -0.854611 1.07131 -0.939635 0.00950404 -0.342047
0.0837385 -0.853827 1.11815 -0.900349 0.0158901 -0.434877
0.104036 -0.694673 1.06636 -0.945702 0.049065 -0.32131
0.102964 -0.7747 1.06547 -0.961297 0.0343769 -0.273361
0.211865 -0.717454 1.19475 -0.933392 0.0250941 -0.357979
0.106198 -0.574613 1.06881 -0.890326 -0.0395101 -0.453607
0.12769 -0.615392 1.02264 -0.932819 0.0408477 -0.358024
0.105054 -0.489663 1.06513 -0.899875 -0.04714 -0.433593
0.136403 -0.414923 1.04836 -0.872018 0.14147 -0.468583
0.0665696 -0.572929 1.16922 -0.91228 0.0162599 -0.409245
0.211827 -0.629966 1.19327 -0.884589 0.0783942 -0.459736
0.167081 -0.572498 1.19208 -0.884589 0.0783942 -0.459736
0.0776974 -0.45294 1.16724 0.948112 0.293289 0.122741
0.104358 -0.412401 1.198 -0.989778 -0.141402 0.0185612
0.0902058 -0.453653 1.12483 0.910599 0.27347 0.309877
0.1983 -0.452385 1.1969 0.970674 0.153154 0.185301
0.180589 -0.453 1.16104 -0.977522 0.146517 -0.151605
0.135757 -0.452645 1.18318 0.948112 0.293289 0.122741
0.175914 -0.519697 1.20912 -0.884589 0.0783942 -0.459736
0.147103 -0.453207 1.1497 -0.931526 0.0644116 -0.357924
-0.0088194 -0.810926 1.29141 -0.868093 0.0385257 -0.494904
-0.0369431 -0.730478 1.31786 -0.725465 0.0352814 -0.687354
-0.0391498 -0.810449 1.32033 -0.847958 0.0775601 -0.524358
-0.00774733 -0.730899 1.2923 -0.882655 0.00742131 -0.469963
0.0260247 -0.691739 1.24148 0.997563 0.0308984 -0.0625528
0.171284 -0.69138 1.25897 0.933392 -0.0250941 0.357979
0.0407717 -0.812264 1.21117 -0.900349 0.0158901 -0.434877
0.0260422 -0.731734 1.24216 -0.886644 -0.125788 -0.445016
-0.0315406 -0.490225 1.33059 -0.884589 0.0783942 -0.459736
0.157772 -0.546294 1.26315 0.943357 -0.175448 0.281594
0.137609 -0.57113 1.27354 0.943357 -0.175448 0.281594
0.169008 -0.611373 1.25872 0.933392 -0.0250941 0.357979
0.193409 -0.530823 1.2899 0.970674 0.153154 0.185301
0.0974946 -0.411875 1.22927 -0.977522 0.146517 -0.151605
0.0538808 -0.411859 1.23129 -0.724252 -0.114534 -0.679956
0.0528364 -0.491981 1.22481 0.947107 0.00585021 0.320863
0.229454 -0.436878 1.22587 -0.724252 -0.114534 -0.679956
0.119455 -0.57023 1.3271 0.797022 0.01058 0.603857
0.101231 -0.409353 1.37796 0.900242 0.180516 0.396205
0.112567 -0.449815 1.35075 0.947107 0.00585021 0.320863
0.119402 -0.450247 1.32507 0.976494 -0.211774 0.0401534
0.11255 -0.409821 1.35007 0.903524 0.0706027 0.422681
-0.220916 -0.289178 1.39558 -0.822535 -0.064914 -0.564997
-0.0196734 -0.2929 1.17076 -0.971847 0.129753 -0.196667
-0.0026636 -0.20885 1.11351 0.963565 -0.0502524 0.26271
-0.018549 -0.332856 1.17368 -0.929202 0.143069 -0.340756
-0.0030766 -0.274825 1.20408 -0.972068 0.16961 -0.162226
-0.0207978 -0.252944 1.16784 -0.930261 0.135371 -0.341012
0.0314672 -0.295714 1.00333 0.893177 -0.0946363 0.439635
0.225848 -0.295083 1.03559 -0.949429 0.0731732 -0.305337
0.15899 -0.300875 0.990628 -0.822682 0.44259 -0.356802
0.164098 -0.334162 1.09186 0.842838 0.283781 0.457267
0.136351 -0.29494 1.04633 -0.951861 -0.169927 -0.255117
0.0515788 -0.215791 0.997601 0.963565 -0.0502524 0.26271
0.194381 -0.227154 1.06112 -0.954923 -0.284657 -0.0842207
0.149562 -0.254295 1.08372 0.971792 0.14545 0.185648
0.0686941 -0.367881 1.17023 -0.989778 -0.141402 0.0185612
0.0216058 -0.332513 1.19288 -0.929202 0.143069 -0.340756
0.064251 -0.33304 1.16067 -0.989778 -0.141402 0.0185612
0.180536 -0.333017 1.15901 -0.929202 0.143069 -0.340756
0.222905 -0.332597 1.1827 -0.972068 0.16961 -0.162226
0.140401 -0.315957 1.13392 -0.816264 0.0842952 -0.571496
0.0150576 -0.230732 1.14975 -0.906116 -0.372016 -0.201389
0.198195 -0.212419 1.19284 0.974529 0.0748966 0.211384
0.165014 -0.213667 1.12001 -0.931359 0.247864 -0.266708
0.229793 -0.200927 1.13242 -0.998824 0.0316413 0.0367244
0.18276 -0.293041 1.15723 -0.816264 0.0842952 -0.571496
-0.00321509 0.0426294 1.1987 -0.924608 -0.194283 -0.327649
-0.020885 -0.0529724 1.16445 -0.97569 -0.00413858 -0.219116
-0.00320092 0.0101341 1.19925 -0.995341 -0.00206759 -0.0963906
0.0869491 -0.0945776 1.06729 0.916909 0.358674 0.175015
0.0102932 -0.092458 1.19435 -0.987376 0.157051 0.0205638
0.198178 -0.172425 1.19216 0.974529 0.0748966 0.211384
0.175733 -0.104757 1.20208 0.899909 -0.0316378 0.434928
0.193886 -0.105656 1.14852 -0.822834 -0.0966472 -0.560003
0.176172 -0.0987728 1.11253 -0.995341 -0.00206759 -0.0963906
0.20283 -0.0532349 1.1432 -0.905989 0.0870314 -0.414258
0.229718 -0.0284518 1.12949 -0.987523 0.0362984 -0.153233
0.171264 -0.0124236 1.19155 0.978542 0.0432408 0.201458
0.155978 -0.0536192 1.12173 -0.954935 0.16902 -0.243989
-0.0389723 -0.204551 1.2206 -0.931359 0.247864 -0.266708
-0.0929705 -0.25086 1.29269 -0.931359 0.247864 -0.266708
-0.092988 -0.210866 1.29201 0.989301 -0.0524113 0.13615
-0.218667 -0.36909 1.40142 -0.822535 -0.064914 -0.564997
-0.0398081 -0.314004 1.40137 0.908964 0.117301 0.40003
-0.15031 -0.249791 1.35724 0.869014 0.0166488 0.494507
-0.0981348 -0.208557 1.42837 0.869014 0.0166488 0.494507
0.193503 -0.239122 1.24023 -0.984048 -0.173257 0.0403935
0.204716 -0.251709 1.23491 -0.984048 -0.173257 0.0403935
0.19348 -0.186629 1.23934 -0.984048 -0.173257 0.0403935
-0.123336 -0.170395 1.32025 0.914268 0.335015 0.227771
-0.0930229 -0.130877 1.29065 0.93707 0.218075 0.27266
-0.0638169 -0.0913979 1.25882 0.822207 -0.0528449 0.566731
-0.0412178 -0.132138 1.21489 -0.973227 0.227884 0.0299675
-0.0504156 -0.171209 1.2703 -0.931359 0.247864 -0.266708
-0.0886095 0.0290647 1.28573 0.901275 0.101864 0.421102
-0.0390563 -0.0120783 1.21734 -0.987376 0.157051 0.0205638
-0.0857515 -0.049104 1.39442 0.916723 -0.246013 0.314797
-0.0959805 -0.00860354 1.42387 0.950944 0.224828 0.212505
-0.0419615 -0.00978777 1.35259 -0.833532 0.00599108 -0.552439
0.0178935 -0.131615 1.24425 -0.931359 0.247864 -0.266708
0.15758 -0.106356 1.2557 0.989301 -0.0524113 0.13615
0.145379 -0.0517873 1.23011 -0.987376 0.157051 0.0205638
0.168286 0.0300507 1.3373 -0.989778 -0.141402 0.0185612
-0.0804583 -0.127953 1.46287 0.854212 -0.0223652 0.519443
-0.102816 -0.00817142 1.44955 0.825859 0.237674 0.511339
0.323979 -1.38005 0.749186 -0.931266 0.127647 -0.341248
0.262165 -1.34287 0.583874 -0.920642 -0.0463448 -0.387646
0.313196 -1.34148 0.664614 -0.970586 0.122015 -0.207543
0.285854 -1.34358 0.541511 -0.962636 0.113409 -0.245907
0.253159 -1.49857 0.839182 0.953476 -0.232589 0.191797
0.267497 -1.37809 0.866286 -0.928406 0.0485112 -0.368386
0.250752 -1.06254 0.601432 -0.935865 0.00147434 -0.352356
0.241838 -1.18245 0.607892 -0.929348 0.0249042 -0.368363
0.321702 -1.30004 0.748938 -0.945269 0.0568825 -0.321294
0.308218 -1.21995 0.754223 -0.961135 -0.184535 -0.205344
0.292544 -1.25982 0.762649 -0.942343 0.111946 -0.315369
0.298235 -1.30009 0.746586 -0.957097 -0.15429 -0.245276
0.303775 -1.3124 0.758004 -0.91656 0.0243175 -0.399157
0.334542 -1.30189 0.639448 -0.876062 0.149608 -0.458402
0.264306 -1.30261 0.598857 -0.888706 0.388714 -0.243112
0.244926 -0.901996 0.632229 -0.927493 0.0642026 -0.368287
0.260884 -0.942967 0.574855 -0.902832 0.0237074 -0.429339
0.285662 -0.903642 0.534056 -0.957162 0.0103842 -0.289367
0.26858 -0.822715 0.588511 -0.946855 0.0177117 -0.321173
0.280009 -0.823562 0.538262 -0.924939 0.032583 -0.378717
0.279974 -0.743573 0.536907 -0.939257 0.064806 -0.337041
0.241169 -0.66101 0.688511 -0.952153 0.0572212 -0.300218
0.241477 -0.861739 0.647185 -0.924939 0.032583 -0.378717
0.283378 -0.743742 0.526863 -0.919999 0.0480912 -0.388958
0.256946 -0.541625 0.650783 -0.921092 -0.20296 -0.33226
0.293271 -0.583419 0.544323 -0.941788 0.0806502 -0.326391
0.392854 -0.479971 0.744341 -0.957148 -0.021017 -0.288835
0.347017 -0.460036 0.74154 -0.972001 -0.0123143 -0.234654
0.258443 -0.423119 0.561563 -0.923349 0.0639859 -0.378594
0.25366 -0.621729 0.645415 -0.939257 0.064806 -0.337041
0.285698 -0.475634 0.707954 -0.897528 0.268589 -0.34972
0.272426 -0.501092 0.681483 -0.890676 0.00763222 -0.454574
0.278403 -0.502415 0.60326 -0.91415 -0.109453 -0.390319
0.268493 -0.622744 0.585122 -0.899447 -0.312575 -0.305437
0.374381 -0.760016 0.892125 -0.970484 0.0112409 -0.240901
0.374361 -0.715023 0.891363 -0.952151 0.0811512 -0.294659
0.29612 -0.69766 0.88509 0.981054 0.182474 0.0650913
0.392483 -0.643433 0.836565 0.981054 0.182474 0.0650913
0.362567 -0.57948 0.77495 -0.952153 0.0572212 -0.300218
0.385796 -0.538678 0.821339 -0.936034 0.346134 -0.0634933
0.374766 -0.63155 0.800493 -0.932445 0.0487127 -0.358013
0.380296 -0.618859 0.811488 0.981054 0.182474 0.0650913
0.381333 -0.458844 0.811018 -0.92244 0.134917 -0.361804
0.392393 -0.435962 0.83305 -0.92244 0.134917 -0.361804
0.369579 -0.536755 0.935283 -0.932445 0.0487127 -0.358013
0.253963 -0.303289 0.550565 0.783727 -0.351992 0.511735
0.380176 -0.222932 0.567719 -0.943232 0.017534 -0.331672
0.35775 -0.200258 0.578406 -0.931465 -0.0773136 -0.355522
0.255142 -0.343435 0.542305 -0.931465 -0.0773136 -0.355522
0.375873 -0.131167 0.523651 -0.964749 0.0187851 -0.262502
0.247403 0.019503 0.712794 -0.952153 0.0572212 -0.300218
0.24858 -0.140436 0.717746 -0.873263 0.181413 -0.452218
0.248563 -0.100441 0.717069 -0.919684 0.166591 -0.355567
0.255358 -0.256646 0.942273 -0.79141 0.146791 -0.593399
0.265623 -0.121223 1.11335 -0.877821 -0.13415 -0.45982
0.294392 -0.092727 1.17116 -0.877821 -0.13415 -0.45982
0.232772 0.0584281 0.501839 -0.882727 -0.0162282 -0.469606
0.231632 0.135879 0.498285 -0.933721 -0.0222515 -0.35731
0.225979 0.215959 0.502491 -0.765813 -0.0427621 -0.64164
0.230455 0.295817 0.493333 -0.905246 0.00819772 -0.424808
0.23761 0.434744 0.474714 -0.906044 0.119789 -0.405875
0.928571 0.233229 -1.12839 -0.898977 -0.00584031 -0.437957
0.90582 0.11316 -1.10862 -0.845469 -0.0380202 -0.53267
0.922488 0.193187 -1.1244 -0.830312 0.0170484 -0.557038
0.957066 0.0726956 -1.18604 -0.898977 -0.00584031 -0.437957
0.983144 0.192929 -1.19908 -0.808498 0.0961027 -0.580599
0.989886 0.19289 -1.208 -0.955087 0.106252 -0.276622
1.01131 0.192462 -1.25487 -0.965271 0.00398583 -0.261222
1.00815 0.112265 -1.26252 -0.892075 -0.0999652 -0.440692
0.998844 0.0716027 -1.2932 -0.973868 0.15566 -0.165379
0.964499 0.233144 -1.1685 -0.934749 0.0815853 -0.345815
0.920267 0.473132 -1.13011 -0.883144 -0.0217654 -0.468596
0.904049 0.43324 -1.10715 -0.936145 -0.0206803 -0.351005
0.904366 0.413247 -1.10682 -0.851869 -0.21073 -0.479492
1.01383 0.312648 -1.24788 -0.992055 -0.0257061 -0.123147
0.989237 0.372952 -1.20647 -0.788394 0.0404558 -0.613839
1.00139 0.313055 -1.21104 -0.906512 -0.155048 -0.392679
1.02638 0.311785 -1.31268 -0.992055 -0.0257061 -0.123147
0.9867 0.392837 -1.21128 -0.890607 0.143909 -0.431404
0.986379 0.412835 -1.21161 -0.852231 0.0799649 -0.517018
1.00305 0.432181 -1.26777 -0.906512 -0.155048 -0.392679
1.02459 0.424258 -1.31452 -0.907363 -0.178134 -0.380738
1.02811 0.411925 -1.3076 -0.907363 -0.178134 -0.380738
1.02447 0.431754 -1.31465 -0.993928 -0.0298687 0.105901
0.976231 0.492379 -1.23084 -0.927219 -0.0837846 -0.365029
1.02703 0.411779 -1.31543 -0.948253 -0.230968 -0.217878
1.00221 0.412318 -1.2585 -0.887896 -0.0374749 -0.458515
0.98878 0.491515 -1.29563 -0.969313 0.0752679 -0.234023
0.990591 0.287974 -1.20508 -0.790333 -0.117213 -0.601361
0.991774 0.353066 -1.20167 -0.771495 -0.014866 -0.636061
0.934662 0.413255 -1.13578 -0.823394 -0.0538474 -0.56491
0.960521 0.413045 -1.17369 -0.823394 -0.0538474 -0.56491
1.15688 0.497176 -1.11393 0.786146 0.172325 0.59353
0.873032 0.193534 -1.05527 -0.845469 -0.0380202 -0.53267
0.844244 0.154596 -0.961938 -0.94375 0.0109531 -0.330478
0.820351 0.235314 -0.896259 -0.932326 -0.00509285 -0.361583
0.843441 0.274619 -0.961667 -0.950823 -0.0202261 -0.309074
0.852369 0.0741212 -0.997491 -0.921788 0.00258579 -0.387685
0.861394 0.073917 -1.0187 -0.820476 0.00911671 -0.571608
0.856212 0.114146 -1.00037 -0.911597 0.105344 -0.397359
0.819385 0.155318 -0.893837 -0.93424 -0.00495056 -0.356611
0.841209 0.414585 -0.963963 -0.947361 0.0110699 -0.319977
0.823114 0.415177 -0.91037 -0.940083 -0.0127174 -0.340707
0.836862 0.474678 -0.9549 -0.954064 -0.0673411 -0.291936
0.855594 0.434097 -1.00784 -0.89623 -0.00581322 -0.443551
0.839934 0.494565 -0.965276 -0.91046 0.00241564 -0.413589
0.841529 0.394588 -0.963636 -0.954064 -0.0673411 -0.291936
0.860884 0.454093 -1.01373 -0.927849 0.0261349 -0.37204
0.854956 0.474087 -1.00849 -0.858264 -0.139847 -0.493788
0.860095 0.434041 -1.01565 -0.7804 -0.0776485 -0.620441
0.878827 0.39346 -1.06858 -0.788394 0.0404558 -0.613839
0.85591 0.414105 -1.00751 -0.927849 0.0261349 -0.37204
0.860412 0.414049 -1.01532 -0.909973 -0.0370923 -0.413005
0.903563 0.533271 -1.10655 -0.927219 -0.0837846 -0.365029
0.930366 0.613148 -1.1413 -0.753657 0.317446 -0.575525
0.903232 0.693338 -1.1047 -0.874466 -0.0376872 -0.483621
0.919629 0.513121 -1.13076 -0.858264 -0.139847 -0.493788
0.910235 0.692202 -1.18069 -0.839617 -0.357983 -0.408524
0.917416 0.531639 -1.21941 -0.907119 0.105123 -0.407534
0.935337 0.531779 -1.22829 -0.909973 -0.0370923 -0.413005
0.98146 0.512643 -1.21997 -0.934749 0.0815853 -0.345815
0.984057 0.697869 -1.21181 0.786146 0.172325 0.59353
0.967067 0.649511 -1.24686 -0.941948 0.0031758 -0.335745
1.00191 0.712274 -1.26565 -0.930167 -0.0129535 -0.366909
0.964605 0.51274 -1.19767 -0.9542 -0.0201063 -0.298492
0.989848 0.613109 -1.20145 -0.90837 -0.013478 -0.417951
0.996031 0.573392 -1.1896 -0.91046 0.00241564 -0.413589
0.957169 0.693026 -1.17605 -0.753657 0.317446 -0.575525
0.987464 0.693034 -1.205 -0.966631 -0.0588765 -0.249315
0.906742 0.772072 -1.18648 -0.753295 0.182129 -0.631962
1.00015 0.812979 -1.22257 -0.956003 -0.199634 -0.214951
0.976679 0.812567 -1.22489 -0.782989 0.214168 -0.584004
1.15838 0.854942 -1.25731 -0.949853 -0.0516174 -0.308406
1.1384 0.854053 -1.29203 -0.974172 -0.0820322 -0.210381
1.0832 0.812895 -1.30835 -0.986761 0.132206 -0.0939399
1.15263 0.934886 -1.2564 -0.975825 -0.0896293 -0.199329
1.10704 0.933111 -1.32028 0.938672 -0.145425 0.312645
1.0772 0.814542 -1.20217 -0.935293 0.344838 -0.0794647
1.00361 0.933951 -1.16863 -0.782989 0.214168 -0.584004
1.12417 0.882903 -1.1964 -0.79709 -0.0856143 -0.597761
0.878483 0.693602 -1.06455 -0.962291 -0.011904 -0.271762
0.858807 0.654095 -1.01478 -0.753657 0.317446 -0.575525
0.840513 0.667183 -0.961387 -0.952555 -0.0201655 -0.303698
0.839617 0.514557 -0.965605 -0.947461 -0.00463349 -0.319838
0.820049 0.535274 -0.9034 -0.947361 0.0110699 -0.319977
0.823583 0.735274 -0.910011 -0.936261 0.00286991 -0.351294
0.877539 0.613514 -1.06771 -0.740692 -0.179799 -0.647339
0.878176 0.573525 -1.06706 -0.753657 0.317446 -0.575525
0.859751 0.734183 -1.01161 -0.936261 0.00286991 -0.351294
0.833984 0.51465 -0.954446 -0.957554 -0.0121333 -0.287999
0.858821 0.51402 -1.01696 -0.9542 -0.0201063 -0.298492
0.819412 0.575263 -0.904056 -0.972996 0.0278838 -0.229133
0.859444 0.614105 -1.01412 -0.945622 -0.0125027 -0.325027
0.860081 0.574116 -1.01346 -0.947027 0.026755 -0.320037
0.878813 0.533535 -1.0664 -0.941948 0.0031758 -0.335745
0.854319 0.514076 -1.00915 -0.936145 -0.0206803 -0.351005
0.822632 0.515202 -0.909772 -0.898977 -0.00584031 -0.437957
0.81974 0.695249 -0.907135 -0.930206 -0.00506469 -0.367004
0.820399 0.655168 -0.912068 -0.930186 0.00282249 -0.367077
0.840075 0.694676 -0.961838 -0.95759 -0.00428281 -0.288102
0.861166 0.854315 -1.00686 -0.957304 -0.0278335 -0.287742
0.860223 0.774227 -1.01002 -0.936261 0.00286991 -0.351294
0.80966 0.895876 -0.862372 -0.950956 -0.00451711 -0.309293
0.700596 0.15938 -0.530952 -0.941969 -0.00472019 -0.335668
0.679646 0.199852 -0.482494 -0.950854 0.0111852 -0.309436
0.660608 0.120355 -0.432068 -0.945638 0.00329292 -0.325205
0.659971 0.160344 -0.432724 -0.932287 -0.01294 -0.361487
0.670786 0.120022 -0.462214 -0.938062 0.0109492 -0.346294
0.700125 0.119336 -0.532535 -0.924071 0.00251767 -0.382212
0.659168 0.280367 -0.432453 -0.938027 -0.0206273 -0.345948
0.677403 0.479887 -0.482609 -0.923952 -0.0209935 -0.381932
0.697882 0.399372 -0.53265 -0.92606 -0.00517807 -0.37734
0.698047 0.319338 -0.533577 -0.932326 -0.00509285 -0.361583
0.694017 0.359438 -0.524185 -0.92606 -0.00517807 -0.37734
0.670805 0.399984 -0.469028 -0.936242 -0.0128296 -0.351123
0.697245 0.439361 -0.533306 -0.923952 -0.0209935 -0.381932
0.649196 0.480537 -0.415637 -0.941679 -0.0284123 -0.335311
0.657879 0.500422 -0.431583 -0.941969 -0.00472019 -0.335668
0.697561 0.419369 -0.532977 -0.921788 0.00258579 -0.387685
0.657728 0.44038 -0.432839 -0.938123 -0.0127314 -0.346067
0.670485 0.419982 -0.469355 -0.93628 -0.00497902 -0.351219
0.657256 0.400336 -0.434422 -0.943829 0.00310347 -0.330421
0.649505 0.320561 -0.411903 -0.938027 -0.0206273 -0.345948
0.659154 0.420442 -0.43027 -0.952583 0.0114187 -0.304065
0.690819 0.419408 -0.524058 -0.938161 -0.00483571 -0.346164
0.753771 0.157552 -0.693972 -0.949211 0.00340965 -0.314622
0.790125 0.0763361 -0.802085 -0.960907 0.0510758 -0.272121
0.737257 0.198241 -0.636555 -0.950716 0.0190303 -0.309479
0.808055 0.155778 -0.854751 -0.947461 -0.00463349 -0.319838
0.755187 0.277684 -0.689221 -0.949129 0.0113034 -0.314683
0.74861 0.197689 -0.681229 -0.950934 0.00333561 -0.309374
0.735842 0.0781095 -0.641305 -0.949129 0.0113034 -0.314683
0.808361 0.275856 -0.852241 -0.943849 -0.00474929 -0.330343
0.802894 0.195916 -0.842009 -0.94375 0.0109531 -0.330478
0.746042 0.0776856 -0.677041 -0.950854 0.0111852 -0.309436
0.771394 0.116917 -0.749148 -0.94744 0.00321974 -0.319917
0.783834 0.11651 -0.785994 -0.947361 0.0110699 -0.319977
0.736455 0.318265 -0.636284 -0.947461 -0.00463349 -0.319838
0.73486 0.418241 -0.637924 -0.94744 0.00321974 -0.319917
0.772158 0.417113 -0.742871 -0.95589 -0.0200437 -0.293041
0.788034 0.416413 -0.800944 -0.962291 -0.011904 -0.271762
0.752789 0.497684 -0.69059 -0.934006 0.0187119 -0.356766
0.751178 0.317693 -0.685418 -0.947328 -0.0203434 -0.319619
0.806129 0.415822 -0.854537 -0.939987 -0.0205706 -0.340589
0.802913 0.475878 -0.848823 -0.945638 0.00329292 -0.325205
0.754384 0.397707 -0.68895 -0.952651 -0.0122676 -0.303819
0.771369 0.397061 -0.744783 -0.950854 0.0111852 -0.309436
0.772007 0.357072 -0.744127 -0.955986 -0.0121479 -0.293162
0.732775 0.47826 -0.63556 -0.943811 -0.0126037 -0.330244
0.751506 0.437679 -0.688497 -0.939987 -0.0205706 -0.340589
0.801627 0.415879 -0.846728 -0.94744 0.00321974 -0.319917
0.751823 0.417687 -0.688168 -0.947424 -0.0124884 -0.319738
0.788992 0.356426 -0.79996 -0.938123 -0.0127314 -0.346067
0.769918 0.417096 -0.741761 -0.95589 -0.0200437 -0.293041
0.789629 0.316437 -0.799304 -0.938123 -0.0127314 -0.346067
0.735652 0.438288 -0.636013 -0.949233 -0.00448729 -0.314542
0.735015 0.478277 -0.636669 -0.950919 -0.0123715 -0.309193
0.719328 0.118799 -0.583889 -0.943849 -0.00474929 -0.330343
0.713695 0.118892 -0.57273 -0.943849 -0.00474929 -0.330343
0.717086 0.398835 -0.584003 -0.943849 -0.00474929 -0.330343
0.716765 0.418832 -0.584331 -0.937658 -0.0364137 -0.345646
0.713394 0.418852 -0.579871 -0.937658 -0.0364137 -0.345646
0.717723 0.358845 -0.583347 -0.947461 -0.00463349 -0.319838
0.651978 0.940361 -0.436562 -0.935991 -0.0285297 -0.350865
0.655471 0.860491 -0.43077 -0.934105 -0.0207363 -0.356396
0.670832 0.81993 -0.479248 -0.924577 -0.0603178 -0.376189
0.657218 0.820556 -0.427874 -0.943849 -0.00474929 -0.330343
0.691468 0.519397 -0.52681 -0.939833 -0.0284225 -0.340449
0.676115 0.699942 -0.481738 -0.925924 -0.0209461 -0.377128
0.695649 0.539338 -0.534946 -0.933812 0.0265892 -0.356774
0.648559 0.520526 -0.416294 -0.936145 -0.0206803 -0.351005
0.657077 0.620445 -0.431312 -0.941931 -0.0126178 -0.33557
0.697079 0.519395 -0.532379 -0.941931 -0.0126178 -0.33557
0.69051 0.579384 -0.527793 -0.928244 0.00263528 -0.371963
0.676766 0.519877 -0.483265 -0.938123 -0.0127314 -0.346067
0.671133 0.51997 -0.472107 -0.930206 -0.00506469 -0.367004
0.66668 0.939881 -0.480107 -0.924048 -0.0131558 -0.382049
0.657562 0.520414 -0.431912 -0.92606 -0.00517807 -0.37734
0.771212 0.617079 -0.747262 -0.949211 0.00340965 -0.314622
0.805646 0.515848 -0.853939 -0.950823 -0.0202261 -0.309074
0.802275 0.515867 -0.849479 -0.947328 -0.0203434 -0.319619
0.787552 0.516439 -0.800345 -0.947328 -0.0203434 -0.319619
0.80627 0.615933 -0.851099 -0.943348 -0.0361622 -0.329827
0.784826 0.616452 -0.798636 -0.949211 0.00340965 -0.314622
0.784181 0.516458 -0.795886 -0.94696 -0.0360484 -0.319322
0.786901 0.696504 -0.798818 -0.945557 0.0111867 -0.325263
0.785791 0.696449 -0.801058 -0.959235 -0.00413396 -0.282578
0.789634 0.736474 -0.803934 -0.930206 -0.00506469 -0.367004
0.803886 0.695858 -0.854651 -0.960691 -0.0120121 -0.277359
0.753581 0.51773 -0.688679 -0.965271 0.00398583 -0.261222
0.77119 0.61717 -0.741673 -0.952555 -0.0201655 -0.303698
0.752472 0.517676 -0.690919 -0.949233 -0.00448729 -0.314542
0.734377 0.518267 -0.637326 -0.93605 0.0185571 -0.351378
0.768326 0.517067 -0.743402 -0.94696 -0.0360484 -0.319322
0.734377 0.518267 -0.637326 -0.947361 0.0110699 -0.319977
0.770387 0.737193 -0.741402 -0.941948 0.0031758 -0.335745
0.769915 0.697149 -0.742985 -0.965042 0.019739 -0.261351
0.749602 0.697631 -0.693871 -0.945557 0.0111867 -0.325263
0.73087 0.738212 -0.640935 -0.957568 0.003566 -0.288186
0.731189 0.718217 -0.640606 -0.938123 -0.0127314 -0.346067
0.769584 0.857216 -0.741131 -0.937872 -0.0285219 -0.345808
0.809332 0.77589 -0.859293 -0.965259 -0.0117801 -0.261028
0.753773 0.857642 -0.699826 -0.930206 -0.00506469 -0.367004
0.770222 0.817227 -0.740475 -0.930206 -0.00506469 -0.367004
0.714369 0.638829 -0.5857 -0.941834 -0.0205157 -0.335451
0.71405 0.658824 -0.586029 -0.941834 -0.0205157 -0.335451
0.716283 0.518858 -0.583732 -0.945638 0.00329292 -0.325205
0.713085 0.578828 -0.583606 -0.941969 -0.00472019 -0.335668
0.708933 0.698779 -0.584465 -0.941969 -0.00472019 -0.335668
0.714043 0.51884 -0.582623 -0.936145 -0.0206803 -0.351005
0.710699 0.938805 -0.588383 -0.918504 -0.146609 -0.367229
1.16632 0.467254 -1.11787 -0.950919 -0.0123715 -0.309193
1.16362 0.497137 -1.12284 0.786146 0.172325 0.59353
0.92463 0.973054 -1.14721 -0.958457 -0.043585 -0.281887
0.917809 1.05276 -1.15972 -0.90958 -0.327077 -0.256292
0.930317 1.17344 -1.13257 -0.966002 0.122621 -0.227607
0.978839 1.02528 -1.21718 -0.950956 -0.00451711 -0.309293
0.945784 1.01106 -1.28976 -0.96665 0.0752215 -0.244806
0.960614 1.05441 -1.25351 -0.96665 0.0752215 -0.244806
1.15948 1.05575 -1.2125 0.748441 0.156328 0.644513
0.948924 1.09135 -1.27652 -0.808053 0.0719219 -0.584703
1.04954 1.0673 -1.16392 0.73581 0.180275 0.652752
0.940209 1.19996 -1.20229 -0.91814 0.303588 -0.254664
0.949686 1.09287 -1.18485 -0.90958 -0.327077 -0.256292
1.123 1.09546 -1.1954 0.748441 0.156328 0.644513
1.06926 1.09495 -1.17436 0.73581 0.180275 0.652752
0.779417 1.20827 -1.30146 -0.966002 0.122621 -0.227607
0.796876 1.13574 -0.861871 -0.897165 -0.294739 -0.328974
