ply
format ascii 1.0
element vertex 867
property double x
property double y
property double z
property double nx
property double ny
property double nz
end_header
-4.90515 -0.144047 -1.73124 0.943244 0.029217 0.330814
-4.92443 -0.143025 -1.67432 0.947123 0.00547152 0.320825
-4.88702 -0.144909 -1.77922 0.950169 0.0366843 0.30957
-4.92551 -0.0230842 -1.67871 0.94701 0.0211799 0.320505
-4.96628 0.0188731 -1.57007 0.9489 0.00537648 0.31553
-4.9266 0.0168697 -1.68166 0.94701 0.0211799 0.320505
-4.96291 0.0187927 -1.57453 0.941613 0.00575557 0.336649
-4.94368 -0.10211 -1.62371 0.939733 0.0137009 0.341634
-4.98002 -0.220168 -1.51443 0.93976 0.00584778 0.341785
-5.02895 -0.257079 -1.3418 0.94943 0.0839073 0.302559
-4.97781 -0.260082 -1.50923 0.95215 0.0915095 0.291609
-5.01632 -0.218245 -1.40729 0.949907 0.0445231 0.309344
-5.00263 -0.139179 -1.46008 0.9489 0.00537648 0.31553
-5.03445 -0.137296 -1.35515 0.949907 0.0445231 0.309344
-5.02078 -0.138217 -1.40651 0.941151 0.03733 0.335917
-4.99925 -0.139259 -1.46453 0.946664 0.0368753 0.320106
-4.9867 -0.0601324 -1.51397 0.941613 0.00575557 0.336649
-3.85737 1.18364 -4.14655 0.858483 -0.00240471 0.512836
-3.88878 1.1835 -4.11984 0.838414 0.366141 0.403735
-3.90003 1.18355 -4.10312 0.955387 0.238974 0.173572
-4.38762 0.30972 -3.40614 0.870641 0.103065 0.481
-4.37706 0.0717853 -3.2989 0.88605 0.0241733 0.462959
-4.398 0.232389 -3.24822 0.909461 -0.276512 0.310518
-4.41578 0.15301 -3.19541 0.997582 0.0189321 0.0668759
-4.36803 0.0715589 -3.3201 0.941935 -0.000852567 0.335795
-4.39738 0.07232 -3.24978 0.867672 -0.0620878 0.493245
-4.37837 0.392229 -3.279 0.89524 -0.0786017 0.438597
-4.37435 0.31065 -3.36808 0.932081 -0.0634909 0.356643
-4.37103 0.307698 -3.27245 0.937504 0.00488776 0.347941
-4.38585 0.308096 -3.22334 0.954124 -0.0506474 0.295098
-4.41144 0.35276 -3.21691 0.894656 -0.0545506 0.443413
-4.42129 0.393481 -3.16849 0.962294 -0.00162754 0.272006
-4.39132 0.365535 -3.2219 0.976413 -0.027754 0.214121
-4.38591 0.312176 -3.2731 0.954108 -0.0168644 0.298986
-4.3964 0.39258 -3.24218 0.932081 -0.0634909 0.356643
-4.3968 0.352532 -3.24369 0.988198 -0.0190155 0.151999
-4.4145 0.393236 -3.18859 0.912407 -0.0710134 0.403076
-4.39956 0.308542 -3.17199 0.954124 -0.0506474 0.295098
-4.37213 0.30765 -3.27469 0.983501 -0.0438922 0.175495
-4.38186 0.46813 -3.22878 0.987998 0.0189678 0.1533
-4.38465 0.428361 -3.20703 0.993728 0.11155 0.00779291
-4.37241 0.905249 -3.46594 0.840479 -0.183216 0.509929
-4.42424 0.905292 -3.3958 0.924061 0.170443 0.342141
-4.48911 0.706981 -3.18111 0.956289 -0.1616 0.243714
-4.42761 0.825852 -3.34781 0.998281 -0.0374882 0.0450484
-4.45908 0.946103 -3.29031 0.965458 -0.243151 0.093641
-4.49858 0.866872 -3.17992 0.816455 0.271656 0.509513
-4.48341 0.906661 -3.21614 0.816455 0.271656 0.509513
-4.49819 0.865989 -3.24699 0.924061 0.170443 0.342141
-4.46021 0.866687 -3.24343 0.965458 -0.243151 0.093641
-4.449 0.866806 -3.24896 0.998281 -0.0374882 0.0450484
-3.91914 0.824494 -4.00762 0.876783 -0.136052 0.461238
-4.03901 0.825792 -3.85432 0.951853 -0.282587 0.118832
-3.98648 0.829021 -3.96324 0.754252 -0.175808 0.63261
-3.97935 0.82587 -3.92554 0.951853 -0.282587 0.118832
-3.96643 0.906631 -3.88627 0.835238 0.0216054 0.549464
-3.97304 0.945387 -3.88318 0.858483 -0.00240471 0.512836
-3.94781 0.946272 -3.93812 0.867859 -0.0415622 0.495069
-3.96529 0.906606 -3.88962 0.907298 0.0289742 0.41949
-3.93587 0.945071 -3.94899 0.87469 0.0210204 0.484227
-3.96727 0.891586 -3.88832 0.9076 -0.0655878 0.414681
-4.0554 0.627367 -3.71092 0.824445 0.381374 0.418143
-4.01817 0.706648 -3.81461 0.824445 0.381374 0.418143
-4.06672 0.70691 -3.73216 0.817301 0.326687 0.474652
-4.14652 0.853372 -3.70995 0.770171 0.0216577 0.63747
-4.0095 0.905557 -3.82799 0.809366 -0.215884 0.546187
-4.00905 0.945597 -3.82631 0.858483 -0.00240471 0.512836
-3.99236 0.906689 -3.84841 0.9076 -0.0655878 0.414681
-4.26122 0.149223 -3.55368 0.834038 0.0248576 0.551146
-4.16227 0.232107 -3.49329 0.904518 -0.173251 0.389656
-4.13016 0.19219 -3.51928 0.904518 -0.173251 0.389656
-4.24648 0.37602 -3.56111 0.990514 0.0579703 0.124582
-4.14507 0.388093 -3.53609 0.926064 -0.152646 0.345114
-4.13743 0.351896 -3.53115 0.870641 0.103065 0.481
-4.13814 0.391883 -3.53188 0.986682 -0.00317103 0.162631
-4.21241 0.466968 -3.53528 0.990201 0.120246 0.0710175
-4.31682 0.351145 -3.39766 0.783056 -0.0617139 0.618882
-4.29513 0.306691 -3.44643 0.911125 -0.360143 0.200371
-4.23391 0.38778 -3.44491 0.850247 -0.231212 0.472885
-4.19344 0.351408 -3.50341 0.88269 0.0399828 0.468252
-4.23033 0.307896 -3.43936 0.850247 -0.231212 0.472885
-4.26715 0.427536 -3.42103 0.747445 0.013771 0.664182
-4.26268 0.507025 -3.46677 0.747445 0.013771 0.664182
-4.09194 0.349212 -3.51961 0.911125 -0.360143 0.200371
-4.12609 0.388479 -3.53151 0.876359 -0.0414644 0.47987
-4.34698 0.271912 -3.32478 0.904518 -0.173251 0.389656
-4.33226 0.211034 -3.38623 0.901013 0.343566 0.264837
-4.31447 0.272043 -3.34925 0.858528 0.0167311 0.512494
-4.33425 0.07104 -3.38146 0.803535 -0.0775331 0.590187
-4.35071 0.231683 -3.33301 0.904518 -0.173251 0.389656
-4.3441 0.387351 -3.33484 0.911057 -0.0813773 0.40417
-4.33097 0.391015 -3.39173 0.783056 -0.0617139 0.618882
-4.32675 0.427311 -3.36099 0.876359 -0.0414644 0.47987
-4.34091 0.346795 -3.38014 0.954124 -0.0506474 0.295098
-4.19545 0.524645 -3.54489 0.999824 0.0094772 0.0162176
-4.37713 1.10815 -3.24501 0.906362 0.232081 0.353053
-4.41414 0.987354 -3.25482 0.965458 -0.243151 0.093641
-4.40965 1.0284 -3.18265 0.93597 -0.265301 0.231463
-4.36637 1.0683 -3.24666 0.960314 -0.202315 0.192007
-4.36765 1.07825 -3.24903 0.933185 -0.305347 0.189548
-4.39078 1.10845 -3.20484 0.897683 -0.254639 0.359617
-3.91176 0.984902 -3.9897 0.828475 0.0685606 0.555813
-3.90465 1.02524 -3.97458 0.845053 0.044919 0.532793
-3.91417 1.06483 -3.99306 0.873669 0.178333 0.452658
-3.93274 1.02525 -3.94115 0.842672 0.163022 0.513155
-3.97593 0.985357 -3.88263 0.876783 -0.136052 0.461238
-3.95242 1.08614 -3.94446 0.825663 0.280086 0.489727
-3.98735 1.06536 -3.87038 0.828475 0.0685606 0.555813
-3.98967 1.16574 -3.92784 0.876848 -0.0257812 0.480077
-3.96878 1.10495 -3.92229 0.8671 0.0761644 0.492278
-3.95497 1.10604 -3.94921 0.871333 0.0371365 0.489286
-3.99817 1.18494 -3.88998 0.905913 -0.337396 0.255903
-3.96173 1.10604 -3.94031 0.880653 0.217399 0.420937
-3.99111 1.18569 -3.93034 0.876848 -0.0257812 0.480077
-4.0082 1.18614 -3.87454 0.877105 0.131605 0.461916
-3.98228 1.18438 -3.94805 0.873669 0.178333 0.452658
-4.00607 1.18506 -3.87212 0.821683 0.162594 0.54626
-3.97259 1.20151 -3.89243 0.876848 -0.0257812 0.480077
-4.02324 1.06661 -3.81715 0.822578 0.0452138 0.566852
-4.02076 0.98668 -3.81384 0.854226 0.115841 0.506832
-4.01146 1.02553 -3.82967 0.858483 -0.00240471 0.512836
-4.01322 1.06547 -3.83247 0.829228 0.31851 0.459274
-4.014 0.986677 -3.82275 0.890429 0.00557433 0.455088
-4.0097 0.985588 -3.82687 0.830173 0.021316 0.557098
-4.01719 1.10531 -3.83975 0.857822 0.264574 0.440616
-4.02006 1.14521 -3.84479 0.888831 -0.230765 0.395887
-4.06477 1.18672 -3.75747 0.902618 -0.0973214 0.419297
-4.07082 1.14666 -3.75362 0.861696 0.060793 0.503771
-4.03088 1.18649 -3.81877 0.866734 -0.0650631 0.494509
-4.0275 1.18649 -3.82322 0.877105 0.131605 0.461916
-4.06778 1.02703 -3.72743 0.854226 0.115841 0.506832
-4.06931 0.986942 -3.73138 0.838064 -0.049183 0.54335
-4.10076 0.986756 -3.70473 0.770171 0.0216577 0.63747
-4.1123 1.06681 -3.68684 0.861696 0.060793 0.503771
-4.07247 1.10686 -3.73522 0.854226 0.115841 0.506832
-4.07163 1.18694 -3.7318 0.902618 -0.0973214 0.419297
-3.88831 1.06472 -4.03097 0.841822 0.303407 0.446408
-3.87875 1.10438 -4.06726 0.806611 0.343002 0.481381
-4.21275 1.14671 -3.5666 0.804172 -0.364705 0.46936
-4.31195 1.02648 -3.45377 0.801916 -0.293112 0.520592
-4.26334 1.10806 -3.39866 0.830287 0.162701 0.533059
-4.25347 1.14709 -3.48521 0.830287 0.162701 0.533059
-4.27166 1.14749 -3.43165 0.994551 -0.0366657 0.0975897
-4.24631 1.10776 -3.44328 0.892412 -0.295816 0.340724
-4.33145 1.1887 -3.2637 0.933185 -0.305347 0.189548
-4.44275 0.116443 -2.98015 0.941935 -0.000852567 0.335795
-4.43583 0.194202 -3.11125 0.957566 0.00654779 0.288139
-4.43237 0.193774 -3.13807 0.954108 -0.0168644 0.298986
-4.43071 0.275047 -3.07133 0.988198 -0.0190155 0.151999
-4.42681 0.0734871 -3.15711 0.938081 0.0150664 0.346088
-4.44768 0.0765595 -2.96827 0.988373 0.0124397 0.151538
-4.42727 0.0756188 -3.03974 0.888364 0.00834311 0.459064
-4.4294 0.0750917 -3.06657 0.978247 0.0995804 0.181981
-4.4212 0.309089 -3.1028 0.983501 -0.0438922 0.175495
-4.4187 0.34952 -3.07425 0.997819 0.0492584 0.0439433
-4.43284 0.395008 -3.07351 0.988198 -0.0190155 0.151999
-4.42078 0.349129 -3.10109 0.999027 -0.0071284 -0.0435327
-4.42224 0.308893 -3.11622 0.983501 -0.0438922 0.175495
-4.43572 0.314183 -3.11455 0.954108 -0.0168644 0.298986
-4.4349 0.394176 -3.11712 0.992171 0.0198646 0.123294
-4.43118 0.313917 -3.13354 0.923527 0.10224 0.369656
-4.42025 0.309506 -3.07261 0.999027 -0.0071284 -0.0435327
-4.42049 0.468904 -3.12056 0.993728 0.11155 0.00779291
-4.40174 0.428809 -3.15123 0.947982 -0.0347862 0.316418
-4.39393 0.489184 -3.13409 0.993728 0.11155 0.00779291
-4.41238 0.504579 -3.08073 0.987998 0.0189678 0.1533
-4.42931 0.315662 -3.03963 0.903709 0.00815391 0.42807
-4.44593 0.356528 -2.9767 0.930171 -0.000463649 0.367126
-4.43302 0.39582 -3.0288 0.999769 -0.00623762 -0.0205604
-4.42171 0.310267 -3.01337 0.941319 -0.00308596 0.337503
-4.43384 0.315826 -3.02623 0.932112 -0.0160805 0.361813
-4.44369 0.356547 -2.97781 0.930012 0.0232006 0.366797
-4.44746 0.316521 -2.97486 0.970829 -0.002011 0.239763
-4.42051 0.310095 -3.02789 0.994123 -0.0369866 0.101741
-4.42461 0.35016 -3.01838 0.931552 0.114913 0.344972
-4.4444 0.396534 -2.97854 0.992314 -0.00374361 0.12369
-4.42257 0.430067 -3.02949 0.941319 -0.00308596 0.337503
-4.4648 0.276987 -2.93172 0.918302 -0.166377 0.359221
-4.54472 0.15829 -2.71779 0.935876 -0.00181637 0.352325
-4.54473 0.118297 -2.71708 0.946085 0.0525462 0.319629
-4.54252 0.0783824 -2.71188 0.937794 0.00594396 0.347142
-4.54469 0.238278 -2.71922 0.935876 -0.00181637 0.352325
-4.54472 0.15829 -2.71779 0.890695 0.0235884 0.453989
-4.50109 0.158216 -2.82683 0.934211 0.00729771 0.356646
-4.51998 0.0787765 -2.77626 0.9543 -0.00117256 0.298847
-4.47026 0.0771762 -2.91246 0.94377 0.0149203 0.330266
-4.54246 0.198264 -2.71962 0.933861 0.0061315 0.357584
-4.48095 0.391225 -2.86606 0.935603 -0.00283643 0.353042
-4.48183 0.31122 -2.8639 0.923207 0.0209144 0.383733
-4.48321 0.357677 -2.87735 0.930171 -0.000463649 0.367126
-4.48183 0.31122 -2.8639 0.93126 -0.0262701 0.363407
-4.46142 0.310918 -2.91297 0.931552 0.114913 0.344972
-4.46139 0.310845 -2.91856 0.94321 -0.00299441 0.332183
-4.50202 0.39832 -2.82448 0.934158 0.0151902 0.356535
-4.46922 0.397132 -2.92162 0.934206 -0.000593266 0.356734
-4.46471 0.397069 -2.92943 0.965263 -0.00175576 0.261275
-4.54355 0.378295 -2.71948 0.943231 -0.0179001 0.331655
-4.54357 0.318305 -2.71841 0.939305 0.0372436 0.341055
-4.52163 0.358868 -2.77464 0.936247 -0.000528729 0.351343
-4.54466 0.358259 -2.72137 0.937794 0.00594396 0.347142
-4.54468 0.298268 -2.72029 0.941581 -0.00214264 0.33678
-4.54083 0.312221 -2.71218 0.93126 -0.0262701 0.363407
-4.52043 0.31192 -2.76126 0.925269 -0.0106456 0.379163
-4.52494 0.311946 -2.75346 0.925269 -0.0106456 0.379163
-4.52027 0.431989 -2.75837 0.921021 0.0130692 0.389294
-4.54154 0.39945 -2.72402 0.934211 0.00729771 0.356646
-4.54015 0.458202 -2.72536 0.935907 0.00603472 0.352195
-4.53916 0.472378 -2.70534 0.937424 -0.0108976 0.34802
-4.5379 0.478178 -2.72683 0.933861 0.0061315 0.357584
-4.5424 0.438226 -2.7239 0.935876 -0.00181637 0.352325
-4.52799 0.39906 -2.75863 0.934211 0.00729771 0.356646
-4.53805 0.472427 -2.70309 0.916498 -0.0183338 0.399619
-4.54241 0.418229 -2.72354 0.935437 -0.0253573 0.352582
-4.50765 0.398423 -2.81333 0.929843 0.0310877 0.366642
-4.41258 0.709677 -3.07672 0.935411 -0.018524 0.353076
-4.413 0.669638 -3.07843 0.966988 -0.0351662 0.252383
-4.41453 0.62955 -3.08238 0.887677 0.30342 0.346361
-4.42014 0.550086 -3.03329 0.935613 0.0050127 0.352992
-4.42635 0.548837 -3.11941 0.993728 0.11155 0.00779291
-4.44234 0.710767 -2.95614 0.935536 -0.0106825 0.35307
-4.42541 0.59025 -3.01484 0.920875 -0.0184282 0.389422
-4.42236 0.670426 -3.00693 0.935536 -0.0106825 0.35307
-4.4146 0.750135 -3.04036 0.935536 -0.0106825 0.35307
-4.43998 0.830934 -2.94877 0.925269 -0.0106456 0.379163
-4.42208 0.910638 -2.99556 0.945911 -0.0422648 0.321662
-4.43122 0.949356 -3.0811 0.982682 -0.18065 -0.0412579
-4.4211 0.790544 -3.0018 0.924964 -0.0263892 0.379136
-4.44476 0.91099 -2.93979 0.97675 -0.0119921 0.214044
-4.41803 0.950088 -3.04302 0.934666 -0.0977816 0.341816
-4.4822 0.591349 -2.85864 0.937424 -0.0108976 0.34802
-4.53784 0.738138 -2.73147 0.885651 -0.0629448 0.460066
-4.54014 0.698364 -2.71847 0.863609 0.00876656 0.504087
-4.4579 0.630865 -2.92723 0.961721 -0.0114384 0.273793
-4.54012 0.578183 -2.72751 0.929784 -0.00157126 0.368103
-4.49741 0.551634 -2.81683 0.940933 -0.0267498 0.337534
-4.53787 0.618157 -2.72933 0.933861 0.0061315 0.357584
-4.47853 0.511244 -2.86986 0.928587 -0.0422075 0.368706
-4.53448 0.592422 -2.71024 0.940933 -0.0267498 0.337534
-4.53786 0.65815 -2.73004 0.931911 -0.00162693 0.362684
-4.48152 0.551358 -2.85811 0.921021 0.0130692 0.389294
-4.45946 0.590851 -2.92559 0.937504 0.00488776 0.347941
-4.52107 0.672079 -2.75482 0.925344 0.00511625 0.379095
-4.54129 0.53835 -2.71786 0.939305 0.0372436 0.341055
-4.53789 0.538169 -2.7279 0.945284 -0.0023328 0.326241
-4.46813 0.951331 -2.88455 0.953211 -0.0663168 0.294941
-4.47211 0.791298 -2.87911 0.911125 -0.360143 0.200371
-4.54233 0.778272 -2.72438 0.854907 -0.412404 0.314735
-4.51436 0.872029 -2.77083 0.925335 -0.00276626 0.379141
-4.46344 0.751059 -2.9076 0.993699 -0.0288158 0.108317
-4.53781 0.818125 -2.7329 0.765057 -0.0439021 0.642465
-4.54009 0.898332 -2.72204 0.983554 0.0029575 0.180587
-4.53778 0.938106 -2.73504 0.933918 -0.135934 0.330634
-4.47969 0.831585 -2.84837 0.94823 -0.0269105 0.316442
-4.48037 0.871576 -2.8489 0.94823 -0.0269105 0.316442
-4.49012 0.911692 -2.82824 0.924964 -0.0263892 0.379136
-4.5378 0.858119 -2.73361 0.781902 0.00304703 0.623394
-4.52076 0.912218 -2.74904 0.928587 -0.0422075 0.368706
-4.62629 0.162218 -2.49909 0.920943 0.0381839 0.387821
-4.60029 0.121141 -2.55862 0.927839 0.0142489 0.372708
-4.58547 0.280235 -2.61059 0.952367 0.00518593 0.304911
-4.5584 0.0799669 -2.67356 0.940088 -0.000657626 0.340931
-4.55385 0.0797015 -2.69254 0.934158 0.0151902 0.356535
-4.57408 0.200318 -2.64114 0.934211 0.00729771 0.356646
-4.57561 0.160312 -2.6393 0.940041 0.0150463 0.340728
-4.57419 0.0803377 -2.63784 0.896196 0.000379118 0.443657
-4.58322 0.200127 -2.61585 0.933861 0.0061315 0.357584
-4.57326 0.280312 -2.64371 0.934211 0.00729771 0.356646
-4.61946 0.442012 -2.513 0.937673 -0.00984742 0.34738
-4.62395 0.502144 -2.50627 0.937767 0.0138398 0.34699
-4.61945 0.482006 -2.51372 0.934252 -0.0806118 0.347384
-4.60584 0.381201 -2.5577 0.937524 -0.01774 0.347467
-4.62399 0.382163 -2.50413 0.929784 -0.00157126 0.368103
-4.60019 0.481084 -2.56504 0.934252 -0.0806118 0.347384
-4.62396 0.482147 -2.50591 0.925189 -0.0250219 0.37868
-4.61948 0.382022 -2.51193 0.931823 -0.00947356 0.362791
-4.56279 0.439207 -2.66922 0.937053 -0.0335114 0.347576
-4.56184 0.47273 -2.64956 0.92046 -0.0341467 0.389341
-4.58093 0.480163 -2.61637 0.935911 -0.0571126 0.347576
-4.57397 0.320299 -2.64444 0.934211 0.00729771 0.356646
-4.56281 0.379217 -2.66815 0.935787 -0.00966637 0.352432
-4.56281 0.35922 -2.6678 0.939305 0.0372436 0.341055
-4.58207 0.380139 -2.61683 0.935787 -0.00966637 0.352432
-4.56875 0.352663 -2.64355 0.93126 -0.0262701 0.363407
-4.5521 0.35967 -2.70098 0.940088 -0.000657626 0.340931
-4.57244 0.360306 -2.64627 0.934211 0.00729771 0.356646
-4.58093 0.480163 -2.61637 0.937673 -0.00984742 0.34738
-4.57315 0.400293 -2.647 0.900875 0.0238979 0.43342
-4.56278 0.479201 -2.66994 0.927866 0.00640589 0.37286
-4.56806 0.312672 -2.64302 0.93126 -0.0262701 0.363407
-4.56495 0.392701 -2.64629 0.93126 -0.0262701 0.363407
-4.56075 0.400045 -2.67267 0.92603 0.00754806 0.377374
-4.58543 0.44021 -2.61344 0.937673 -0.00984742 0.34738
-4.56167 0.479241 -2.6677 0.927866 0.00640589 0.37286
-4.71692 0.206619 -2.25432 0.929548 -0.0173453 0.368293
-4.67844 0.0847949 -2.35483 0.921282 0.0224428 0.388247
-4.69766 0.205698 -2.30565 0.929343 -0.025227 0.368354
-4.68747 0.165163 -2.33507 0.939729 -0.00200572 0.341914
-4.65915 0.203854 -2.4083 0.937673 -0.00984742 0.34738
-4.6388 0.122985 -2.45596 0.935787 -0.00966637 0.352432
-4.66253 0.384106 -2.39588 0.940544 -0.0415874 0.337117
-4.67725 0.384787 -2.35795 0.916758 -0.016739 0.399093
-4.67726 0.36479 -2.35759 0.937767 0.0138398 0.34699
-4.63984 0.382904 -2.46284 0.937673 -0.00984742 0.34738
-4.63872 0.422938 -2.46132 0.93964 -0.00985813 0.342023
-4.67612 0.484811 -2.35749 0.945193 -0.0102309 0.326352
-4.65797 0.463853 -2.4107 0.939733 0.0137009 0.341634
-4.64437 0.403141 -2.44981 0.929784 -0.00157126 0.368103
-4.65686 0.483889 -2.40882 0.947123 0.00547152 0.320825
-4.64435 0.483128 -2.45124 0.947123 0.00547152 0.320825
-4.65685 0.503886 -2.40918 0.93588 0.0138854 0.352044
-4.71466 0.386671 -2.25305 0.925206 0.0380229 0.377554
-4.69652 0.325718 -2.30555 0.939493 -0.017708 0.34211
-4.70556 0.38609 -2.28542 0.935907 0.00603472 0.352195
-4.69651 0.385709 -2.30662 0.935641 -0.0175138 0.352518
-4.69764 0.285685 -2.30708 0.929343 -0.025227 0.368354
-4.68741 0.385129 -2.33899 0.916758 -0.016739 0.399093
-4.71463 0.486654 -2.25484 0.946085 0.0525462 0.319629
-4.69649 0.445699 -2.30769 0.941491 -0.0100397 0.336889
-4.6965 0.405706 -2.30698 0.935907 0.00603472 0.352195
-4.70553 0.486074 -2.28721 0.916902 -0.00887077 0.399014
-4.69648 0.50569 -2.30876 0.931942 0.00622078 0.362555
-4.68514 0.485092 -2.34189 0.919584 0.0695793 0.386683
-4.59907 0.541115 -2.56387 0.935787 -0.00966637 0.352432
-4.61941 0.621984 -2.51621 0.943025 -0.0257473 0.331724
-4.56055 0.539271 -2.66653 0.937524 -0.01774 0.347467
-4.55629 0.672778 -2.65664 0.936565 -0.0424013 0.347919
-4.55941 0.659292 -2.66643 0.947096 0.0133266 0.320675
-4.53885 0.712517 -2.69955 0.939395 -0.010764 0.342666
-4.57863 0.700108 -2.6214 0.973101 0.0195656 0.229546
-4.56009 0.63274 -2.6539 0.933552 -0.00292669 0.358429
-4.55941 0.592749 -2.65337 0.921021 0.0130692 0.389294
-4.56028 0.512744 -2.6512 0.921021 0.0130692 0.389294
-4.55872 0.552758 -2.65284 0.940933 -0.0267498 0.337534
-4.599 0.781077 -2.56816 0.937318 -0.0256285 0.347532
-4.60124 0.781097 -2.56705 0.923804 -0.0564601 0.378679
-4.6116 0.862224 -2.50481 0.765057 -0.0439021 0.642465
-4.61938 0.741965 -2.51836 0.885651 -0.0629448 0.460066
-4.5361 0.900088 -2.62365 0.974551 -0.195115 0.110365
-4.54316 0.861353 -2.55254 0.923804 -0.0564601 0.378679
-4.55542 0.752783 -2.6588 0.94823 -0.0269105 0.316442
-4.57861 0.780095 -2.62283 0.943472 0.0135146 0.331176
-4.53397 0.900467 -2.6024 0.994158 -0.0957481 -0.0498213
-4.55821 0.819107 -2.67822 0.929695 -0.00945955 0.368209
-4.54516 0.940562 -2.59758 0.974332 0.0274364 0.223436
-4.53954 0.872945 -2.66924 0.925335 -0.00276626 0.379141
-4.53574 0.912983 -2.67198 0.94823 -0.0269105 0.316442
-4.56312 0.830743 -2.58676 0.946853 -0.01809 0.321157
-4.55826 0.819306 -2.66704 0.974551 -0.195115 0.110365
-4.57198 0.820427 -2.60451 0.947356 -0.0969816 0.30514
-4.55611 0.792774 -2.65934 0.925335 -0.00276626 0.379141
-4.54697 0.938986 -2.6859 0.995062 -0.0221444 0.0967489
-4.66696 0.584115 -2.39724 0.935907 0.00603472 0.352195
-4.69644 0.625671 -2.3109 0.947091 -0.00238391 0.320956
-4.63982 0.663059 -2.45666 0.940544 -0.0415874 0.337117
-4.65794 0.583834 -2.41285 0.93374 -0.009654 0.357822
-4.6647 0.664082 -2.39977 0.931911 -0.00162693 0.362684
-4.70549 0.626052 -2.28971 0.933861 0.0061315 0.357584
-4.63526 0.942974 -2.46388 0.933829 -0.0017618 0.357714
-4.70319 0.865994 -2.2951 0.933387 -0.0254292 0.35797
-4.67714 0.784724 -2.36509 0.911148 -0.0479215 0.409284
-4.63978 0.823034 -2.45952 0.935787 -0.00966637 0.352432
-4.69527 0.865673 -2.31295 0.945043 -0.0181263 0.326442
-4.65676 0.863829 -2.4156 0.921366 0.0145665 0.388424
-4.69641 0.745652 -2.31305 0.933592 -0.0175436 0.357907
-4.35051 0.62997 -3.13345 0.937493 -0.00300649 0.347991
-4.39783 1.10911 -3.14563 0.93597 -0.265301 0.231463
-4.41969 1.03073 -2.99377 0.939128 -0.0660194 0.337166
-4.40524 1.14903 -3.14284 0.945134 -0.0578797 0.321514
-4.40686 1.15016 -3.05565 0.895964 0.099723 0.432786
-4.42051 1.10946 -3.08986 0.960314 -0.202315 0.192007
-4.43967 1.07107 -2.94298 0.939128 -0.0660194 0.337166
-4.48097 1.03178 -2.83536 0.931022 -0.034095 0.363366
-4.45897 1.07142 -2.89166 0.94464 -0.0268318 0.327009
-4.43441 1.15135 -2.93059 0.971518 -0.114298 0.20758
-4.42964 1.19173 -2.90873 0.924781 -0.256888 0.280695
-4.45261 1.15174 -2.87703 0.924781 -0.256888 0.280695
-4.49537 1.07222 -2.78454 0.928233 -0.0500543 0.368617
-4.49558 1.08472 -2.78471 0.928342 -0.12095 0.351501
-4.5184 1.03238 -2.74166 0.931022 -0.034095 0.363366
-4.53783 1.05839 -2.72042 0.954018 0.00509256 0.299707
-4.53553 0.978079 -2.73686 0.929695 -0.00945955 0.368209
-4.53552 1.01807 -2.73758 0.984089 0.10455 0.143659
-4.50858 1.1678 -2.75354 0.980806 -0.182271 -0.0692671
-4.51045 1.15265 -2.73425 0.91128 -0.192511 0.364016
-4.50636 1.17788 -2.74923 0.926192 -0.255598 0.277197
-4.53117 1.13861 -2.7084 0.888962 -0.317128 0.330419
-4.49384 1.11231 -2.78059 0.916335 -0.207893 0.342215
-4.43684 1.19715 -2.78949 0.948418 -0.0262075 0.315936
-4.46163 1.19757 -2.80389 0.933748 -0.0584856 0.353119
-4.5967 1.02102 -2.57355 0.924611 -0.0407577 0.378726
-4.61486 1.06207 -2.51511 0.933918 -0.135934 0.330634
-4.57747 1.0202 -2.61929 0.954018 0.00509256 0.299707
-4.53693 1.11296 -2.67574 0.887127 -0.144947 0.438174
-4.55057 0.992822 -2.66641 0.928233 -0.0500543 0.368617
-4.57877 0.980862 -2.58169 0.984396 -0.0208401 0.174729
-4.56527 1.18071 -2.5919 0.980806 -0.182271 -0.0692671
-4.51363 1.1932 -2.68896 0.916666 -0.255345 0.307443
-4.53244 1.11301 -2.67795 0.928233 -0.0500543 0.368617
-4.56346 1.19728 -2.50385 0.977959 -0.204884 0.0402381
-4.55125 1.03281 -2.66694 0.911628 -0.0735645 0.404379
-4.53261 1.12301 -2.67808 0.916335 -0.207893 0.342215
-4.59005 1.14134 -2.55666 0.888962 -0.317128 0.330419
-4.57079 1.14042 -2.60798 0.924611 -0.0407577 0.378726
-4.72355 0.986956 -2.24257 0.933861 0.0061315 0.357584
-4.66928 1.10485 -2.3607 0.922546 -0.183531 0.33945
-4.65338 1.06392 -2.41245 0.922204 -0.174792 0.344945
-4.63524 1.02296 -2.4653 0.930943 -0.0725762 0.35788
-4.68635 1.10595 -2.2993 0.912933 -0.246172 0.325503
-4.65379 1.18549 -2.32517 0.94107 -0.0888265 0.32634
-4.69302 1.02573 -2.31132 0.92114 -0.191126 0.339074
-4.61748 1.18107 -2.43226 0.844437 0.134779 0.518421
-4.58205 1.20984 -2.36103 0.932423 -0.0490471 0.358025
-4.54662 1.21861 -2.28945 0.899267 -0.261612 0.35054
-4.87431 0.213874 -1.85042 0.941342 -0.0179342 0.336977
-4.89029 0.0549405 -1.78951 0.95399 0.0129457 0.299558
-4.89588 0.175022 -1.7861 0.943472 0.0135146 0.331176
-4.83692 0.132004 -1.95389 0.945193 -0.0102309 0.326352
-4.83463 0.432036 -1.95476 0.923681 0.00658999 0.383106
-4.85055 0.493067 -1.89778 0.947091 -0.00238391 0.320956
-4.87542 0.394006 -1.8447 0.935641 -0.0175138 0.352518
-4.85052 0.492967 -1.90337 0.946059 -0.0416153 0.32131
-4.85277 0.452994 -1.90155 0.93374 -0.009654 0.357822
-4.88906 0.494911 -1.79513 0.947123 0.00547152 0.320825
-4.85727 0.393044 -1.89827 0.935876 -0.00181637 0.352325
-4.83013 0.491985 -1.95805 0.933592 -0.0175436 0.357907
-4.87542 0.414002 -1.84506 0.952335 -0.00271226 0.305043
-4.88909 0.394927 -1.79334 0.952335 -0.00271226 0.305043
-4.83467 0.292058 -1.95226 0.935641 -0.0175138 0.352518
-4.87204 0.413922 -1.84951 0.935911 -0.0571126 0.347576
-4.83464 0.392042 -1.95405 0.940868 -0.0337095 0.337091
-4.89357 0.434961 -1.79184 0.952335 -0.00271226 0.305043
-4.87092 0.473952 -1.84834 0.937767 0.0138398 0.34699
-4.88911 0.334936 -1.79227 0.952335 -0.00271226 0.305043
-4.85726 0.433038 -1.89898 0.925658 0.00650373 0.378305
-4.85277 0.472991 -1.90191 0.931911 -0.00162693 0.362684
-4.89018 0.454877 -1.79666 0.941613 0.00575557 0.336649
-4.87205 0.393925 -1.84915 0.951286 -0.0421564 0.305415
-4.78022 0.24918 -2.11226 0.921141 0.0303157 0.388046
-4.78022 0.24918 -2.11226 0.916902 -0.00887077 0.399014
-4.76209 0.168231 -2.1644 0.925658 0.00650373 0.378305
-4.78027 0.0892051 -2.1094 0.952252 0.0209799 0.304591
-4.79841 0.13016 -2.05655 0.943499 0.00566002 0.331327
-4.79842 0.0901665 -2.05583 0.943468 -0.00219493 0.331457
-4.73498 0.167188 -2.22239 0.935796 0.0217343 0.351872
-4.78024 0.169192 -2.11083 0.912083 -0.02439 0.40928
-4.79837 0.250141 -2.05869 0.941134 -0.0258246 0.337045
-4.7361 0.487497 -2.20799 0.931942 0.00622078 0.362555
-4.77343 0.489081 -2.11986 0.929788 0.0142071 0.367821
-4.72593 0.447062 -2.23182 0.93976 0.00584778 0.341785
-4.79389 0.450268 -2.05329 0.933592 -0.0175436 0.357907
-4.73503 0.367556 -2.20361 0.93374 -0.009654 0.357822
-4.79385 0.390079 -2.0634 0.937762 -0.00195228 0.347272
-4.79499 0.490222 -2.05625 0.940435 -0.112886 0.320684
-4.77346 0.389097 -2.11808 0.925393 -0.017145 0.378622
-4.75083 0.388094 -2.17386 0.925206 0.0380229 0.377554
-4.79161 0.410055 -2.06487 0.935654 0.0295799 0.351677
-4.7565 0.388395 -2.15712 0.925393 -0.017145 0.378622
-4.79391 0.390278 -2.05222 0.941491 -0.0100397 0.336889
-4.79387 0.330088 -2.06233 0.952335 -0.00271226 0.305043
-4.7508 0.488078 -2.17564 0.921141 0.0303157 0.388046
-4.77344 0.449087 -2.11915 0.929343 -0.025227 0.368354
-4.77573 0.489301 -2.10758 0.93976 0.00584778 0.341785
-4.79383 0.490062 -2.06519 0.950598 -0.00257259 0.310415
-4.75649 0.408392 -2.15748 0.929788 0.0142071 0.367821
-4.79498 0.510219 -2.05661 0.935876 -0.00181637 0.352325
-4.81765 0.171076 -2.00593 0.943499 0.00566002 0.331327
-4.81314 0.491184 -2.00268 0.969869 0.0433585 0.239738
-4.81427 0.39116 -2.00314 0.932709 0.179438 0.312819
-4.84372 0.792859 -1.91205 0.942761 -0.0335892 0.331772
-4.86185 0.873808 -1.85991 0.920926 -0.0248139 0.388946
-4.86754 0.67404 -1.84519 0.946853 -0.01809 0.321157
-4.88449 0.834816 -1.80341 0.937318 -0.0256285 0.347532
-4.86529 0.834094 -1.84356 0.937318 -0.0256285 0.347532
-4.84602 0.873166 -1.8956 0.942761 -0.0335892 0.331772
-4.88571 0.635008 -1.79091 0.927835 -0.00143747 0.372988
-4.8449 0.913199 -1.89408 0.945284 -0.0023328 0.326241
-4.88453 0.674842 -1.80056 0.943378 -0.0100488 0.331566
-4.86867 0.594013 -1.846 0.919979 -0.0483886 0.38897
-4.83922 0.832812 -1.91498 0.949886 -0.0339665 0.310746
-4.87091 0.513946 -1.84905 0.941613 0.00575557 0.336649
-4.7666 0.908953 -2.13068 0.93964 -0.00985813 0.342023
-4.79381 0.750221 -2.05865 0.948418 -0.0262075 0.315936
-4.8097 0.911237 -2.00346 0.944568 -0.0339035 0.326561
-4.79154 0.670014 -2.06951 0.937318 -0.0256285 0.347532
-4.80748 0.95131 -1.99969 0.944568 -0.0339035 0.326561
-4.74395 0.947945 -2.18718 0.932423 -0.0490471 0.358025
-4.77115 0.629038 -2.12347 0.933861 0.0061315 0.357584
-4.72583 0.827002 -2.2386 0.933387 -0.0254292 0.35797
-4.7734 0.909314 -2.11059 0.929343 -0.025227 0.368354
-4.81312 0.551175 -2.00375 0.929343 -0.025227 0.368354
-4.79156 0.590026 -2.06808 0.929784 -0.00157126 0.368103
-4.77457 0.669312 -2.10855 0.935907 0.00603472 0.352195
-4.75532 0.66839 -2.15988 0.947123 0.00547152 0.320825
-4.74396 0.907951 -2.18646 0.933592 -0.0175436 0.357907
-4.96846 0.258855 -1.57325 0.943472 0.0135146 0.331176
-4.93218 0.176945 -1.67896 0.943387 0.0213674 0.331005
-4.91179 0.175963 -1.73363 0.943468 -0.00219493 0.331457
-4.94809 0.177886 -1.6265 0.943472 0.0135146 0.331176
-4.94472 0.137812 -1.63024 0.947091 -0.00238391 0.320956
-4.9265 0.416806 -1.6888 0.941342 -0.0179342 0.336977
-4.96391 0.398693 -1.58355 0.94089 0.0452117 0.335682
-4.94355 0.397811 -1.63264 0.935787 -0.00966637 0.352432
-4.90725 0.375891 -1.73942 0.947091 -0.00238391 0.320956
-4.90722 0.495872 -1.74156 0.937794 0.00594396 0.347142
-4.94463 0.497755 -1.63666 0.950359 -0.0182776 0.310619
-4.93211 0.436904 -1.6836 0.935641 -0.0175138 0.352518
-4.94802 0.417848 -1.63078 0.950359 -0.0182776 0.310619
-4.96167 0.498756 -1.58085 0.943378 -0.0100488 0.331566
-4.96841 0.438827 -1.57646 0.94089 0.0452117 0.335682
-4.90949 0.395908 -1.73867 0.948869 -0.0025227 0.315661
-4.94579 0.397831 -1.63153 0.941628 0.186412 0.280335
-4.92987 0.416887 -1.68435 0.941613 0.00575557 0.336649
-4.90722 0.495872 -1.74156 0.938328 -0.0490531 0.342249
-4.94356 0.33782 -1.63157 0.937074 0.0453901 0.346167
-4.92988 0.39689 -1.68399 0.943378 -0.0100488 0.331566
-4.9265 0.39681 -1.68845 0.935641 -0.0175138 0.352518
-4.92761 0.496854 -1.68688 0.947091 -0.00238391 0.320956
-4.96391 0.498777 -1.57975 0.905125 0.0310087 0.424013
-4.94801 0.457842 -1.63149 0.943468 -0.00219493 0.331457
-5.03768 0.182534 -1.36759 0.94089 0.0452117 0.335682
-5.00137 0.220604 -1.47544 0.943468 -0.00219493 0.331457
-5.01734 0.101664 -1.41525 0.952252 0.0209799 0.304591
-5.02293 0.181753 -1.41111 0.9489 0.00537648 0.31553
-4.98105 0.0597478 -1.52167 0.948786 0.0211724 0.315209
-5.03659 0.14258 -1.36463 0.9489 0.00537648 0.31553
-5.00478 0.180791 -1.46468 0.94701 0.0211799 0.320505
-5.05685 0.503405 -1.32197 0.93976 0.00584778 0.341785
-5.05686 0.483408 -1.32162 0.939733 0.0137009 0.341634
-5.02288 0.401718 -1.41504 0.939733 0.0137009 0.341634
-5.03653 0.342548 -1.3682 0.946664 0.0368753 0.320106
-4.99909 0.480643 -1.4756 0.941613 0.00575557 0.336649
-4.98433 0.399775 -1.52329 0.941613 0.00575557 0.336649
-4.98879 0.499799 -1.52286 0.946866 0.02903 0.320315
-4.99908 0.50064 -1.47596 0.946866 0.02903 0.320315
-5.00022 0.400616 -1.47641 0.937524 -0.01774 0.347467
-5.0376 0.502483 -1.3733 0.935796 0.0217343 0.351872
-5.00473 0.400757 -1.46861 0.937524 -0.01774 0.347467
-4.98208 0.339664 -1.52891 0.947123 0.00547152 0.320825
-5.02285 0.501702 -1.41683 0.943499 0.00566002 0.331327
-5.03762 0.402499 -1.37152 0.947123 0.00547152 0.320825
-5.01946 0.441531 -1.4258 0.93374 -0.009654 0.357822
-5.01837 0.401577 -1.42284 0.939648 0.0215522 0.341462
-5.01836 0.421574 -1.4232 0.952252 0.0209799 0.304591
-5.04325 0.46269 -1.36144 0.943499 0.00566002 0.331327
-5.03761 0.462489 -1.37259 0.93976 0.00584778 0.341785
-4.90718 0.63585 -1.74406 0.916993 0.0147431 0.39863
-4.905 0.515949 -1.73744 0.941491 -0.0100397 0.336889
-4.92534 0.596818 -1.68978 0.958662 -0.0188716 0.283919
-4.93208 0.556885 -1.68574 0.945193 -0.0102309 0.326352
-4.94237 0.637813 -1.63468 0.950508 -0.0104264 0.310526
-4.94349 0.597779 -1.63621 0.941499 0.0215494 0.336325
-4.90717 0.675844 -1.74477 0.943378 -0.0100488 0.331566
-4.92756 0.676826 -1.6901 0.939506 0.0294003 0.341269
-4.96274 0.638695 -1.58559 0.941491 -0.0100397 0.336889
-4.92532 0.676805 -1.69121 0.941613 0.00575557 0.336649
-4.94792 0.797788 -1.63757 0.941499 0.0215494 0.336325
-4.92529 0.796786 -1.69335 0.943231 -0.0179001 0.331655
-4.9004 0.835757 -1.75095 0.933592 -0.0175436 0.357907
-4.92751 0.876794 -1.69367 0.919979 -0.0483886 0.38897
-5.05682 0.643383 -1.32447 0.927866 0.00640589 0.37286
-4.9865 0.679751 -1.52718 0.941628 0.186412 0.280335
-5.02509 0.521719 -1.41608 0.941585 0.0136534 0.336497
-5.02729 0.641721 -1.41711 0.941585 0.0136534 0.336497
-5.02051 0.64146 -1.43161 0.952339 0.0130838 0.304761
-5.00124 0.720526 -1.48437 0.945193 -0.0102309 0.326352
-4.982 0.639616 -1.53427 0.943378 -0.0100488 0.331566
-5.03866 0.682415 -1.37876 0.946085 0.0525462 0.319629
-4.98194 0.839585 -1.53784 0.933861 0.0061315 0.357584
-5.01821 0.961489 -1.43284 0.948172 0.0448378 0.314579
-5.02049 0.921615 -1.42543 0.955829 -0.0499803 0.289643
-5.01825 0.841508 -1.4307 0.937524 -0.01774 0.347467
-5.03639 0.882463 -1.37785 0.943231 -0.0179001 0.331655
-4.84265 1.03326 -1.89174 0.894834 -0.285043 0.343545
-4.87772 0.99473 -1.80959 0.921366 0.0145665 0.388424
-4.72043 1.14795 -2.1884 0.937385 -0.0886264 0.336831
-4.73515 1.14863 -2.15046 0.90884 -0.230838 0.347452
-4.7871 0.990421 -2.04949 0.933592 -0.0175436 0.357907
-4.72598 1.09776 -2.19871 0.899267 -0.261612 0.35054
-4.7576 1.02885 -2.13725 0.935345 -0.151503 0.319652
-4.49348 1.21802 -2.18183 0.912933 -0.246172 0.325503
-4.80524 1.03138 -1.99663 0.923489 -0.16717 0.345285
-4.76491 1.19118 -2.00824 0.84045 -0.417864 0.345012
-4.80121 1.19311 -1.9011 0.923489 -0.16717 0.345285
-4.76269 1.19376 -2.0038 0.90884 -0.230838 0.347452
-4.79858 1.1116 -1.98461 0.925532 -0.20664 0.317317
-4.81654 0.991784 -1.97362 0.947823 -0.041972 0.316021
-4.72726 1.21503 -1.93244 0.906425 -0.18241 0.380947
-4.9344 1.07762 -1.64921 0.874404 -0.348308 0.337784
-4.87117 1.17544 -1.77141 0.894834 -0.285043 0.343545
-4.93256 1.19918 -1.56303 0.894834 -0.285043 0.343545
-4.94377 1.18678 -1.55727 0.892984 -0.253608 0.371836
-4.92747 0.996775 -1.69581 0.937762 -0.00195228 0.347272
-4.96154 0.998677 -1.58978 0.931942 0.00622078 0.362555
-4.89809 1.0757 -1.75634 0.894834 -0.285043 0.343545
-5.03632 1.12242 -1.38213 0.85369 -0.427828 0.296944
-5.05227 1.09347 -1.32354 0.950453 -0.0578848 0.30543
-4.99894 1.00056 -1.48488 0.939223 -0.0651644 0.337067
-4.97896 1.20124 -1.44811 0.922712 -0.09618 0.373298
-5.02045 1.08159 -1.42829 0.925276 -0.239297 0.294282
-4.98417 0.99968 -1.534 0.937762 -0.00195228 0.347272
-5.03857 1.00236 -1.38447 0.937762 -0.00195228 0.347272
-4.88511 -1.33658 -1.30169 0.907933 -0.000620266 0.419115
-4.98189 -1.45438 -1.1793 -0.94549 -0.315703 -0.0798777
-4.97963 -1.41441 -1.18112 -0.990102 0.0576788 0.127949
-5.04303 -1.33146 -1.01741 0.963349 0.0202046 0.26749
-5.0029 -1.33102 -0.992622 0.875973 0.312539 0.367411
-5.00112 -1.39444 -0.903141 0.875973 0.312539 0.367411
-5.08046 -1.25352 -1.13416 0.961417 0.16084 0.223175
-5.08045 -1.21352 -1.13488 0.933636 0.10025 0.343909
-5.09613 -1.17339 -1.12784 0.968989 -0.219001 0.114449
-5.01237 -1.2131 -1.10995 0.80376 0.253511 0.53824
-4.95058 -1.13412 -1.16697 0.949794 0.130872 0.284188
-5.03562 -1.22643 -1.15679 0.927382 0.178744 0.328652
-5.0177 -1.25409 -1.16516 0.926741 0.28038 0.250076
-4.88946 -1.13687 -1.31982 0.868275 0.381894 0.316631
-4.92691 -1.17488 -1.20862 0.80376 0.253511 0.53824
-4.9213 -1.21497 -1.21347 0.927382 0.178744 0.328652
-5.02564 -1.17358 -1.13756 0.988577 0.076034 -0.130134
-4.9269 -1.13488 -1.20933 0.988249 0.0103259 0.152503
-5.07751 -1.05597 -1.27298 0.888026 0.24272 0.390508
-5.10685 -0.99991 -1.21486 0.946085 0.0525462 0.319629
-5.11313 -0.97645 -1.30142 0.895404 0.219146 0.387591
-5.07839 -1.09276 -1.09341 0.890836 -0.205262 0.405312
-5.067 -1.01348 -1.13391 -0.938101 -0.0922888 -0.33384
-5.06916 -0.93367 -1.14541 0.877454 -0.00741518 0.479604
-5.05325 -0.912115 -1.19828 0.895674 0.149507 0.418827
-5.05324 -0.894618 -1.19859 0.89567 0.264836 0.357264
-4.94568 -1.01058 -1.24967 0.839053 0.306906 0.44922
-4.97909 -1.01607 -1.27769 -0.950359 0.0182776 -0.310619
-4.92753 -0.996541 -1.3035 -0.94775 -0.177412 -0.265134
-4.9143 -1.01586 -1.26507 0.869127 0.219809 0.44306
-5.02956 -0.89538 -1.24095 0.906636 0.0937381 0.411368
-4.97776 -0.896747 -1.31671 0.888026 0.24272 0.390508
-4.99924 -0.935899 -1.26915 0.873782 0.180908 0.451417
-5.00645 -1.09422 -1.17355 0.9746 0.00373373 0.223922
-5.04001 -1.09411 -1.16812 0.897976 -0.29422 0.327223
-5.05104 -0.934532 -1.19339 0.941287 -0.105093 0.320832
-5.054 -1.25217 -1.05802 0.961417 0.16084 0.223175
-5.11923 -1.29077 -0.980493 0.973217 0.00384005 0.229855
-5.09076 -1.29267 -1.08655 0.961417 0.16084 0.223175
-5.10669 -1.25164 -1.02921 0.956546 0.0756526 0.281598
-5.12594 -1.23822 -0.978109 0.964757 0.0280644 0.261641
-5.10104 -1.13176 -1.03692 0.970493 0.0197742 0.240316
-5.12593 -1.17073 -0.979314 0.937347 0.209143 0.278638
-5.11919 -1.13079 -0.983349 0.937347 0.209143 0.278638
-5.1053 -1.13251 -1.07942 0.954958 -0.0344599 0.294734
-5.13147 -1.21092 -0.989806 0.969515 -0.0431496 0.241201
-5.1448 -1.26173 -0.886756 0.99876 -0.0392937 0.0305688
-5.12042 -1.29051 -0.965966 0.976197 0.0978589 0.193553
-5.14503 -1.24673 -0.887022 0.962634 -0.0199958 0.270067
-5.14161 -1.25156 -0.880221 0.962873 -0.00423317 0.269921
-5.15553 -1.29179 -0.88065 0.975303 -0.0440684 0.21643
-5.14381 -1.32671 -0.885601 0.91381 0.0132427 0.405926
-5.15225 -1.21208 -0.901069 0.949638 -0.0194841 0.312742
-5.00066 -1.32854 -0.993774 0.926096 0.186352 0.328055
-5.02833 -1.29204 -1.05047 0.961417 0.16084 0.223175
-5.03607 -1.24733 -1.06696 0.933636 0.10025 0.343909
-4.95106 -1.2925 -1.07469 0.82052 0.376936 0.429728
-5.15093 -0.931875 -0.894857 0.943103 0.059417 0.327149
-5.1491 -0.979305 -0.891775 0.992122 0.0329812 0.12086
-5.14929 -0.966809 -0.891997 0.944896 0.106473 0.309573
-5.14972 -1.01185 -0.893435 0.942649 0.0123607 0.333557
-5.14961 -1.09189 -0.894251 0.959716 -0.0119888 0.280717
-5.14179 -1.00981 -0.929709 0.944589 0.0450276 0.325152
-5.15996 -1.08884 -0.874712 0.944589 0.0450276 0.325152
-5.12146 -1.05059 -0.972492 0.935197 0.0452555 0.351224
-5.16215 -0.888849 -0.877176 0.958675 0.0284753 0.283074
-5.10773 -1.01171 -1.03574 0.931532 0.0769776 0.35542
-5.10771 -0.931727 -1.03717 0.943042 0.0370618 0.330602
-5.16219 -1.03633 -0.874542 0.958675 0.0284753 0.283074
-5.14624 -0.88979 -0.929638 0.951312 0.0525166 0.303724
-5.15429 -0.931847 -0.89039 0.918897 0.1154 0.377242
-5.08296 -1.09242 -1.07443 0.966201 -0.146477 0.212133
-5.15664 -0.968638 -0.864542 0.950169 0.0366843 0.30957
-5.12586 -0.930765 -0.983599 0.953759 0.0286453 0.299204
-5.1481 -0.971751 -0.889671 0.944072 0.035896 0.327779
-5.15488 -0.892056 -0.902279 0.981023 0.0497362 0.187402
-5.17394 -1.40707 -0.77293 0.904455 0.373725 0.205645
-5.12369 -1.33069 -0.845239 0.914179 0.154152 0.374853
-5.08985 -1.35648 -0.77763 0.902335 0.256595 0.346339
-5.18089 -1.41621 -0.724717 -0.832101 0.109176 -0.543773
-5.1831 -1.40629 -0.729378 0.88514 0.235227 0.401492
-5.19084 -1.36657 -0.745781 0.976278 0.0429765 0.212213
-5.10733 -1.38829 -0.723422 0.907078 0.379721 0.181717
-5.05086 -1.3674 -0.789809 0.946664 0.0368753 0.320106
-4.98429 -1.40811 -0.688116 -0.833434 0.299508 -0.464416
-4.87713 -1.38249 -0.652265 0.867351 0.436504 0.239095
-5.18386 -1.36739 -0.607633 0.964453 0.198772 0.174124
-4.96276 -1.44261 -0.51966 0.890801 0.00787063 0.454326
-5.19079 -1.2066 -0.748637 0.946664 0.0368753 0.320106
-5.16587 -1.13114 -0.837672 0.942649 0.0123607 0.333557
-5.21395 -1.28978 -0.717529 0.959804 0.0116822 0.280427
-5.18763 -1.25041 -0.776329 0.914179 0.154152 0.374853
-5.193 -1.16668 -0.753834 0.969869 0.0433585 0.239738
-5.20906 -1.16977 -0.723005 0.957932 0.0274979 0.285676
-5.17597 -1.24767 -0.808215 0.967849 0.0121043 0.25124
-5.17766 -1.17036 -0.783323 0.993089 -0.0223635 0.115216
-5.19303 -1.28666 -0.751691 0.956272 0.0994817 0.275039
-5.19188 -1.12665 -0.752307 0.960561 -0.0505378 0.273437
-5.1985 -1.0469 -0.767182 0.94345 0.0686236 0.324335
-5.19627 -1.00683 -0.763414 0.925393 -0.017145 0.378622
-5.18689 -0.930515 -0.787595 0.944896 0.106473 0.309573
-5.19519 -1.08678 -0.759744 0.945056 0.029256 0.325596
-5.21044 -0.930119 -0.745152 0.935963 0.0518245 0.348263
-5.17814 -1.08778 -0.815554 0.944589 0.0450276 0.325152
-5.19625 -1.00693 -0.769003 0.935197 0.0452555 0.351224
-5.18517 -0.970448 -0.784647 0.968194 -0.0599403 0.242916
-5.19403 -1.08693 -0.768681 0.945906 0.170053 0.276303
-5.21607 -1.00885 -0.667726 0.945752 0.0749289 0.31613
-5.21931 -1.08906 -0.675254 0.957932 0.0274979 0.285676
-5.19845 -0.886926 -0.770038 0.951635 0.0446425 0.303969
-5.21942 -0.929878 -0.723926 0.981023 0.0497362 0.187402
-5.16709 -1.05116 -0.839094 0.997018 -0.0175679 -0.0751472
-5.17227 -0.931167 -0.83676 0.94625 0.067113 0.316396
-5.20589 -1.00993 -0.737018 0.942649 0.0123607 0.333557
-5.22337 -0.969103 -0.676272 0.945752 0.0749289 0.31613
-5.23323 -1.20833 -0.620606 0.957932 0.0274979 0.285676
-5.20998 -1.12661 -0.544859 0.99077 0.108389 -0.0814094
-5.2261 -1.0883 -0.627196 0.998571 -0.0250927 -0.0471823
-5.23077 -0.928363 -0.628924 0.92678 0.0992148 0.362264
-5.08258 -0.813567 -1.14091 0.946085 0.0525462 0.319629
-5.07687 -0.653893 -1.16051 0.946866 0.02903 0.320315
-5.0758 -0.813828 -1.15541 0.946866 0.02903 0.320315
-5.09394 -0.772873 -1.10256 0.895404 0.219146 0.387591
-5.05772 -0.854583 -1.19709 0.935197 0.0452555 0.351224
-5.01911 -0.736645 -1.31306 0.933145 0.0455628 0.356602
-5.02363 -0.776498 -1.30455 0.928617 0.171105 0.329231
-5.03731 -0.815571 -1.25248 0.918358 0.147681 0.367164
-5.02808 -0.656477 -1.30448 0.946085 0.0525462 0.319629
-5.04179 -0.775537 -1.25098 0.813861 0.0812109 0.575357
-5.01582 -0.856507 -1.3042 0.939261 0.0766466 0.334535
-5.05515 -0.455465 -1.25005 0.952157 0.0677873 0.297998
-5.06199 -0.494999 -1.22366 0.946085 0.0525462 0.319629
-5.08015 -0.534031 -1.16938 0.943387 0.0213674 0.331005
-5.09829 -0.493076 -1.11652 0.943387 0.0213674 0.331005
-5.09145 -0.453542 -1.14291 0.946664 0.0368753 0.320106
-5.03253 -0.536455 -1.3044 0.933404 0.0376861 0.356843
-5.03252 -0.496461 -1.30512 0.946403 0.0447145 0.319877
-5.14618 -0.769909 -0.937369 0.946664 0.0368753 0.320106
-5.16076 -0.652235 -0.911018 0.967921 0.0427581 0.247589
-5.15721 -0.812134 -0.905938 0.967921 0.0427581 0.247589
-5.14846 -0.809782 -0.929959 0.946403 0.0447145 0.319877
-5.13927 -0.770669 -0.979814 0.946085 0.0525462 0.319629
-5.16544 -0.768987 -0.886042 0.960321 0.0204045 0.278148
-5.15904 -0.692167 -0.90807 0.988995 0.140413 -0.0466091
-5.15843 -0.732156 -0.90736 0.938623 0.0282821 0.343782
-5.11318 -0.691963 -1.05266 0.944852 0.0371449 0.325384
-5.16873 -0.649125 -0.894908 0.953327 0.0758701 0.292252
-5.111 -0.811865 -1.04603 0.918566 0.0852105 0.385973
-5.14847 -0.849776 -0.929245 0.933995 0.147144 0.325579
-5.1642 -0.57237 -0.916915 0.994893 0.0403768 0.0925051
-5.13 -0.491593 -1.03395 0.939648 0.0215522 0.341462
-5.17604 -0.532055 -0.889696 0.946227 0.0201267 0.322876
-5.1663 -0.449676 -0.927531 0.946664 0.0368753 0.320106
-5.14594 -0.570639 -0.980064 0.945056 0.029256 0.325596
-5.17089 -0.449236 -0.902961 0.953556 0.0364888 0.298999
-5.18462 -0.411734 -0.866127 0.939781 0.0517071 0.337844
-5.13462 -0.57114 -1.00796 0.948172 0.0448378 0.314579
-5.18222 -0.488729 -0.874355 0.94864 0.0290661 0.315018
-5.18512 -0.45178 -0.867654 0.982078 0.0104024 0.188189
-5.16775 -0.41247 -0.921995 0.954845 0.019788 0.296444
-5.09937 -0.373134 -1.12091 0.946866 0.02903 0.320315
-5.08445 -0.254434 -1.19452 0.937074 0.0453901 0.346167
-5.04368 -0.296391 -1.30316 0.94057 0.0530856 0.335426
-5.04814 -0.216363 -1.30237 0.946866 0.02903 0.320315
-5.0526 -0.136335 -1.30158 0.952252 0.0209799 0.304591
-5.0889 -0.126913 -1.19458 0.946664 0.0368753 0.320106
-5.07075 -0.135373 -1.24802 0.937335 0.0375105 0.346405
-5.07745 -0.055325 -1.24612 0.952106 0.0288727 0.304403
-5.07293 -0.0154719 -1.25464 0.943472 0.0135146 0.331176
-5.09111 -0.0944978 -1.19964 0.952106 0.0288727 0.304403
-5.07299 -0.135353 -1.24691 0.950598 -0.00257259 0.310415
-5.05037 -0.176349 -1.30198 0.946664 0.0368753 0.320106
-5.13896 -0.25135 -1.02263 0.95215 0.0915095 0.291609
-5.16947 -0.372538 -0.924943 0.967202 0.0584801 0.247186
-5.1718 -0.292616 -0.928602 0.993345 -0.0065706 0.114993
-5.17418 -0.329374 -0.911826 0.954979 0.0444417 0.293325
-5.18701 -0.252174 -0.891327 0.939781 0.0517071 0.337844
-5.1208 -0.212318 -1.07692 0.947849 0.0527129 0.314331
-5.13789 -0.371291 -1.01825 0.941151 0.03733 0.335917
-5.17241 -0.252627 -0.929312 0.951868 0.0592964 0.300717
-5.17966 -0.129605 -0.926603 0.944852 0.0371449 0.325384
-5.12296 -0.132509 -1.08842 0.937074 0.0453901 0.346167
-5.17484 -0.0926708 -0.932155 0.973463 0.0345559 0.226219
-5.19046 -0.17221 -0.891634 0.922355 0.0287545 0.385272
-5.12189 -0.172364 -1.07987 0.946866 0.02903 0.320315
-5.19333 -0.132037 -0.880051 0.94942 0.0357847 0.311964
-5.12519 -0.0924954 -1.08802 0.952594 0.0599769 0.298275
-5.17363 -0.172649 -0.930734 0.973463 0.0345559 0.226219
-5.16147 -0.0105851 -0.982314 0.853857 0.213951 0.474503
-5.19781 -0.128643 -0.873034 0.946664 0.0368753 0.320106
-5.17656 -0.0527384 -0.935103 0.977638 0.0498773 0.204296
-5.14333 -0.0515403 -1.03517 0.952594 0.0599769 0.298275
-5.19781 -0.128643 -0.873034 0.945202 0.0213622 0.325788
-5.20284 -0.72711 -0.78186 0.94057 0.0530856 0.335426
-5.23191 -0.849178 -0.67506 0.943484 0.0515832 0.327379
-5.19844 -0.834434 -0.770976 0.953759 0.0286453 0.299204
-5.19734 -0.846892 -0.768511 0.94864 0.0290661 0.315018
-5.21115 -0.810095 -0.745046 0.967921 0.0427581 0.247589
-5.23086 -0.769483 -0.694364 0.924982 0.0679848 0.373879
-5.1962 -0.846953 -0.771859 0.980398 -0.0440347 0.192041
-5.20504 -0.687196 -0.787056 0.941355 0.0294421 0.336132
-5.23039 -0.649997 -0.725557 0.938623 0.0282821 0.343782
-5.18476 -0.807859 -0.822822 0.938636 0.139251 0.315549
-5.20065 -0.807018 -0.775949 0.944852 0.0371449 0.325384
-5.20285 -0.767104 -0.781145 0.946403 0.0447145 0.319877
-5.187 -0.767845 -0.822429 0.936756 0.053262 0.345907
-5.1859 -0.771282 -0.83403 0.934724 0.0284057 0.354238
-5.19371 -0.850523 -0.783436 0.906691 0.0133826 0.421584
-5.19817 -0.647762 -0.819037 0.940191 0.0609504 0.33515
-5.20733 -0.690638 -0.780706 0.938623 0.0282821 0.343782
-5.20722 -0.567294 -0.793681 0.952252 0.0209799 0.304591
-5.24631 -0.568574 -0.6331 0.967921 0.0427581 0.247589
-5.18905 -0.488268 -0.848678 0.934883 0.0530827 0.350965
-5.23669 -0.530059 -0.72546 0.965369 0.035048 0.258523
-5.20613 -0.607248 -0.790725 0.947096 0.0133266 0.320675
-5.22098 -0.530455 -0.761208 0.948139 0.00435018 0.317825
-5.20016 -0.57101 -0.809653 0.938623 0.0282821 0.343782
-5.20831 -0.487347 -0.79735 0.945056 0.029256 0.325596
-5.24129 -0.449854 -0.711237 0.944072 0.035896 0.327779
-5.20038 -0.527761 -0.820072 0.936379 0.0611248 0.345627
-5.20189 -0.531078 -0.812602 0.926381 0.0365219 0.374811
-5.2083 -0.447353 -0.798064 0.946866 0.02903 0.320315
-5.23707 -0.808424 -0.628828 0.998109 0.0379932 -0.0483272
-5.24052 -0.72846 -0.629134 0.938623 0.0282821 0.343782
-5.24398 -0.648496 -0.629441 0.943103 0.059417 0.327149
-5.24649 -0.487746 -0.58757 0.991421 0.036441 -0.125525
-5.24383 -0.209862 -0.713264 0.939781 0.0517071 0.337844
-5.20928 -0.287718 -0.81993 0.942139 0.108165 0.317293
-5.25725 -0.288991 -0.651499 0.939781 0.0517071 0.337844
-5.21048 -0.327451 -0.804689 0.943387 0.0213674 0.331005
-5.25897 -0.249058 -0.654447 0.961047 0.0273526 0.275029
-5.242 -0.32983 -0.711131 0.992287 0.0487332 0.113985
-5.22341 -0.370499 -0.764051 0.939781 0.0517071 0.337844
-5.23647 -0.250106 -0.732664 0.957131 0.0510243 0.285125
-5.2532 -0.408845 -0.644893 0.938149 0.0440615 0.343416
-5.21049 -0.367445 -0.803975 0.973101 0.0195656 0.229546
-5.21157 -0.247504 -0.808358 0.964757 0.0280644 0.261641
-5.21266 -0.20755 -0.811314 0.95215 0.0915095 0.291609
-5.26363 -0.0892153 -0.661765 0.940722 0.0203219 0.338569
-5.25082 0.0299021 -0.72424 0.94942 0.0357847 0.311964
-5.21831 0.0358705 -0.838346 0.977638 0.0498773 0.204296
-5.21485 -0.127642 -0.817224 0.944589 0.0450276 0.325152
-5.21597 -0.167675 -0.818751 0.961272 0.122845 0.246709
-5.21704 -0.00774047 -0.823849 0.944852 0.0371449 0.325384
-5.21924 0.0321738 -0.829045 0.935654 0.0295799 0.351677
-5.21596 -0.107685 -0.819823 0.952339 0.0130838 0.304761
-5.21705 -0.0477341 -0.823135 0.964282 0.0438072 0.26123
-5.23051 -0.0506991 -0.774212 0.940722 0.0203219 0.338569
-5.2182 0.0283725 -0.838213 0.961052 -0.0197125 0.275662
-5.25021 -0.010087 -0.723529 0.959714 0.019575 0.280296
-5.2107 -0.205186 -0.478464 0.991421 0.036441 -0.125525
-5.26254 -0.167904 -0.587683 0.989106 0.0441604 -0.140422
-5.21131 -0.165197 -0.479175 0.998251 0.0540916 -0.0238343
-5.201 0.0356278 -0.444701 0.999657 0.022876 -0.0127873
-5.09147 -0.120472 -0.316499 0.993385 0.0327724 0.110054
-5.0729 0.104509 -1.25678 0.945202 0.0213622 0.325788
-5.07962 0.224651 -1.25002 0.945043 -0.0181263 0.326442
-5.12843 0.227335 -1.10046 0.947096 0.0133266 0.320675
-5.10002 0.185639 -1.19463 0.952252 0.0209799 0.304591
-5.07742 0.064656 -1.24827 0.937335 0.0375105 0.346405
-5.10224 0.265647 -1.19495 0.947123 0.00547152 0.320825
-5.11819 0.146607 -1.14034 0.95891 0.0126961 0.283426
-5.13401 0.467497 -1.09359 0.943378 -0.0100488 0.331566
-5.09319 0.405344 -1.21305 0.945315 0.00556638 0.326111
-5.07957 0.404623 -1.25323 0.950629 0.00528234 0.310284
-5.10221 0.405625 -1.19745 0.924266 0.0616015 0.376746
