ply
format ascii 1.0
element vertex 851
property double x
property double y
property double z
property double nx
property double ny
property double nz
end_header
-0.280378 -1.18809 -1.8778 -0.166496 -0.369423 0.914224
-0.30558 -1.15883 -1.86185 -0.401583 -0.0545922 0.914194
-0.23677 -1.10805 -1.87566 -0.0470733 -0.274612 0.960402
-0.231256 -1.18784 -1.86303 -0.288362 -0.17896 0.940649
-0.240102 -1.14816 -1.88167 -0.318875 0.127423 0.939192
-0.65655 -1.02708 -2.00461 -0.219446 -0.157006 0.962908
-0.630852 -1.06695 -1.9971 -0.173849 -0.0621738 0.982808
-0.586259 -1.02655 -1.9752 0.247624 -0.173449 -0.953204
-0.566019 -0.987002 -2.00261 -0.173849 -0.0621738 0.982808
-0.499127 -1.02931 -1.95104 -0.519208 0.0153993 0.854509
-0.543831 -1.06939 -1.95613 -0.392683 -0.0703307 0.916981
-0.561681 -1.06953 -1.96404 -0.304948 0.00918722 0.952325
-0.496874 -0.989336 -1.95286 0.366969 -0.448212 -0.815132
-0.452003 -0.986867 -1.99757 -0.0787668 0.0875416 0.993042
-0.559418 -0.989564 -1.96658 -0.304948 0.00918722 0.952325
-0.559407 -0.94957 -1.96729 0.459973 -0.000182429 -0.887933
-0.45202 -0.946873 -1.99825 -0.408967 -0.000446334 0.912549
-0.42529 -1.06631 -1.96479 -0.118343 0.101261 -0.987796
-0.396225 -0.989454 -1.95795 -0.335831 0.0877653 0.937824
-0.43205 -0.98627 -1.96282 -0.27283 0.0477142 0.960878
-0.375993 -1.02671 -1.98981 -0.173849 -0.0621738 0.982808
-0.345125 -1.04571 -1.93989 0.23379 0.310788 -0.921278
-0.372644 -1.0806 -1.90588 0.0240217 0.0470814 -0.998602
-0.389735 -1.04621 -1.91553 0.0506206 -0.0178443 -0.998559
-0.359402 -1.02924 -1.94476 -0.240168 0.0802094 0.967412
-0.38992 -1.04143 -1.94013 0.212676 -0.0756517 -0.97419
-0.31136 -1.02912 -1.93782 -0.519208 0.0153993 0.854509
-0.27116 -1.06899 -1.92908 0.0505708 -0.0571201 -0.997086
-0.255136 -1.07927 -1.93899 0.00587958 0.0781493 -0.996924
-0.333704 -1.06921 -1.9428 0.187865 0.132163 -0.973262
-0.383725 -0.910128 -1.99621 -0.240651 0.025265 0.970283
-0.371673 -0.906382 -1.9717 0.26222 -0.0162351 -0.964872
-0.389704 -0.928726 -1.91763 0.493139 -0.0942392 -0.864831
-0.346718 -0.94574 -1.94153 0.112328 0.00904614 -0.99363
-0.344868 -0.909137 -1.94013 0.117626 -0.0965113 -0.988357
-0.391912 -0.908809 -1.92247 -0.240651 0.025265 0.970283
-0.370757 -0.920428 -1.89954 -0.667044 0.143137 0.731139
-0.362812 -0.918573 -1.95356 0.213159 -0.0164599 -0.976879
-0.37694 -0.880711 -1.9114 0.0780177 -0.243618 -0.966728
-0.286818 -0.948862 -1.92348 0.187865 0.132163 -0.973262
-0.300256 -0.908746 -1.91755 -0.0939609 0.0612307 -0.993691
-0.257512 -0.920047 -1.98633 -0.00896109 -0.095259 -0.995412
-0.264392 -0.909072 -1.93526 -0.299661 0.0406632 0.953179
-0.358569 -1.0282 -1.88663 0.187865 0.132163 -0.973262
-0.336362 -0.987609 -1.8537 0.0373169 0.00996531 0.999254
-0.37649 -0.988041 -1.87849 -0.00213558 0.00576171 -0.999981
-0.237844 -0.988106 -1.88004 -0.674193 0.0449191 0.737188
-0.331736 -1.06824 -1.88802 -0.674193 0.0449191 0.737188
-0.229005 -1.05278 -1.86095 -0.0648513 -0.100582 0.992813
-0.278348 -1.03873 -1.88383 -0.184925 0.0998177 0.97767
-0.282592 -1.08808 -1.87848 0.0506206 -0.0178443 -0.998559
-0.22126 -1.0675 -1.845 -0.318294 -0.20411 0.925758
-0.310148 -1.01148 -1.86875 -0.184925 0.0998177 0.97767
-0.265545 -0.998634 -1.89115 0.137993 -0.0131632 0.990346
-0.319308 -0.999054 -1.86451 -0.17959 0.0132807 0.983652
-0.27703 -0.987899 -1.86906 -0.0154484 -0.0450296 0.998866
-0.240069 -1.02818 -1.88381 -0.318294 -0.20411 0.925758
-0.367901 -0.960309 -1.89441 -0.00896109 -0.095259 -0.995412
-0.305604 -0.878689 -1.85748 -0.0279665 -0.237147 0.971071
-0.333907 -0.908341 -1.89536 -0.232965 -0.108307 0.966435
-0.232174 -0.918064 -1.8901 0.00982155 0.267807 0.963423
-0.221195 -0.980058 -1.86892 -0.00896109 -0.095259 -0.995412
-0.317705 -0.959047 -1.86628 0.00982155 0.267807 0.963423
-0.23893 -0.908159 -1.88371 -0.234514 0.0648162 0.96995
-0.212349 -1.1172 -1.85322 -0.59812 0.239244 0.764863
-0.144174 -1.31441 -1.89893 -0.0360676 0.275199 0.960711
-0.189959 -1.31768 -1.90129 -0.0360676 0.275199 0.960711
0.0923322 -1.2736 -1.92775 -0.240172 0.0749318 0.967834
0.0883444 -1.29437 -1.96992 -0.550914 0.138578 0.822976
0.0281801 -1.31483 -1.93963 -0.00172109 0.103211 0.994658
0.0162626 -1.26993 -1.93482 -0.0893653 -0.134703 0.986848
0.208007 -1.23197 -1.9414 -0.240172 0.0749318 0.967834
0.135068 -1.274 -1.99355 -0.550914 0.138578 0.822976
0.213389 -1.29869 -1.8978 -0.469023 0.022786 0.882892
-0.200604 -0.998036 -1.91774 -0.343148 -0.0844893 0.935474
-0.190911 -0.959018 -1.98767 0.274453 0.233314 -0.932867
-0.174164 -0.958659 -1.98202 -0.341209 0.0570487 0.938255
-0.211262 -0.93966 -1.8271 0.0373169 0.00996531 0.999254
-0.817921 -0.830035 -2.17648 -0.250727 0.0947818 0.963407
-0.847061 -0.829804 -2.16209 0.607741 0.192602 -0.770426
-0.898647 -0.761905 -2.13778 -0.250727 0.0947818 0.963407
-0.773328 -0.789639 -2.15458 0.537642 -0.0140508 -0.843056
-0.737448 -0.824919 -2.1717 -0.250727 0.0947818 0.963407
-0.706285 -0.829409 -2.14239 0.636925 -0.177622 -0.750185
-0.845024 -0.869059 -2.11781 0.347229 -0.0236323 -0.937482
-0.733478 -0.788254 -2.0739 -0.595497 0.013351 0.803247
-0.684307 -0.83807 -2.06386 0.0762263 -0.0935176 0.992695
-0.780395 -0.828349 -2.07792 -0.300691 0.18121 0.936348
-0.708647 -0.868912 -2.11266 -0.113805 0.024635 0.993198
-0.886936 -0.707474 -2.02459 -0.356646 0.376677 0.854937
-0.730617 -0.74663 -1.97842 -0.251112 -0.244239 0.936638
-0.684778 -0.771564 -1.97554 -0.251112 -0.244239 0.936638
-1.20271 -0.0308798 -2.22324 -0.290466 0.440728 0.849346
-1.27422 -0.0310685 -2.23253 -0.556758 -0.167574 0.813597
-1.03039 -0.230989 -2.23241 0.11096 -0.292912 -0.949679
-0.925464 -0.19041 -2.20127 -0.00209869 -0.00907073 -0.999957
-0.699566 -0.310294 -2.19924 0.0794422 -0.0459609 0.995779
-0.730726 -0.310803 -2.22846 0.0794422 -0.0459609 0.995779
-0.745456 -0.230273 -2.19747 0.111652 -0.0226078 0.99349
-0.737699 -0.250001 -2.18144 0.111652 -0.0226078 0.99349
-0.744449 -0.189956 -2.17914 -0.445811 -0.278202 0.850797
-0.781321 -0.229988 -2.17976 -0.458304 -0.0717589 0.885894
-0.71114 -0.22908 -2.12799 -0.244523 -0.0783639 0.966472
-1.07311 -0.110384 -2.19665 -0.323682 0.14114 0.93558
-1.02379 -0.128273 -2.2207 -0.0716716 -0.0933061 0.993054
-0.983652 -0.150332 -2.19553 -0.00209869 -0.00907073 -0.999957
-1.01953 -0.110053 -2.1785 -0.370971 0.133581 0.918987
-1.01831 0.00939979 -2.21182 -0.0267892 -0.213627 -0.976548
-0.942138 -0.0310095 -2.2376 -0.0267892 -0.213627 -0.976548
-0.970277 0.0220366 -2.20509 -0.393411 0.320079 0.861846
-0.863072 -0.0972844 -2.16676 -0.359797 -0.118211 0.925512
-0.829222 -0.110807 -2.22786 -0.0716716 -0.0933061 0.993054
-0.755447 -0.165628 -2.21874 0.111652 -0.0226078 0.99349
-0.684158 -0.167181 -2.16469 -0.320917 0.0159062 0.946974
-0.844968 0.0167994 -2.22227 -0.393411 0.320079 0.861846
-0.840537 0.00945434 -2.21318 -0.544259 0.344417 0.764957
-0.888561 -0.0306786 -2.21945 0.0303209 -0.163848 0.986019
-0.809548 0.0230294 -2.15064 -0.320917 0.0159062 0.946974
-0.844945 -0.0356931 -2.22138 0.0303209 -0.163848 0.986019
-0.791592 -0.0296053 -2.1586 -0.359797 -0.118211 0.925512
-0.728292 0.0118237 -2.07625 -0.289186 0.0160923 0.957138
-0.637442 -0.867682 -2.04188 -0.141836 0.0480989 0.988721
-0.577176 -0.787416 -2.02841 -0.508244 -0.175166 0.843211
-0.458559 -0.867589 -2.041 -0.408967 -0.000446334 0.912549
-0.523194 -0.703612 -2.10113 0.27195 0.252004 -0.928729
-0.426973 -0.828601 -2.10189 0.310474 0.236281 -0.920748
-0.35088 -0.868726 -2.1109 0.310474 0.236281 -0.920748
-0.409327 -0.867696 -2.04858 0.480899 -0.147653 -0.864254
-0.427491 -0.843171 -2.01285 -0.0956918 0.0384027 0.99467
-0.362397 -0.857597 -2.04405 0.121389 0.0874298 0.988747
-0.316402 -0.830951 -2.04202 -0.352234 0.0246551 0.935587
-0.333277 -0.842984 -2.09299 -0.16236 0.00571897 0.986715
-0.31751 -0.830991 -2.04426 -0.38781 0.204966 0.898661
-0.317689 -0.827578 -2.04434 0.667844 -0.0751249 -0.740501
-0.353349 -0.73818 -2.02821 -0.402225 0.118666 0.907818
-0.368948 -0.748317 -2.08731 0.0689771 0.111307 0.991389
-0.336577 -0.668255 -2.08515 -0.320917 0.0159062 0.946974
-0.308577 -0.550718 -2.03133 -0.320872 0.0169965 0.94697
-0.60202 -0.866451 -1.97016 0.15617 0.196393 -0.968009
-0.595323 -0.801514 -1.97459 0.607741 0.192602 -0.770426
-0.544884 -0.869466 -1.96194 -0.202164 0.04905 0.978123
-0.50457 -0.789646 -1.97212 0.086861 0.292378 0.95235
-0.450992 -0.789336 -1.95397 -0.408927 0.032127 0.912001
-0.543684 -0.829732 -1.97718 0.423596 -0.204994 -0.882351
-0.577449 -0.666675 -1.98573 0.0762263 -0.0935176 0.992695
-0.464244 -0.669832 -1.983 -0.240661 0.017394 0.970454
-0.50594 -0.666486 -1.97643 0.341598 0.0234779 -0.939553
-0.527971 -0.749887 -1.98636 -0.0608763 0.229287 0.971453
-0.555054 -0.746652 -1.98426 0.026792 0.353432 0.935076
-0.51263 -0.746422 -1.97176 0.026792 0.353432 0.935076
-0.452346 -0.70615 -1.9576 0.441369 0.127021 -0.88829
-0.470046 -0.734261 -1.993 0.097541 0.261159 0.960355
-0.362862 -0.803589 -1.95551 -0.251112 0.0713309 0.965326
-0.412149 -0.865689 -1.9301 0.121389 0.0874298 0.988747
-0.445635 -0.865896 -1.94145 -0.351784 0.0705547 0.933418
-0.432057 -0.869147 -1.94239 -0.538158 -0.150057 0.829379
-0.409925 -0.825713 -1.93189 0.121389 0.0874298 0.988747
-0.350805 -0.840054 -1.89743 0.0817232 0.16591 -0.982749
-0.351571 -0.829089 -1.93823 -0.254367 0.142993 0.956478
-0.38858 -0.868696 -1.91646 -0.0939609 0.0612307 -0.993691
-0.409943 -0.785719 -1.93256 0.236742 0.141084 -0.961275
-0.350137 -0.800833 -1.94615 0.326706 0.100354 -0.939783
-0.386344 -0.788629 -1.91341 -0.299661 0.0406632 0.953179
-0.369594 -0.786038 -1.95249 0.236742 0.141084 -0.961275
-0.272131 -0.869356 -1.95166 -0.299661 0.0406632 0.953179
-0.318178 -0.868589 -1.90941 -0.538158 -0.150057 0.829379
-0.254396 -0.788734 -1.91723 -0.462272 -0.197168 0.86454
-0.434183 -0.729546 -2.01079 -0.245202 0.0795118 0.966206
-0.411981 -0.746464 -1.97685 0.441369 0.127021 -0.88829
-0.349455 -0.70621 -1.9638 -0.114065 0.189706 0.975193
-0.369546 -0.706334 -1.97061 0.469514 -0.360347 -0.806044
-0.416504 -0.653942 -1.9762 0.131424 0.148684 -0.980113
-0.402926 -0.641953 -1.96572 0.320265 -0.0575144 -0.945581
-0.389644 -0.708761 -1.92156 -0.320872 0.0169965 0.94697
-0.376372 -0.666002 -1.9512 0.341598 0.0234779 -0.939553
-0.224473 -0.75408 -1.96208 -0.468733 -0.11887 0.875305
-0.315098 -0.68053 -1.96363 -0.468733 -0.11887 0.875305
-0.315736 -0.64054 -1.96429 -0.137558 -0.0184447 -0.990322
-0.263286 -0.718655 -1.89907 0.28632 0.154499 -0.945596
-0.253256 -0.668713 -1.91713 -0.589998 0.179064 0.787299
-0.289257 -0.868056 -1.87909 0.0620582 -0.0137203 0.997978
-0.241133 -0.868244 -1.88891 -0.232965 -0.108307 0.966435
-0.23779 -0.788138 -1.88361 -0.462272 -0.197168 0.86454
-0.318392 -0.850294 -1.86501 0.0620582 -0.0137203 0.997978
-0.270644 -0.678718 -1.8964 0.28632 0.154499 -0.945596
-0.512237 -0.590055 -1.99696 0.0339313 0.245096 0.968905
-0.514478 -0.587535 -1.9959 -0.614163 0.069432 0.786119
-0.411818 -0.629369 -1.95663 0.117115 0.107863 -0.987243
-0.409131 -0.602144 -1.97199 -0.319869 0.0104501 0.947404
-0.242121 -0.428354 -1.89901 0.104382 0.00196608 0.994535
-0.276921 -0.587963 -1.8762 -0.212027 -0.0846771 0.973588
-0.308956 -0.598707 -1.85984 -0.468733 -0.11887 0.875305
-0.295594 -0.518934 -1.88793 -0.286028 -0.359873 0.888076
-0.21821 -0.798796 -1.95014 0.285291 0.169785 -0.943282
-0.192568 -0.798092 -1.93216 -0.303024 0.261969 0.916269
-0.160241 -0.71785 -1.95012 -0.560199 -0.208677 0.801643
-0.187277 -0.838777 -1.97844 0.0780177 -0.243618 -0.966728
-0.661476 -0.270602 -2.21873 0.0794422 -0.0459609 0.995779
-0.612395 -0.24274 -2.19883 -0.0857819 -0.228089 0.969854
-0.658228 -0.230303 -2.20151 -0.395321 0.352892 0.84805
-0.362202 -0.291693 -2.14309 0.320917 -0.0159062 -0.946974
-0.353339 -0.308883 -2.12487 -0.320917 0.0159062 0.946974
-0.612424 -0.175249 -2.19998 -0.395321 0.352892 0.84805
-0.630137 -0.173365 -2.23588 -0.184083 0.298836 0.936382
-0.497551 -0.109327 -2.14909 -0.60395 0.01324 0.796913
-0.505306 -0.0945987 -2.16503 0.205218 -0.243997 -0.947814
-0.487621 -0.0339919 -2.13019 -0.504203 0.0144112 0.863465
-0.631105 0.0196383 -2.06024 -0.468049 -0.104093 0.87755
-0.450977 0.00361828 -2.04691 -0.0777526 -0.205849 0.97549
-0.372608 -0.123985 -2.12727 0.0208794 0.00886686 0.999743
-0.242769 -0.122605 -2.16928 -0.307683 -0.219184 0.925899
-0.360602 -0.0339034 -2.1354 -0.463632 0.296472 0.834955
-0.407037 -0.0292538 -2.14776 -0.310928 0.408311 0.858258
-0.289755 0.0191425 -2.17178 -0.158177 -0.198449 0.967263
-0.352513 -0.123553 -2.12049 0.0208794 0.00886686 0.999743
-0.24527 -0.121526 -2.10109 -0.128139 0.342762 0.930642
-0.432604 -0.0144683 -2.10022 0.0208794 0.00886686 0.999743
-0.409725 -0.0442856 -2.11082 -0.310466 -0.186651 0.932079
-0.380476 -0.0158325 -2.09418 0.146372 0.0168236 0.989087
-0.336856 -0.0283459 -2.09599 0.146372 0.0168236 0.989087
-0.397121 0.00830566 -2.11834 -0.0777526 -0.205849 0.97549
-0.348433 0.0483562 -2.08919 -0.332244 -0.227867 0.915254
-0.433621 0.00913671 -2.04642 -0.332244 -0.227867 0.915254
-0.446421 -0.00366201 -2.03783 -0.212093 0.0126562 0.977167
-0.308414 0.0491872 -2.04205 -0.320872 0.0169965 0.94697
-0.317276 0.0288726 -2.05962 -0.320872 0.0169965 0.94697
-0.448038 -0.306242 -1.96659 0.272068 0.180885 -0.945124
-0.39893 -0.338371 -1.94568 -0.320917 0.0159062 0.946974
-0.274631 -0.307928 -1.87672 -0.396263 -0.204961 0.894967
-0.285033 -0.198804 -1.89535 0.606828 0.0516987 -0.79315
-0.232667 -0.260246 -1.88073 0.606828 0.0516987 -0.79315
-0.349734 -0.0663012 -1.97465 -0.320917 0.0159062 0.946974
-0.363176 -0.083692 -1.96771 0.320917 -0.0159062 -0.946974
-0.395704 -0.121236 -1.93731 0.0370245 -0.102595 -0.994034
-0.352735 -0.0805851 -1.94004 0.0496001 -0.0155985 -0.998647
-0.243152 -0.148438 -1.90625 -0.535526 0.140956 0.832672
-0.331661 -0.0795508 -1.89749 0.0105493 -0.220047 0.975432
-0.242702 -0.118164 -1.89875 -0.100306 0.0779378 0.991899
-0.424875 0.00735409 -2.00609 -0.320872 0.0169965 0.94697
-0.337944 0.039926 -1.92518 0.0594959 0.0318661 -0.99772
-0.317721 0.00547352 -1.96974 0.254367 -0.142993 -0.956478
-0.282344 -0.173227 -1.89481 -0.535526 0.140956 0.832672
-0.32389 -0.149206 -1.8829 -0.287133 0.152472 0.945678
-0.288372 0.00178331 -1.85951 0.334026 0.0529663 -0.941075
-0.228448 -0.037423 -1.8687 0.124057 0.159656 0.979347
-0.224046 0.0422801 -1.89235 -0.302548 0.427048 0.852112
-0.325171 0.00080937 -1.88312 0.124057 0.159656 0.979347
-0.216159 -0.100267 -2.20532 -0.346576 -0.195988 0.917319
-0.215974 -0.12203 -2.16024 0.0208794 0.00886686 0.999743
-0.118937 0.0391182 -2.18709 -0.471583 0.376793 0.797268
-0.218549 0.0496943 -2.20778 -0.0685255 -0.110433 0.991518
-0.19901 -0.0619053 -2.1701 0.0208794 0.00886686 0.999743
-0.173014 -0.160682 -2.11918 -0.319869 0.0104501 0.947404
-0.126439 -0.137363 -2.11491 0.104901 -0.187203 -0.976704
-0.0395173 0.0215262 -2.11717 -0.150472 0.155446 0.976317
0.166283 0.00569913 -2.06244 0.0638851 -0.0377313 0.997244
-0.209022 -0.19757 -1.89396 0.606828 0.0516987 -0.79315
-0.110302 -0.0760831 -1.90116 -0.357704 0.221056 0.907294
-0.123306 0.0433412 -1.92552 0.423943 -0.0475426 -0.90444
-0.121966 -0.0369121 -1.94098 0.0292415 -0.290814 -0.956333
-0.123778 0.00329721 -1.92711 -0.178522 0.147072 0.972882
0.00892536 0.0440989 -2.00777 0.469454 0.284594 -0.835835
-0.0227835 0.0453162 -1.9028 -0.319869 0.0104501 0.947404
-0.0227835 0.0453162 -1.9028 -0.319869 0.0104501 0.947404
-0.135581 -0.0362859 -1.8896 0.190417 -0.0130747 -0.981616
-0.21986 0.012371 -1.86204 -0.319677 -0.0701176 0.944929
0.015624 0.0442428 -2.00551 0.608627 -0.00332142 -0.793449
0.174172 0.0475863 -1.95575 -0.319869 0.0104501 0.947404
0.330537 -1.34954 -1.90993 -0.159549 0.29637 0.941652
0.372134 -1.4292 -1.9286 -0.179767 -0.19954 0.963259
0.251393 -1.45441 -1.82354 -0.325156 0.0103363 0.945604
0.252667 -1.53439 -1.82223 0.367311 -0.0330719 -0.92951
0.264487 -1.35019 -1.88558 -0.264097 0.192799 0.94503
0.411312 -1.37744 -1.85996 -0.263837 0.200393 0.943521
0.376107 -1.41771 -1.84155 0.570019 0.200717 -0.796738
0.560072 -1.46407 -1.79759 0.0693914 0.0727159 0.994936
0.663142 -1.47503 -1.80371 0.402697 -0.118616 -0.907615
0.501221 -1.406 -1.85915 -0.311833 0.394522 0.864357
0.572716 -1.41397 -1.80506 -0.011352 0.0543773 -0.998456
0.572955 -1.42897 -1.80482 0.0693914 0.0727159 0.994936
0.605224 -1.34382 -1.82845 0.396071 0.0541457 -0.916622
0.28555 -1.32812 -1.93282 -0.469023 0.022786 0.882892
0.336129 -1.22809 -1.82915 -0.649459 -0.00573335 0.760375
0.311805 -1.30896 -1.857 -0.456387 -0.0714792 0.886906
0.337916 -1.27052 -1.82621 -0.649459 -0.00573335 0.760375
0.299968 -1.26905 -1.8521 -0.550914 0.138578 0.822976
0.419157 -1.30739 -1.86555 -0.15448 -0.279369 0.947676
0.401236 -1.30753 -1.85667 -0.315308 -0.29724 0.901237
0.268593 -1.1899 -1.87476 -0.649459 -0.00573335 0.760375
0.516578 -1.25517 -1.82577 -0.437941 0.314154 0.842327
0.660713 -1.32257 -1.80622 -0.387938 0.0639965 0.919461
0.767401 -1.26924 -1.86035 0.35469 -0.425122 -0.832746
0.745591 -1.01518 -1.90037 -0.315975 0.222178 0.922386
0.798981 -1.00153 -1.88249 -0.319869 0.0104501 0.947404
0.859435 -1.01959 -1.8227 -0.190417 0.0130747 0.981616
0.537204 -1.45528 -1.69718 -0.566141 0.224408 0.793175
0.574042 -1.51748 -1.71391 0.261698 0.343507 -0.901952
0.580523 -1.50244 -1.71749 0.402697 -0.118616 -0.907615
0.598308 -1.34305 -1.77482 -0.178213 -0.137163 0.974385
0.644262 -1.44548 -1.66114 -0.21814 0.45934 0.861058
0.68238 -1.53866 -1.58567 0.447868 0.339737 -0.827039
0.753511 -1.57315 -1.62285 -0.183029 -0.223488 0.957368
0.735861 -1.42041 -1.74618 -0.329343 -0.265419 0.906138
0.788834 -1.37936 -1.73434 -0.375805 0.166512 0.911616
0.783738 -1.3395 -1.73837 -0.457388 -0.309673 0.833606
0.750288 -1.3404 -1.76085 0.349 -0.191174 -0.917416
0.725712 -1.34087 -1.76541 -0.351655 0.0967134 0.931121
0.835702 -1.37826 -1.71293 -0.375805 0.166512 0.911616
0.786406 -1.38791 -1.64364 -0.666769 -0.0456169 0.743867
0.67285 -1.26102 -1.72443 -0.431439 -0.0629126 0.899946
0.494206 -1.26479 -1.78097 -0.491378 -0.0644224 0.86856
0.680072 -1.14171 -1.77555 0.376118 0.211365 -0.902142
0.661514 -1.10186 -1.76733 0.376118 0.211365 -0.902142
0.588392 -1.28314 -1.77136 -0.342733 0.292927 0.892596
0.678448 -1.18162 -1.7682 -0.497615 0.250388 0.830473
0.572393 -1.26327 -1.76392 -0.342733 0.292927 0.892596
0.724199 -1.25988 -1.70524 -0.431439 -0.0629126 0.899946
0.875108 -1.32046 -1.73385 -0.375805 0.166512 0.911616
0.752002 -1.17949 -1.7098 -0.497615 0.250388 0.830473
0.905766 -1.17491 -1.57957 -0.26662 -0.345533 0.899734
0.923666 -1.17467 -1.58286 0.379884 0.227571 -0.896605
0.870397 -1.13514 -1.56023 -0.0146938 0.0319151 0.999383
0.948307 -1.17448 -1.59506 0.341274 0.19479 -0.919559
0.9565 -1.13387 -1.56662 0.341274 0.19479 -0.919559
0.96814 -1.29431 -1.60197 -0.26662 -0.345533 0.899734
0.764212 -1.09959 -1.72895 -0.351655 0.0967134 0.931121
0.730765 -0.979137 -1.67067 -0.66772 0.0722159 0.740902
0.840009 -0.976087 -1.5909 0.298546 -0.372727 -0.878604
0.93421 -1.01315 -1.50271 -0.156935 0.100448 0.982487
1.09819 -1.08838 -1.37002 0.293483 0.344378 -0.89178
0.778491 -0.780943 -1.83027 -0.200275 -0.0343927 0.979136
0.74692 -0.700972 -1.80263 -0.197925 0.302831 0.932266
0.92502 -0.699627 -1.89365 0.265474 -0.263807 -0.927324
0.884041 -0.746205 -1.79688 0.21261 -0.0599487 -0.975296
0.724275 -0.541445 -1.81203 0.403096 -0.103056 -0.909337
0.767011 -0.541844 -1.87783 0.472127 -0.258373 -0.842817
0.890246 -0.578313 -1.78171 0.446387 0.317135 -0.836758
0.870281 -0.579293 -1.82203 0.375892 -0.378572 -0.845807
0.885644 -0.498497 -1.78974 0.417074 -0.250572 -0.873649
0.87966 -0.471276 -1.80139 0.417074 -0.250572 -0.873649
0.281391 -0.0716518 -2.01153 -0.542352 0.00514388 0.840136
0.283729 -0.079041 -2.00692 -0.617594 0.214748 0.756611
0.337198 -0.0703921 -1.98897 0.382176 -0.00907374 -0.924045
0.455577 -0.0680031 -1.95835 -0.617594 0.214748 0.756611
0.389678 -0.0692957 -1.97313 -0.617594 0.214748 0.756611
0.871241 -0.3406 -1.90644 0.315736 0.10793 -0.942689
0.882458 -0.298549 -1.79303 -0.147097 -0.295013 0.944103
0.947081 -0.203287 -1.8413 -0.653914 0.143736 0.742789
0.901347 0.0195861 -1.9301 -0.0882999 -0.190357 -0.977736
0.915767 0.0202938 -1.90098 -0.593725 0.0899633 0.799623
0.872798 -0.0203567 -1.89825 -0.593725 0.0899633 0.799623
0.831865 -0.13947 -1.80253 0.20138 -0.248943 -0.947351
0.87276 -0.17887 -1.80508 0.156952 -0.116053 -0.980764
0.919732 -0.0195325 -1.89361 -0.0882999 -0.190357 -0.977736
0.91789 -0.0585343 -1.83036 0.0591589 -0.172734 -0.98319
0.771279 -0.699592 -1.74217 -0.212411 0.0363259 0.976505
0.901629 -0.735336 -1.76121 -0.281392 0.427448 0.859131
0.806909 -0.857094 -1.62205 -0.636072 0.0574871 0.769486
0.819075 -0.77701 -1.63002 -0.66772 0.0722159 0.740902
0.876352 -0.455142 -1.57691 0.565925 -0.00451066 -0.824444
1.03988 -0.453865 -1.65793 0.565925 -0.00451066 -0.824444
0.882305 -0.738894 -1.34973 -0.582071 -0.233542 0.778878
0.91743 -0.693626 -1.36823 -0.608123 0.137224 0.781893
0.805547 -0.319376 -1.76838 -0.147097 -0.295013 0.944103
0.778984 -0.339581 -1.75474 -0.603851 -0.130805 0.786291
0.840284 -0.270146 -1.69749 0.116921 -0.265929 -0.956876
0.839583 -0.376905 -1.6499 0.319869 -0.0104501 -0.947404
0.823783 -0.369529 -1.64225 -0.645363 -0.0531254 0.762026
0.85083 -0.255643 -1.58587 0.0486492 0.0393841 -0.998039
0.975978 -0.295439 -1.69431 0.313077 -0.269082 -0.910811
0.935409 -0.257409 -1.7756 0.116921 -0.265929 -0.956876
1.05404 -0.228053 -1.62578 -0.0804455 -0.253232 -0.964055
0.802002 -0.096934 -1.77203 0.318896 0.265258 -0.909914
0.767144 -0.0196252 -1.75107 -0.641894 0.0260211 0.766352
0.782473 -0.00636633 -1.71992 -0.552776 0.0996788 0.827347
0.871267 0.0350539 -1.72025 -0.552776 0.0996788 0.827347
0.929817 -0.315778 -1.51748 -0.673807 0.0408278 0.737779
0.969298 -0.132263 -1.49685 -0.662235 0.135194 0.736999
0.960919 -0.0180763 -1.54012 -0.662235 0.135194 0.736999
-3.1892 1.169 -3.22681 0.431861 -0.414561 -0.801021
-2.99588 0.23576 -2.96793 0.439358 0.228781 -0.868691
-3.04939 0.0754515 -2.98337 0.478825 0.166451 -0.861986
-3.0494 0.115446 -2.98405 -0.49346 -0.056345 0.867942
-3.01361 0.275139 -3.00447 -0.449293 -0.0482537 0.89208
-3.03871 0.494108 -2.93223 0.444539 -0.00824016 -0.895721
-3.01363 0.315133 -3.00515 -0.501521 -0.119802 0.85681
-3.09455 0.413831 -2.94784 -0.591651 -0.0408855 0.805157
-3.00589 0.3329 -2.98976 -0.451348 0.15635 0.878544
-2.99024 0.435261 -2.99924 0.553385 0.143862 -0.820408
-3.09453 0.493818 -2.94927 0.444539 -0.00824016 -0.895721
-3.06776 0.413986 -2.93877 -0.552201 -0.079933 0.82987
-3.05987 0.256595 -2.91717 0.521703 0.0960985 -0.847697
-3.02644 0.197094 -2.88804 0.503054 -0.329857 -0.798831
-3.06008 0.237355 -2.87211 -0.304638 -0.0313531 0.951952
-3.03331 0.277515 -2.86371 0.503054 -0.329857 -0.798831
-2.9975 0.157627 -2.85703 0.478825 0.166451 -0.861986
-2.9884 0.356769 -2.90956 -0.491489 -0.127762 0.861461
-2.99535 0.35758 -2.86153 -0.449293 -0.0482537 0.89208
-3.04196 0.316444 -2.92704 0.648842 0.0579954 -0.75871
-3.0412 0.389943 -2.88454 0.578645 0.119474 -0.806781
-3.06213 0.356504 -2.92334 0.648842 0.0579954 -0.75871
-3.00332 0.375398 -2.85837 -0.525814 0.149121 0.837426
-3.03979 0.476403 -2.93085 0.553385 0.143862 -0.820408
-2.99757 0.454885 -2.88772 -0.591795 0.234433 0.771245
-2.98216 0.43822 -2.82481 0.630765 -0.209313 -0.74721
-3.02208 0.477019 -2.89499 0.547329 -0.0927339 -0.831764
-3.02429 0.397048 -2.89253 0.576748 0.168604 -0.799333
-3.05994 0.421571 -2.91996 0.576748 0.168604 -0.799333
-3.0589 0.444299 -2.92138 0.444539 -0.00824016 -0.895721
-3.02101 0.454749 -2.89566 -0.44693 0.337244 0.828565
-2.93657 0.23562 -2.9777 0.439358 0.228781 -0.868691
-2.91885 0.196241 -2.94116 0.503054 -0.329857 -0.798831
-2.97239 0.115922 -2.95796 0.451718 0.119151 -0.884169
-2.95219 0.0557701 -2.9669 0.128573 -0.0956761 -0.987074
-2.97246 0.275899 -2.96067 0.439358 0.228781 -0.868691
-2.9522 0.0932648 -2.96754 0.223874 0.0151926 -0.9745
-2.89863 0.0935957 -2.94939 -0.504148 0.0301498 0.863091
-2.90646 0.2758 -2.96817 0.479495 -0.0146585 -0.877422
-2.95994 0.075498 -2.98293 0.128573 -0.0956761 -0.987074
-2.91893 0.396213 -2.94455 0.557976 -0.0059283 -0.829836
-2.94023 0.453717 -2.95227 0.191753 -0.372049 -0.908191
-2.97148 0.453503 -2.96472 -0.552201 -0.079933 0.82987
-2.95234 0.413219 -2.97296 -0.561695 0.202773 0.802111
-2.94123 0.316118 -2.9489 0.557976 -0.0059283 -0.829836
-2.92121 0.476219 -2.9448 -0.352291 0.0157025 0.935759
-2.95132 0.390829 -2.97357 0.578645 0.119474 -0.806781
-2.93784 0.493191 -2.98204 -0.552201 -0.079933 0.82987
-2.92013 0.493826 -2.94618 -0.44693 0.337244 0.828565
-2.96008 0.395452 -2.98835 -0.190594 -0.0775808 0.978599
-2.88095 0.1692 -2.9148 -0.504148 0.0301498 0.863091
-2.85766 0.0775212 -2.86617 -0.185226 0.0481849 0.981514
-2.88651 0.236498 -2.92715 0.617169 -0.209649 -0.758386
-2.85657 0.117554 -2.8646 -0.504148 0.0301498 0.863091
-2.86979 0.276596 -2.92216 0.605889 -0.233074 -0.760641
-2.55953 0.261173 -2.80742 0.197918 0.33865 -0.919861
-2.5418 0.214295 -2.77076 0.131429 0.227861 -0.964783
-2.97092 0.360642 -2.82903 -0.561695 0.202773 0.802111
-2.86982 0.356585 -2.92351 0.605889 -0.233074 -0.760641
-2.86108 0.357271 -2.88322 0.557976 -0.0059283 -0.829836
-2.96743 0.455059 -2.87751 -0.529948 0.298594 0.793723
-2.91852 0.496102 -2.81874 0.125965 0.120304 0.984713
-2.94074 0.495607 -2.84679 0.399743 0.149494 -0.904355
-2.85567 0.415145 -2.87066 -0.397977 0.204715 0.894263
-2.85889 0.477236 -2.88636 0.630765 -0.209313 -0.74721
-2.86446 0.437239 -2.88571 0.498125 0.246617 -0.831295
-2.91857 0.416214 -2.81172 -0.0293882 0.174732 0.984177
-3.03195 0.614027 -2.93769 0.560656 -0.117219 -0.81971
-3.00257 0.692951 -2.99823 0.44906 0.0549877 -0.891808
-2.99378 0.573388 -2.97256 -0.190838 0.284084 0.939615
-3.06036 0.891853 -3.06244 -0.508285 -0.063357 0.858855
-3.00974 0.69461 -2.90548 -0.190838 0.284084 0.939615
-3.00527 0.637078 -2.90666 -0.0758778 -0.166565 -0.983107
-3.02098 0.57473 -2.8978 0.633687 0.127867 -0.762949
-2.98286 0.614378 -2.91733 0.392102 0.0859812 -0.915895
-2.9424 0.613612 -2.95961 0.222914 -0.221743 -0.949284
-2.91561 0.613767 -2.95054 -0.503588 0.0627117 0.861665
-2.94128 0.653645 -2.95809 0.317602 -0.158373 -0.934905
-2.92012 0.53382 -2.9469 -0.585971 0.069796 0.80732
-2.97368 0.573504 -2.96576 0.320872 -0.0169965 -0.94697
-2.86224 0.654868 -2.88839 -0.283586 0.00141043 0.958946
-2.90688 0.57449 -2.90954 -0.503588 0.0627117 0.861665
-2.86224 0.669866 -2.88866 -0.208117 0.37758 0.902286
-2.93401 0.525541 -2.85065 -0.600224 0.233548 0.764974
-2.86226 0.604876 -2.8875 -0.503588 0.0627117 0.861665
-2.95821 0.57416 -2.92879 0.392102 0.0859812 -0.915895
-2.86228 0.524889 -2.88607 -0.529948 0.298594 0.793723
-2.89261 0.535412 -2.85733 -0.458277 0.102461 0.882884
-2.95386 0.894867 -2.89201 -0.617966 -0.0805854 0.782064
-2.96935 0.816723 -2.92759 -0.617966 -0.0805854 0.782064
-2.85111 0.895227 -2.87026 -0.45934 -0.039244 0.887393
-2.49594 0.159365 -2.76736 0.261661 -0.455585 -0.850867
-2.29935 0.160073 -2.73062 -0.388063 -0.0396503 0.920779
-2.39873 0.0971895 -2.75017 -0.419034 -0.000510829 0.90797
-2.29156 0.0603567 -2.71324 -0.497971 0.368119 0.785184
-2.34515 0.0975204 -2.73202 -0.580994 0.0449872 0.812664
-2.381 0.0603102 -2.71368 -0.527464 0.124702 0.840376
-2.43669 0.279208 -2.77916 0.327758 0.133571 -0.935272
-2.47051 0.207743 -2.71662 -0.282873 0.455625 0.844032
-2.43464 0.217457 -2.7345 -0.491164 0.384041 0.781838
-2.3654 0.280154 -2.72515 -0.325816 -0.0314876 0.944909
-2.33523 0.200352 -2.71359 -0.375261 0.15742 0.913454
-2.24583 0.280387 -2.7145 0.566873 -0.0137099 -0.823691
-2.46945 0.320265 -2.71628 -0.456894 0.345857 0.819531
-2.39882 0.299661 -2.7536 -0.513571 0.0143133 0.857928
-2.42705 0.417621 -2.72547 -0.439202 -0.173897 0.881397
-2.39783 0.417056 -2.75663 -0.336308 0.0642199 0.93956
-2.42139 0.160616 -2.69545 -0.37986 -0.212522 0.900301
-2.35112 0.0813458 -2.6535 -0.466745 0.384472 0.796449
-2.32751 0.260613 -2.69891 0.368071 -0.0155923 -0.929667
-2.17813 0.0824775 -2.59116 -0.324026 -0.196498 0.925416
-2.22053 0.162046 -2.6162 -0.297265 0.299083 0.906743
-2.23843 0.0821999 -2.60599 -0.316734 -0.330596 0.889037
-2.14898 0.05725 -2.60513 -0.436282 0.343788 0.831546
-2.22808 0.201014 -2.67729 -0.34301 0.314476 0.885127
-2.27392 0.21845 -2.68004 0.177352 0.323708 -0.929387
-2.11336 0.122714 -2.57923 -0.580994 0.0449872 0.812664
-2.07771 0.0906917 -2.55167 -0.436282 0.343788 0.831546
-2.13132 0.177848 -2.5713 -0.562825 0.258255 0.785196
-2.07445 0.243285 -2.54753 -0.399709 0.314351 0.861055
-2.35231 0.281279 -2.65913 -0.487365 -0.103821 0.867004
-2.36343 0.388379 -2.68337 -0.45629 -0.135348 0.879477
-2.31209 0.441125 -2.67059 -0.33693 0.268157 0.902535
-2.30539 0.441167 -2.66832 -0.33693 0.268157 0.902535
-2.32758 0.41809 -2.70158 -0.45629 -0.135348 0.879477
-2.2806 0.320704 -2.69523 -0.600644 -0.0262028 0.799087
-2.18496 0.322497 -2.59191 -0.423133 0.211446 0.88105
-2.25525 0.391451 -2.64812 -0.345866 0.103307 0.932579
-2.1491 0.33471 -2.60983 -0.423133 0.211446 0.88105
-2.09452 0.392379 -2.59367 -0.537329 0.0465631 0.842086
-2.16907 0.361609 -2.64505 -0.487365 -0.103821 0.867004
-2.28417 0.418413 -2.67894 0.257375 -0.448016 -0.856178
-2.18456 0.415968 -2.68295 -0.33693 0.268157 0.902535
-2.07741 0.41663 -2.64665 -0.357109 0.204485 0.911405
-2.17155 0.402379 -2.59991 -0.275342 -0.323274 0.905362
-2.15813 0.48226 -2.6079 -0.219552 0.267774 0.938133
-2.14474 0.482343 -2.60336 -0.202305 0.378297 0.903307
-2.1336 0.322751 -2.57824 -0.289285 0.196446 0.936869
-2.12914 0.32281 -2.57487 -0.193997 0.313485 0.929566
-2.07557 0.323141 -2.55672 -0.384025 0.258469 0.886408
-2.06665 0.443053 -2.56318 -0.0786766 0.103132 0.991551
-2.13586 0.442657 -2.58476 -0.219552 0.267774 0.938133
-1.92373 0.164227 -2.49512 -0.424164 -0.23794 0.873767
-1.86339 0.0695186 -2.47868 -0.360622 0.133721 0.923077
-2.01299 0.243412 -2.54164 -0.325816 -0.0314876 0.944909
-1.97058 0.153845 -2.51643 -0.347186 -5.61795e-05 0.937796
-1.87338 0.124165 -2.49979 -0.31562 0.0159386 0.948752
-1.91699 0.119181 -2.49768 -0.341598 -0.0234779 0.939553
-2.0352 0.0831391 -2.5558 -0.178009 0.127076 0.975789
-1.77829 0.243818 -2.52371 -0.489942 -0.222155 0.842974
-2.05967 0.352254 -2.60969 -0.193997 0.313485 0.929566
-2.0597 0.417245 -2.61079 -0.357109 0.204485 0.911405
-2.02385 0.461954 -2.62926 -0.445028 0.313646 0.838794
-1.97298 0.381017 -2.52802 -0.233002 0.393662 0.889236
-2.02323 0.380826 -2.53944 -0.233002 0.393662 0.889236
-2.00632 0.363342 -2.54699 -0.569944 -0.080728 0.817708
-2.03766 0.283602 -2.53014 -0.350505 0.291246 0.890125
-1.91608 0.381445 -2.50315 -0.550218 0.14094 0.823041
-1.93275 0.284281 -2.49273 -0.244605 0.110849 0.963266
-1.91045 0.364376 -2.48839 -0.478292 0.202708 0.854486
-1.93482 0.391026 -2.53816 -0.341872 0.0236252 0.93945
-1.98179 0.483413 -2.54443 -0.371188 0.290753 0.881863
-2.05994 0.482993 -2.56717 -0.370618 0.141321 0.917971
-1.95279 0.483655 -2.53087 -0.30993 0.070849 0.948116
-1.9729 0.403732 -2.52514 -0.0399256 -0.227836 0.972881
-1.97403 0.443688 -2.52806 -0.545716 0.123907 0.828759
-2.02202 0.40346 -2.53992 -0.569944 -0.080728 0.817708
-2.02994 0.460875 -2.53755 -0.30403 -0.0617047 0.950662
-2.00188 0.483289 -2.55124 -0.419034 -0.000510829 0.90797
-1.96964 0.461123 -2.52272 -0.658503 -0.0809408 0.748213
-1.92493 0.421121 -2.52179 -0.550218 0.14094 0.823041
-1.90816 0.444063 -2.50762 -0.341872 0.0236252 0.93945
-1.8979 0.475469 -2.55841 -0.320635 -0.0222638 0.946941
-1.80847 0.437958 -2.5573 -0.537215 -0.22855 0.81189
-1.63887 0.501695 -2.48604 0.0373162 0.0414149 0.998445
-1.84243 0.245224 -2.43907 -0.496878 -0.103667 0.861606
-1.90152 0.124813 -2.4608 -0.372084 -0.0714206 0.925447
-1.68167 0.166229 -2.38326 -0.305 0.016002 0.952218
-1.73746 0.165821 -2.40589 -0.31562 0.0159386 0.948752
-1.73526 0.205892 -2.40209 -0.307405 -0.117995 0.944235
-1.79216 0.205446 -2.42696 -0.489942 -0.222155 0.842974
-1.79432 0.0853859 -2.42941 -0.360622 0.133721 0.923077
-1.856 0.382492 -2.44361 0.0373162 0.0414149 0.998445
-1.83249 0.285565 -2.41957 -0.46981 0.00686716 0.882741
-1.83254 0.405548 -2.42161 -0.127613 -0.211436 0.969025
-1.83479 0.485459 -2.42744 -0.383065 -0.236022 0.893059
-1.72978 0.326067 -2.39291 -0.46981 0.00686716 0.882741
-1.72656 0.383406 -2.39043 -0.34679 0.0641429 0.935747
-1.76633 0.364792 -2.46755 -0.509769 -0.135028 0.849649
-1.6784 0.286327 -2.37857 -0.272512 -0.0389874 0.961362
-1.63147 0.286427 -2.37386 -0.283424 -0.0233265 0.958711
-1.67188 0.383756 -2.37004 -0.366363 0.110877 0.923842
-1.63148 0.326421 -2.37454 -0.419077 0.00734424 0.907921
-1.65065 0.383812 -2.36658 -0.163514 0.0176575 0.986383
-1.62384 0.383867 -2.3631 -0.141617 0.072575 0.987258
-1.80688 0.46283 -2.42467 -0.454342 0.00030646 0.890827
-1.7578 0.423186 -2.40359 -0.336425 0.0563498 0.940023
-1.7653 0.42201 -2.46959 -0.658503 -0.0809408 0.748213
-1.78343 0.485713 -2.41378 -0.383065 -0.236022 0.893059
-1.75533 0.444864 -2.44982 -0.658503 -0.0809408 0.748213
-1.72764 0.486121 -2.39114 -0.341872 0.0236252 0.93945
-1.72766 0.42336 -2.39339 -0.454342 0.00030646 0.890827
-1.73516 0.422184 -2.45938 -0.459789 0.0475424 0.886755
-1.67292 0.406502 -2.36939 -0.357516 0.0472157 0.932713
-1.63002 0.474517 -2.46762 -0.408861 0.0399839 0.91172
-1.63155 0.486399 -2.37725 -0.438956 0.0306973 0.897984
-1.88018 0.516098 -2.52327 -0.320635 -0.0222638 0.946941
-1.83318 0.741134 -2.52258 -0.347145 0.0326256 0.937244
-1.82858 0.660606 -2.55131 -0.233002 0.393662 0.889236
-1.81309 0.74125 -2.51578 -0.272476 0.0723654 0.959437
-1.83426 0.861075 -2.52697 0.537453 0.0796491 -0.839524
-1.83092 0.901188 -2.52096 0.0795713 -0.0137053 0.996735
-1.84893 0.821563 -2.4995 0.378318 -0.00085975 -0.925675
-1.71938 0.761988 -2.4732 0.22327 -0.21421 -0.950928
-1.72382 0.902006 -2.47348 -0.244493 0.1119 0.963173
-1.75725 0.821526 -2.50016 -0.424493 0.0399503 0.90455
-1.78176 0.941332 -2.51249 0.408971 -0.00853877 -0.912507
-1.91399 0.622185 -2.46383 -0.292673 0.424601 0.856771
-1.85815 0.702462 -2.44821 -0.475134 0.172729 0.862793
-1.74184 0.58222 -2.45891 -0.550218 0.14094 0.823041
-1.72428 0.623448 -2.39023 0.598434 0.0800098 -0.797167
-1.82232 0.582155 -2.46378 0.447702 0.188883 -0.874006
-1.80012 0.58275 -2.43013 0.447702 0.188883 -0.874006
-1.67183 0.583724 -2.37361 0.598434 0.0800098 -0.797167
-1.70835 0.622407 -2.44828 -0.427248 0.338454 0.838396
-1.82701 0.630487 -2.4177 -0.320635 -0.0222638 0.946941
-1.73958 0.662187 -2.46145 -0.427248 0.338454 0.838396
-1.81131 0.662839 -2.42603 0.598434 0.0800098 -0.797167
-1.62155 0.663902 -2.36362 -0.36978 -0.124834 0.920695
-1.69967 0.663417 -2.39194 -0.342292 -0.156448 0.926477
-1.84915 0.822361 -2.45478 0.440245 -0.353193 -0.825493
-1.85813 0.782449 -2.44964 0.378318 -0.00085975 -0.925675
-1.84022 0.902467 -2.44946 0.643969 -0.21004 -0.735654
-1.84242 0.942381 -2.45466 0.643969 -0.21004 -0.735654
-1.72423 0.823416 -2.3938 -0.347145 0.0326256 0.937244
-1.76189 0.742078 -2.46858 0.378318 -0.00085975 -0.925675
-1.78334 0.822908 -2.42316 -0.357628 0.00887607 0.933822
-1.78557 0.782835 -2.42693 0.22327 -0.21421 -0.950928
-1.70165 0.837611 -2.43868 -0.265337 0.135291 0.954616
-1.70187 0.823412 -2.39369 -0.408771 0.0478353 0.911383
-1.67398 0.783613 -2.38166 -0.320503 0.0640583 0.945079
-1.63037 0.788564 -2.38378 -0.320503 0.0640583 0.945079
-1.79555 0.902658 -2.43806 0.0795713 -0.0137053 0.996735
-1.74401 0.862196 -2.46281 -0.424493 0.0399503 0.90455
-1.73726 0.942122 -2.46755 -0.198611 0.167105 0.965728
-1.63146 0.863513 -2.38736 0.396534 0.109999 -0.911406
-1.6884 0.903277 -2.40176 -0.388531 -0.00707841 0.921408
-1.70162 0.945094 -2.4406 -0.0224253 0.175302 0.984259
-1.64155 0.903648 -2.38029 0.309988 0.242599 -0.919268
-1.69266 0.902519 -2.44426 -0.408771 0.0478353 0.911383
-3.21943 1.18075 -2.98899 0.313325 -0.345751 -0.884468
-3.08024 1.17119 -3.1022 0.562241 0.0562219 -0.82506
-3.05873 1.0717 -2.93258 -0.243706 -0.108468 0.963765
-3.20127 1.19229 -3.04278 0.562241 0.0562219 -0.82506
-3.0428 1.13325 -2.98616 0.506784 0.0945977 -0.856867
-3.04483 1.09248 -3.02905 -0.380041 -0.12481 0.91651
-3.00421 1.29128 -3.09726 0.247058 0.337465 -0.908339
-2.98517 1.17511 -2.88151 0.331692 0.290783 -0.897455
-3.0543 1.05436 -2.9233 -0.243706 -0.108468 0.963765
-2.94015 1.05392 -2.94622 -0.45862 -0.0628002 0.886411
-2.91523 1.20037 -3.00574 0.419039 -0.00846849 -0.907929
-2.93781 1.21368 -2.96136 0.390986 -0.142088 -0.909363
-2.92442 1.21375 -2.95682 -0.663667 0.013535 0.747906
-2.92185 1.29262 -3.02084 0.442732 0.309137 -0.841678
-2.91123 1.05445 -2.91589 0.669086 -0.00557778 -0.743164
-2.89575 1.0951 -2.87964 -0.50929 -0.0318982 0.860004
-2.84772 1.13531 -2.86782 0.454527 -0.188752 -0.870504
-2.75538 1.197 -2.77231 0.303605 -0.33885 -0.890508
-2.64823 1.19512 -2.73596 0.177672 0.203734 -0.962769
-2.76614 1.2155 -2.85656 0.325675 0.0382707 -0.944707
-2.54683 1.2148 -2.89237 0.325675 0.0382707 -0.944707
-2.48705 1.21695 -2.77135 0.177672 0.203734 -0.962769
-2.43392 1.19136 -2.66328 -0.320872 0.0169965 0.94697
-1.89146 1.06191 -2.48275 0.33122 0.0144783 -0.943442
-1.94951 1.10164 -2.4994 -0.395564 -0.212477 0.893523
-1.99837 1.14048 -2.56519 -0.436188 -0.314722 0.843024
-1.93844 1.18212 -2.47283 -0.436188 -0.314722 0.843024
-1.86656 1.14088 -2.54107 -0.424302 -0.236844 0.873998
-1.91587 1.16382 -2.51712 0.00481104 -0.159935 -0.987116
-1.73701 1.05131 -2.51423 0.184798 0.180058 -0.966141
-1.79059 1.0535 -2.53243 0.552668 -0.179872 -0.813759
-1.74152 0.981358 -2.51077 0.243367 -0.354188 -0.902953
-1.72829 0.982034 -2.4727 -0.454274 -0.00755175 0.89083
-1.81078 0.981191 -2.52117 0.0330027 -0.191127 -0.98101
-1.77507 1.14154 -2.50261 0.330469 -0.41551 -0.847432
-1.74032 1.10118 -2.52185 0.071816 -0.104443 -0.991935
-1.77397 1.10158 -2.49966 0.408378 0.0385865 -0.911997
-1.67787 1.18179 -2.4872 0.581137 -0.250193 -0.774393
-1.71032 1.10185 -2.48369 -0.283484 -0.0143689 0.958869
-1.63204 1.18183 -2.48474 0.581137 -0.250193 -0.774393
-1.86184 1.20253 -2.58911 0.330469 -0.41551 -0.847432
-1.84903 1.06212 -2.47024 -0.141708 0.331384 0.932793
-1.89373 1.14212 -2.47189 0.244393 -0.426407 -0.87089
-1.70488 1.14244 -2.45084 -0.424302 -0.236844 0.873998
-1.74396 1.06216 -2.46638 -0.424302 -0.236844 0.873998
-1.814 1.22497 -2.31196 0.367853 0.01485 -0.929765
-1.48461 0.125428 -2.43527 0.121716 0.024733 0.992257
-1.41671 0.266238 -2.39035 -0.293636 0.0869118 0.951958
-1.38554 0.24675 -2.36079 0.583894 -0.115533 -0.803567
-1.49308 0.12762 -2.30563 -0.419034 -0.000510829 0.90797
-1.53545 0.127201 -2.32932 -0.283424 -0.0233265 0.958711
-1.40049 0.128351 -2.26493 -0.319896 -0.0624574 0.945392
-1.48863 0.207573 -2.3092 -0.174386 0.0402874 0.983853
-1.53775 0.247201 -2.33024 -0.283424 -0.0233265 0.958711
-1.32101 0.128051 -2.28466 0.00919418 -0.0540124 0.998498
-1.30995 0.16343 -2.26284 0.303101 -0.344809 -0.88839
-1.14406 0.12712 -2.34415 0.268507 -0.478724 -0.835899
-1.23819 0.0778738 -2.29682 0.0866818 0.0799144 0.993026
-1.15347 0.128706 -2.2503 -0.377448 -0.244839 0.893077
-1.21009 0.127313 -2.33106 0.303101 -0.344809 -0.88839
-1.25596 0.219738 -2.33509 -0.177193 -0.125197 0.976181
-1.25639 0.188758 -2.24511 -0.233559 -0.0860355 0.968529
-1.25598 0.269731 -2.33594 -0.316093 0.189716 0.929566
-1.22231 0.166979 -2.35081 -0.226394 0.165604 0.959855
-1.21896 0.167 -2.34967 0.303101 -0.344809 -0.88839
-1.5769 0.383938 -2.3584 -0.163514 0.0176575 0.986383
-1.58342 0.286566 -2.36692 -0.419034 -0.000510829 0.90797
-1.52286 0.472636 -2.43128 -0.315209 0.0643501 0.946838
-1.57644 0.474826 -2.44948 -0.33669 0.00900385 0.941573
-1.57349 0.486694 -2.36132 -0.103661 0.166398 0.980595
-1.49843 0.463212 -2.39857 0.311472 0.283577 -0.906956
-1.42468 0.463338 -2.39038 -0.170975 -0.371708 0.91247
-1.40227 0.423141 -2.40073 -0.170975 -0.371708 0.91247
-1.49095 0.367568 -2.31081 -0.272512 -0.0389874 0.961362
-1.5779 0.319253 -2.35626 -0.229738 -0.0229148 0.972983
-1.49093 0.327574 -2.31013 -0.419077 0.00734424 0.907921
-1.462 0.384835 -2.30641 0.418008 0.24298 -0.875346
-1.4832 0.384679 -2.31546 -0.0895929 -0.029558 0.99554
-1.4072 0.288097 -2.28109 -0.174386 0.0402874 0.983853
-1.43958 0.287929 -2.29019 -0.429041 0.0308038 0.90276
-1.53335 0.447137 -2.33585 -0.35675 -0.0552364 0.932565
-1.57468 0.424011 -2.35463 -0.366363 0.110877 0.923842
-1.50669 0.485176 -2.30505 -0.459125 -0.0482409 0.887061
-1.58468 0.446788 -2.3551 -0.265709 0.228693 0.936535
-1.57684 0.406779 -2.35551 -0.459125 -0.0482409 0.887061
-1.48991 0.424734 -2.31285 -0.369297 0.306218 0.877411
-1.42055 0.447613 -2.3107 -0.202232 0.0480153 0.97816
-1.25924 0.463428 -2.38286 -0.0895929 -0.029558 0.99554
-1.21463 0.463819 -2.36028 -0.0895929 -0.029558 0.99554
-1.22792 0.406658 -2.37167 -0.202232 0.0480153 0.97816
-1.2191 0.508852 -2.35887 -0.0895929 -0.029558 0.99554
-1.29188 0.342505 -2.31946 -0.601894 -0.145247 0.785256
-1.26051 0.367253 -2.33538 -0.262033 0.0556149 0.963455
-1.37033 0.328129 -2.28047 0.45102 -0.242447 -0.858953
-1.16767 0.327231 -2.33871 0.45102 -0.242447 -0.858953
-1.21515 0.385628 -2.25825 0.0188745 -0.151251 -0.988315
-1.30231 0.408665 -2.2513 -0.342986 0.471286 0.812558
-1.21578 0.503972 -2.35206 -0.0895929 -0.029558 0.99554
-1.15094 0.487122 -2.34693 -0.438956 0.0306973 0.897984
-1.2218 0.425483 -2.26682 -0.400274 -0.221154 0.88931
-1.17154 0.448803 -2.24686 -0.349774 -0.110442 0.930301
-1.03242 0.127746 -2.31007 -0.343251 0.17325 0.923127
-1.09516 0.0607537 -2.27793 0.557086 -0.351338 -0.752474
-1.13102 0.0560388 -2.26014 -0.00482436 0.337516 0.941308
-1.11288 0.0926337 -2.31434 0.268507 -0.478724 -0.835899
-1.03017 0.0877343 -2.31049 -0.48851 0.35866 0.795438
-0.978737 0.127698 -2.31427 -0.343251 0.17325 0.923127
-0.915181 0.0883813 -2.27527 -0.502682 0.0928357 0.859472
-1.04367 0.207824 -2.30589 -0.159469 -0.14868 0.975943
-1.07077 0.1688 -2.24721 0.352125 0.165174 -0.921263
-0.790978 0.0806059 -2.29465 -0.255291 -0.0784926 0.963673
-0.791004 0.140597 -2.29567 -0.229328 -0.0542531 0.971836
-0.724121 0.0888973 -2.24973 0.522835 -0.0142141 -0.852315
-0.860567 0.248728 -2.25759 -0.223119 -0.07026 0.972256
-0.737455 0.203419 -2.27858 -0.345729 0.110001 0.931865
-0.690522 0.208519 -2.27396 0.135111 -0.425173 -0.894971
-0.784409 0.248313 -2.28404 -0.21972 0.322919 0.920568
-1.13068 0.286991 -2.3535 0.475072 -0.249797 -0.843746
-1.07759 0.393822 -2.2477 0.475072 -0.249797 -0.843746
-1.11301 0.385092 -2.3193 -0.376897 0.281912 0.882312
-0.95184 0.38457 -2.35427 -0.117794 0.0876982 0.989158
-0.969765 0.367214 -2.34512 -0.180555 -0.0148498 0.983453
-1.13011 0.457941 -2.26807 -0.560888 -0.157654 0.812742
-1.13437 0.464682 -2.3107 -0.428898 -0.0628989 0.90116
-1.04622 0.425231 -2.27826 0.669824 -0.130867 -0.730896
-1.04176 0.468527 -2.26668 0.3782 -0.408318 -0.830808
-0.940168 0.42581 -2.2442 0.375774 0.205197 -0.903708
-0.860574 0.328622 -2.26454 -0.523506 0.303661 0.796073
-0.881981 0.385587 -2.2555 0.0260852 0.0216201 -0.999426
-0.809254 0.361466 -2.24583 -0.523506 0.303661 0.796073
-0.755242 0.377779 -2.3174 -0.230774 0.260605 0.937458
-0.905411 0.425445 -2.26415 -0.18772 0.253255 0.949012
-0.852888 0.408974 -2.24461 0.156609 -0.221428 -0.962519
-1.541 0.518591 -2.37852 -0.251768 0.190725 0.948808
-1.52329 0.514227 -2.34257 -0.366363 0.110877 0.923842
-1.47872 1.18531 -2.28724 -0.0817805 -0.288407 0.954009
-1.57401 1.18219 -2.46321 -0.529138 -0.221665 0.819071
-1.16799 1.18557 -2.26783 0.362956 -0.189325 -0.91237
-1.46796 1.26286 -2.425 0.367853 0.01485 -0.929765
-1.46908 1.21033 -2.4263 0.362956 -0.189325 -0.91237
-1.27023 1.2634 -2.39161 0.372665 -0.407584 -0.833664
-1.33502 1.2632 -2.40422 0.177193 -0.308321 -0.934634
-1.21447 1.26389 -2.36339 0.388084 -0.369732 -0.844209
-1.14695 0.0894162 -2.20823 -0.107151 0.0561871 0.992654
-1.15917 0.129082 -2.22797 -0.107151 0.0561871 0.992654
-1.15587 0.169192 -2.22192 -0.395185 -0.13436 0.908722
-1.19608 0.169038 -2.22994 0.0267924 -0.0618213 0.997728
-1.1503 0.0893955 -2.20936 -0.107151 0.0561871 0.992654
-1.20289 0.379062 -2.23018 -0.349774 -0.110442 0.930301
-1.1046 0.12983 -2.18522 -0.107151 0.0561871 0.992654
-1.14026 0.169351 -2.2129 -0.395185 -0.13436 0.908722
-0.952652 0.220124 -2.17258 -0.461371 -0.205809 0.863006
-0.968321 0.170255 -2.16398 -0.289863 0.408492 0.865514
-0.856529 0.130414 -2.15716 -0.289863 0.408492 0.865514
-0.895273 0.129068 -2.23561 -0.033172 0.190209 0.981183
-0.820803 0.130603 -2.14693 -0.255291 -0.0784926 0.963673
-0.755994 0.0758529 -2.13338 0.254742 -0.134206 -0.957651
-0.692019 0.0900127 -2.18474 0.503204 -0.2652 -0.822469
-0.686529 0.130294 -2.16862 0.522835 -0.0142141 -0.852315
-0.718621 0.169078 -2.23988 0.542257 -0.311942 -0.78016
-0.863375 0.0909465 -2.12522 -0.236972 0.314542 0.919189
-0.72282 0.0920993 -2.06081 -0.180096 -0.179836 0.96707
-0.702418 0.0761838 -2.11523 -0.236972 0.314542 0.919189
-0.785176 0.17107 -2.1206 -0.236972 0.314542 0.919189
-1.11346 0.389107 -2.22991 -0.349774 -0.110442 0.930301
-1.05234 0.387135 -2.17138 -0.166915 -0.266913 0.949156
-0.941288 0.369256 -2.22537 0.156609 -0.221428 -0.962519
-0.915604 0.385892 -2.2389 0.34679 -0.0641429 -0.935747
-0.934989 0.330723 -2.13858 -0.131606 -0.331814 0.934119
-1.06011 0.410192 -2.16738 -0.293448 0.283132 0.913085
-1.02295 0.481057 -2.23218 -0.166915 -0.266913 0.949156
-0.935019 0.400714 -2.13977 -0.309601 -0.346257 0.885581
-0.988618 0.450375 -2.15877 -0.265371 0.393149 0.880348
-1.01079 0.426502 -2.20654 -0.121647 0.120561 0.985224
-0.969382 0.45387 -2.21354 -0.166915 -0.266913 0.949156
-0.875695 0.387122 -2.16939 -0.273073 0.269484 0.923477
-0.819662 0.370134 -2.1767 -0.131606 -0.331814 0.934119
-0.855604 0.387238 -2.16259 -0.505563 0.375023 0.777022
-0.863287 0.395145 -2.1751 0.0153068 0.179817 -0.983581
-0.766068 0.33047 -2.15787 -0.248016 -0.276472 0.928467
-0.729096 0.330224 -2.17334 -0.159469 -0.14868 0.975943
-0.720253 0.360528 -2.15592 -0.159469 -0.14868 0.975943
-0.791531 0.337085 -2.20954 0.0153068 0.179817 -0.983581
-0.888914 0.42644 -2.20818 0.459524 0.0313715 -0.887611
-0.811772 0.489723 -2.20217 -0.265371 0.393149 0.880348
-0.84205 0.466804 -2.18742 0.63361 -0.155368 -0.757891
-0.809721 0.420473 -2.15737 -0.335737 0.212331 0.917712
-0.81859 0.450161 -2.17581 0.0153068 0.179817 -0.983581
-0.728059 0.49024 -2.17381 -0.335737 0.212331 0.917712
-0.881504 0.387922 -2.12471 -0.273073 0.269484 0.923477
-0.691321 0.331059 -2.12508 -0.250994 -0.347371 0.903513
-0.783185 0.491386 -2.10477 -0.566725 0.0372918 0.823063
-0.683238 0.844395 -2.18332 0.00835202 -0.127676 -0.991781
-0.681199 0.907663 -2.14083 -0.00109114 0.30804 0.951373
-0.686981 0.908363 -2.10174 -0.641262 0.0768246 0.763466
-0.683691 0.7935 -2.09296 -0.641262 0.0768246 0.763466
-0.691453 0.748229 -2.10784 -0.427178 0.134281 0.894141
-0.734787 0.86736 -2.15827 0.00835202 -0.127676 -0.991781
-0.540833 0.141637 -2.24078 -0.00848617 0.103449 0.994599
-0.612587 0.197198 -2.20629 0.135111 -0.425173 -0.894971
-0.595277 0.104342 -2.07939 -0.163593 0.378614 0.910982
-0.49238 0.0917834 -2.08538 -0.468049 -0.104093 0.87755
-0.472223 0.131618 -2.09602 -0.650494 0.0125841 0.759407
-0.66705 0.204896 -2.04567 -0.592156 -0.128584 0.795498
-0.613061 0.271203 -2.11809 -0.0294478 -0.132696 0.990719
-0.472907 0.265179 -2.08705 -0.510812 0.265182 0.817771
-0.353496 0.0510657 -2.13097 -0.309439 0.281651 0.908251
-0.363828 0.168544 -2.13872 -0.238832 -0.0272214 0.970679
-0.221815 0.254641 -2.21114 -0.045804 0.227356 0.972734
-0.380568 0.0841571 -2.08374 -0.238832 -0.0272214 0.970679
-0.345683 0.144421 -2.10248 -0.238832 -0.0272214 0.970679
-0.31725 0.123858 -2.06131 -0.320872 0.0169965 0.94697
-0.317266 0.0663667 -2.06029 -0.320872 0.0169965 0.94697
-0.303682 0.0527964 -2.03011 -0.320917 0.0159062 0.946974
-0.376915 0.276659 -2.09022 -0.00400845 0.0241901 0.999699
-0.334923 0.270699 -2.09981 -0.494635 -0.000126227 0.869101
-0.398726 0.207536 -2.04438 -0.223108 -0.307858 0.924903
-0.424601 0.209024 -2.05442 -0.603912 0.014394 0.796921
-0.362867 0.219749 -2.06231 -0.223108 -0.307858 0.924903
-0.309293 0.227579 -2.04428 -0.223108 -0.307858 0.924903
-0.677889 0.370946 -2.1324 -0.250994 -0.347371 0.903513
-0.487764 0.293461 -2.13574 -0.0294478 -0.132696 0.990719
