ply
format ascii 1.0
comment PCL generated
element vertex 252
property float x
property float y
property float z
element camera 1
property float view_px
property float view_py
property float view_pz
property float x_axisx
property float x_axisy
property float x_axisz
property float y_axisx
property float y_axisy
property float y_axisz
property float z_axisx
property float z_axisy
property float z_axisz
property float focal
property float scalex
property float scaley
property float centerx
property float centery
property int viewportx
property int viewporty
property float k1
property float k2
end_header
1.8156509 -1.3287866 2.5589333
1.8112316 -1.3687735 2.5607421
1.803309 -1.3695437 2.5637698
1.7461476 -1.3701869 2.5856001
1.6191149 -1.3902577 2.6341715
1.5401273 -1.3703305 2.6642745
1.3828726 -1.3704486 2.7243264
1.302577 -1.3705641 2.7549896
1.1878061 -1.3705436 2.7988174
1.078373 -1.37034 2.8406067
0.80768251 -1.370392 2.9439764
0.7307229 -1.3703933 2.9733653
0.57141018 -1.3305827 3.0340824
0.49178314 -1.3306755 3.0644901
0.33658743 -1.3707241 3.1238766
0.22319388 -1.4006553 3.167269
0.14352345 -1.3707503 3.1976027
0.029419184 -1.3707072 3.2411761
-0.048207283 -1.3707315 3.2708197
-0.19169784 -1.3666936 3.3256028
-0.23151374 -1.3667527 3.3408074
-0.46305013 -1.3668673 3.4292257
-0.58184266 -1.3595227 3.4745674
-0.89641428 -1.3273666 3.5945969
-0.98342824 -1.2073358 3.6274619
-1.489239 -1.3668612 3.8211007
-1.7906784 -1.4075546 3.9363356
-1.8177383 -1.4076622 3.9466696
-1.8220044 -1.4074905 3.9482982
-1.8711503 -1.3710761 3.9669554
-1.9524925 -1.3216552 3.9978685
-1.9952308 -1.2919904 4.0140991
-2.3681359 -1.3341353 4.1566296
-2.5225873 -1.4154443 4.2158566
-2.648165 -1.4164011 4.2638144
-2.760864 -1.4170618 4.3068533
-2.9322932 -1.4183109 4.3723216
-2.9660926 -1.4185658 4.3852296
-3.1797113 -1.4199382 4.4668088
-3.4315977 -1.4215876 4.5630031
-3.4743357 -1.421887 4.5793242
-3.5128055 -1.4221288 4.5940156
-3.569833 -1.4224751 4.6157942
-3.6632953 -1.4230151 4.6514864
-3.7460608 -1.423551 4.683094
-3.8820612 -1.4244252 4.7350321
-4.0113568 -1.4252678 4.784409
-4.1764116 -1.4262878 4.8474426
-4.2721834 -1.4269619 4.884017
-4.303472 -1.4271194 4.8959661
-4.4394722 -1.4279945 4.9479036
-4.5569158 -1.4287642 4.9927545
-4.7101169 -1.4297134 5.0512609
-4.915164 -1.3965155 5.1294627
-5.024435 -1.3968672 5.1711917
-5.2479124 -1.367723 5.2564435
-5.3658733 -1.3983585 5.3015823
-5.6419563 -1.3998576 5.4070163
-5.7358913 -1.4003093 5.4428887
-5.8739433 -1.4334978 5.4957075
-5.9564381 -1.4140402 5.5271516
-6.1927614 -1.4028133 5.617363
-6.2325897 -1.4030398 5.6325731
-6.4289875 -1.4090849 5.7075906
-6.4688444 -1.404312 5.7227964
-6.5086732 -1.4045385 5.7380071
-6.5471268 -1.4072213 5.7526994
-6.6254387 -1.4051307 5.7825985
-6.8632741 -1.406852 5.8734269
-6.9946404 -1.4375219 5.9236851
-7.2035089 -1.4331443 6.0034332
-7.3287716 -1.3943001 6.0511503
-7.4894509 -1.3956826 6.1125135
-7.7618003 -1.4378719 6.2166448
-7.8546691 -1.4063909 6.2520137
-8.0908384 -1.418337 6.3422365
-8.2493124 -1.4020683 6.4027047
-8.4123211 -1.4428858 6.4650769
-8.4040298 -1.3628327 6.461669
-8.4136534 -1.2778934 6.4650865
-8.4173431 -1.2429857 6.4663897
-8.4169836 -1.2029692 6.4661312
-8.416626 -1.1629528 6.4658737
-8.4169121 -1.0429398 6.46562
-8.4158745 -1.0029061 6.4651022
-8.4379129 -0.8427422 6.4730339
-8.4496136 -0.76267886 6.4772596
-8.4502592 -0.68268251 6.4772639
-8.4304676 -0.54571748 6.4692917
-8.4308119 -0.50322008 6.4692945
-8.442441 -0.41351211 6.473464
-8.4399576 -0.38344145 6.4724245
-8.440567 -0.2234312 6.4721732
-8.4398308 -0.18349481 6.4717712
-8.4439402 -0.14350678 6.4732194
-8.4422188 -0.10345425 6.4724407
-8.4461346 0.043965027 6.4734898
-8.446599 0.10146275 6.4734936
-8.4940815 0.33668578 6.4909139
-8.4950504 0.45667985 6.490921
-8.4979925 0.73664963 6.4911971
-8.5013618 0.81657231 6.4922423
-8.5026903 0.89655161 6.4925075
-8.5175114 1.0068989 6.4978333
-8.5097561 1.096397 6.4946012
-8.4994974 1.1766828 6.4904404
-8.5021877 1.2566249 6.4912257
-8.4949541 1.2893221 6.4883642
-8.4929714 1.2968771 6.4875846
-8.484354 1.3271112 6.4842019
-8.3878136 1.3000057 6.4474182
-8.3135872 1.298033 6.4190788
-8.2231865 1.3189949 6.3844938
-8.1408424 1.3247404 6.3530312
-7.9403124 1.3239589 6.2764564
-7.8221889 1.3249331 6.2313452
-7.7257285 1.307827 6.194561
-7.6216993 1.3291512 6.1547709
-7.5859785 1.3318782 6.1411214
-7.5502176 1.3296062 6.1274724
-7.4894791 1.3097727 6.1043377
-7.4516544 1.3050544 6.0899076
-7.3713531 1.3107464 6.0592256
-7.3248115 1.3237634 6.0414133
-7.1709256 1.3224636 5.9826517
-7.0528402 1.328437 5.9375401
-6.9602137 1.3248823 5.9021792
-6.9136448 1.3279012 5.8843865
-6.8063297 1.3259975 5.8434114
-6.7239957 1.3292161 5.8119607
-6.570056 1.3228322 5.7531943
-6.5235252 1.3308501 5.7354012
-6.4769182 1.3288699 5.7176089
-6.3588381 1.3347863 5.6724997
-6.2157021 1.3255826 5.6178675
-6.1691713 1.3336017 5.6000738
-6.0510721 1.3370172 5.554965
-5.9700241 1.35445 5.523962
-5.8148918 1.3463506 5.4647455
-5.6967173 1.3397679 5.4196377
-5.6251297 1.3326671 5.3923216
-5.5785608 1.3356861 5.3745289
-5.5558848 1.2779874 5.366044
-5.5205588 1.1581521 5.3529167
-5.4726844 1.0786946 5.3348751
-5.1193724 0.92074347 5.2004323
-4.9537745 1.0020059 5.1369491
-4.9156094 1.042282 5.1222525
-4.8329425 1.0828555 5.0905619
-4.7811866 1.1096044 5.0707164
-4.6275744 1.1505679 5.0119319
-4.5486012 1.1510962 4.9817724
-4.4345469 1.1517889 4.9382162
-4.2774463 1.1928121 4.8780994
-4.1166191 1.1539524 4.8168011
-4.0002651 1.114692 4.7724872
-3.9206133 1.1152376 4.7420688
-3.8183451 1.0758945 4.7031341
-3.7236609 1.0365403 4.6670957
-3.6430645 0.99710119 4.6364374
-3.5902383 0.95742631 4.6163845
-3.4829578 0.87819505 4.5756569
-3.4020929 0.79875875 4.5450168
-3.3626769 0.75901604 4.5300851
-3.3212273 0.71932101 4.5143766
-3.2414505 0.59985387 4.4842734
-3.2024448 0.52009916 4.4696198
-2.9436095 0.3615264 4.3712568
-2.9071732 0.36172011 4.3573422
-2.8315892 0.36217138 4.3284774
-2.7492254 0.36277822 4.2970228
-2.7344608 0.3628777 4.2913842
-2.7107563 0.36302015 4.2823319
-2.6743195 0.363215 4.2684169
-2.6331377 0.36351731 4.2526898
-2.6185749 0.36365131 4.247128
-2.5534873 0.36406246 4.2222719
-2.4202936 0.32816708 4.1715169
-2.3811462 0.32846344 4.1565666
-2.3263564 0.32885498 4.135643
-2.1884985 0.28986686 4.0831165
-2.0343194 0.25099152 4.0243568
-1.9286246 0.21182993 3.9841135
-1.8008636 0.17272377 3.9354432
-1.6450253 0.093881249 3.8761711
-1.5596414 0.054626986 3.843684
-1.2108405 0.30146849 3.709739
-1.1946673 0.42162666 3.7031994
-1.1974652 0.46154353 3.7041469
-1.1578939 0.54165637 3.6887932
-1.1208746 0.5816884 3.6745353
-1.0838559 0.62172079 3.6602778
-1.0446 0.66175175 3.6451659
-0.92897248 0.74205768 3.6007676
-0.81165361 0.78234327 3.5558448
-0.65999079 0.86257923 3.4976859
-0.42638826 1.0631244 3.4078722
-0.38894558 1.1831744 3.3932104
-0.31089568 1.2633631 3.3631625
-0.27253914 1.3034362 3.3483939
-0.22213793 1.3413804 3.3290322
-0.12920833 1.3670237 3.293467
-0.082742929 1.3798466 3.2756844
-0.040275335 1.3773737 3.2594748
0.071223021 1.3626471 3.2169409
0.14803553 1.3626931 3.187608
0.26611924 1.3755448 3.1424761
0.3484993 1.375895 3.1110163
0.42202544 1.3784673 3.0829306
0.46253633 1.3786194 3.0674601
0.46661758 1.3787477 3.0659013
0.5738759 1.3737602 3.0249572
0.62050819 1.3741055 3.0071483
0.72776604 1.3691177 2.9662046
0.7992506 1.3716261 2.9388986
1.0410566 1.5400172 2.8460498
1.271708 1.3880383 2.7584298
1.3540707 1.3933872 2.7269614
1.4034681 1.3813176 2.7081342
1.5546966 1.3590903 2.6504514
1.6728325 1.3569435 2.6053448
1.7194486 1.3622888 2.587527
1.7865424 1.3422976 2.5619664
1.8204651 1.2223057 2.5493753
1.8426595 1.1826494 2.5410197
1.8432178 1.102314 2.5410495
1.858983 0.98265922 2.5353913
1.8591199 0.94266105 2.5354602
1.8730707 0.78266883 2.5306168
1.8754425 0.74267089 2.5298321
1.8754773 0.73267162 2.5298491
1.8744912 0.62263393 2.5305586
1.892323 0.46234527 2.5242343
1.8770947 0.34234923 2.5304127
1.877368 0.26235294 2.5305502
1.8929963 0.18269601 2.5248234
1.8913207 0.10236044 2.5257063
1.902842 -0.00013382733 2.5216167
1.8988194 -0.017761216 2.5232062
1.8677025 -0.17763065 2.5355728
1.8678393 -0.21762925 2.5356417
1.8693357 -0.25758532 2.5351911
1.8791337 -0.32900256 2.5316656
1.879282 -0.37978184 2.5317626
1.8235211 -0.56884718 2.5536284
1.8281693 -0.68885398 2.5522165
1.8282251 -0.72885168 2.552316
1.8222537 -0.88922238 2.5550818
1.82409 -0.96882844 2.5546215
1.8220229 -1.0888155 2.555774
1.8243752 -1.1688173 2.5551176
1.8223071 -1.2888064 2.5562706
0 0 0 1 0 0 0 1 0 0 0 1 0 0 0 0 0 252 1 0 0
