ply
format ascii 1.0
comment PCL generated
element vertex 228
property float x
property float y
property float z
element camera 1
property float view_px
property float view_py
property float view_pz
property float x_axisx
property float x_axisy
property float x_axisz
property float y_axisx
property float y_axisy
property float y_axisz
property float z_axisx
property float z_axisy
property float z_axisz
property float focal
property float scalex
property float scaley
property float centerx
property float centery
property int viewportx
property int viewporty
property float k1
property float k2
end_header
-0.83926892 -1.3927187 -4.3872561
-0.76970518 -1.3944273 -4.206882
-0.73981023 -1.3949482 -4.1293635
-0.70914304 -1.3905082 -4.0497675
-0.61761034 -1.3971595 -3.8124962
-0.54088676 -1.406058 -3.6136632
-0.51959527 -1.4003259 -3.5583615
-0.48969945 -1.4008517 -3.4808407
-0.41258964 -1.3623043 -3.2802901
-0.32140741 -1.3634021 -3.0438442
-0.24877879 -1.404593 -2.8561177
-0.22029915 -1.3650479 -2.7816648
-0.11766008 -1.3672715 -2.5155246
-0.10404164 -1.3675306 -2.4802117
-0.044511825 -1.3685688 -2.3258491
0.030886531 -1.3724186 -2.1303766
0.092237741 -1.3710579 -1.971254
0.12291691 -1.3716276 -1.8917023
0.15281229 -1.3721534 -1.8141825
0.20265976 -1.3729017 -1.6849244
0.25392026 -1.3737984 -1.5520042
0.32983428 -1.3751788 -1.3551573
0.3996048 -1.3836665 -1.1743494
0.44682175 -1.3845483 -1.051915
0.49489939 -1.3854409 -0.92724884
0.64088881 -1.4006467 -0.54888403
0.70142758 -1.3892826 -0.39171737
0.73210371 -1.3898758 -0.31217396
0.82281876 -1.3865736 -0.076872945
0.86858666 -1.3924456 0.041728377
0.94423711 -1.3938632 0.23789108
0.9892118 -1.3946855 0.35451162
1.0196278 -1.3952626 0.43338072
1.0606382 -1.3960029 0.53972161
1.0802001 -1.3964 0.59044552
1.0942392 -1.3966131 0.62685001
1.1064588 -1.3967087 0.65853751
1.1743138 -1.3976256 0.83449185
1.2984849 -1.360231 1.1570691
1.3482568 -1.3608913 1.2861325
1.3784126 -1.3614498 1.3643271
1.4085692 -1.3620114 1.4425238
1.4540836 -1.3703676 1.5604299
1.5148956 -1.3640211 1.7182294
1.5451255 -1.3920789 1.7962013
1.5913256 -1.3654869 1.9164134
1.6365601 -1.3663265 2.0337071
1.6815752 -1.3821491 2.1502061
1.7122109 -1.3677438 2.2298708
1.7566659 -1.3685336 2.3451443
1.7724621 -1.2488869 2.3879132
1.7725074 -1.1689067 2.3892374
1.7720335 -1.0888946 2.389215
1.7568942 -0.96863675 2.3517685
1.7567257 -0.80866152 2.353745
1.7716353 -0.64896625 2.3948188
1.7754104 -0.40926147 2.4082246
1.7775348 -0.32941535 2.4149384
1.7741344 -0.097892433 2.4096122
1.7661445 -0.017800096 2.3901005
1.7518368 0.15736252 2.3556385
1.7508364 0.22239278 2.3540249
1.7495235 0.30243292 2.3518276
1.7554229 0.38230193 2.3683314
1.7644829 0.50718206 2.3937106
1.7695225 0.58235234 2.4079137
1.7690237 0.7021119 2.4084268
1.7629565 0.82219213 2.3945041
1.7485573 0.94236821 2.3589754
1.7557821 1.1023635 2.380125
1.7702842 1.2622116 2.4201446
1.7671487 1.3323265 2.4130707
1.7655277 1.3423897 2.409019
1.7585769 1.3626665 2.3912992
1.7405921 1.3605043 2.3446269
1.7173064 1.3656708 2.284318
1.6950359 1.3786796 2.2267604
1.658044 1.3690151 2.1306834
1.6358291 1.364524 2.0730052
1.5987972 1.367358 1.9770135
1.5765502 1.3728669 1.9194037
1.5723197 1.3705386 1.9083978
1.5533125 1.3630345 1.8589929
1.5173196 1.3662119 1.7657005
1.4760573 1.3667167 1.6587025
1.4400563 1.3723937 1.5654269
1.3988099 1.3678991 1.4583949
1.3258169 1.3639122 1.2690417
1.3088297 1.3750072 1.2251564
1.2718077 1.3749268 1.129146
1.2316201 1.3765246 1.0249516
1.1627524 1.3675081 0.84622109
1.1172514 1.3708646 0.72827411
1.103493 1.3635621 0.69248414
1.0814118 1.3592925 0.63515699
1.0663345 1.3563855 0.59601283
1.0484045 1.3543483 0.54948425
1.022132 1.3628452 0.48148036
0.96287894 1.3563983 0.32772195
0.91193461 1.3519185 0.19554055
0.87605476 1.3553445 0.10254514
0.85266155 1.3529719 0.041843653
0.84435254 1.3510054 0.020266175
0.80717409 1.3513287 -0.076143742
0.76710963 1.3650208 -0.17983633
0.75331718 1.3702183 -0.21552587
0.72577322 1.3656113 -0.28702515
0.71199435 1.3658074 -0.32275492
0.68447018 1.3537014 -0.39431596
0.64858335 1.3596281 -0.48729175
0.59891802 1.3657515 -0.61599648
0.56592363 1.3558078 -0.70171082
0.53320527 1.3537757 -0.78658986
0.49411035 1.3826597 -0.88753903
0.46658605 1.3705549 -0.95910037
0.42108488 1.3739107 -1.0770479
0.40313482 1.3793733 -1.1235154
0.39391112 1.3766235 -1.1474767
0.38015217 1.3718215 -1.1832302
0.36183202 1.3674649 -1.2308055
0.33885583 1.3649156 -1.290428
0.32089776 1.3678442 -1.3369546
0.30922186 1.3654273 -1.3672701
0.28475201 1.365865 -1.4307212
0.2455129 1.3666949 -1.5324674
0.23409139 1.3667631 -1.5620857
0.18858813 1.3700891 -1.6800392
0.12934712 1.3611119 -1.8338042
0.11309689 1.3690157 -1.8758266
0.11137518 1.3690405 -1.8802912
0.086537153 1.3695688 -1.9446957
0.06378901 1.3699815 -2.0036821
0.047927052 1.3702952 -2.0448122
-0.02090016 1.358785 -2.2234755
-0.05682385 1.367142 -2.3165102
-0.10159737 1.3727859 -2.4325361
-0.11009809 1.3728325 -2.4545805
-0.16160211 1.3739897 -2.5881283
-0.18914661 1.3743865 -2.6595535
-0.20304421 1.374416 -2.6955936
-0.22628471 1.3747494 -2.7558579
-0.24841544 1.3754094 -2.8132398
-0.27135858 1.3771716 -2.8727117
-0.28511468 1.3773986 -2.9083819
-0.29809085 1.3764658 -2.9420471
-0.31262133 1.3753495 -2.9797459
-0.32637075 1.3730755 -3.0154364
-0.35735247 1.3749883 -3.0957525
-0.38071105 1.3726529 -3.1563635
-0.39866272 1.3730816 -3.2029109
-0.41737196 1.3747797 -3.2514043
-0.43038651 1.3737097 -3.285171
-0.44416544 1.3764067 -3.3208632
-0.46655229 1.379228 -3.3788762
-0.48087415 1.3810352 -3.4159899
-0.503824 1.3853234 -3.475441
-0.5175885 1.385499 -3.5111337
-0.52831924 1.3867711 -3.5389428
-0.54683697 1.3858718 -3.586978
-0.56962395 1.3873745 -3.646049
-0.61512136 1.3881875 -3.7640252
-0.64681566 1.3763011 -3.8463974
-0.67017281 1.3814945 -3.9068909
-0.68393409 1.3791962 -3.9426126
-0.70610225 1.3848141 -4.0000167
-0.70804238 1.3845479 -4.0050521
-0.75159955 1.3856275 -4.1179924
-0.76012635 1.3855683 -4.1401057
-0.76536739 1.3858287 -4.1536937
-0.78869724 1.3810235 -4.2142673
-0.80656278 1.3865802 -4.2605143
-0.82037067 1.3616354 -4.2966986
-0.82452893 1.3493446 -4.3076677
-0.86452436 1.2677321 -4.4126186
-0.85494757 1.0674435 -4.3908043
-0.8552494 0.98747224 -4.3927937
-0.85607469 0.90752804 -4.3961396
-0.81790793 0.74650407 -4.2995911
-0.81345713 0.66641712 -4.2892566
-0.83887446 0.42724192 -4.3587794
-1.036536 0.31032845 -4.8731384
-1.0504149 0.35052818 -4.9085245
-1.0642942 0.39072728 -4.9439111
-1.0794842 0.43099284 -4.9826961
-1.1277136 0.47193536 -5.1071515
-1.1582435 0.51247954 -5.1857128
-1.1753054 0.51278412 -5.2299547
-1.2252164 0.55365998 -5.3587723
-1.2759882 0.51446933 -5.4910302
-1.2758774 0.474471 -5.4913459
-1.2302405 0.23390612 -5.3766246
-1.2238823 0.11382408 -5.3619475
-1.2253809 0.033851944 -5.3670402
-1.2249357 -0.12614125 -5.368299
-1.236238 -0.24591897 -5.399416
-1.2234073 -0.36614355 -5.3679557
-1.2451289 -0.58590591 -5.4276013
-1.2452796 -0.6258918 -5.4285951
-1.2450569 -0.70588779 -5.429225
-1.2449459 -0.74588722 -5.4295402
-1.2470396 -0.84076542 -5.4364009
-1.2469283 -0.88076377 -5.4367161
-1.2445 -0.90587986 -5.4307976
-1.2332813 -1.025933 -5.4035149
-1.2342554 -1.1059304 -5.407248
-1.2329469 -1.145927 -5.4044576
-1.2310405 -1.2660003 -5.4013252
-1.2300315 -1.3460371 -5.3999157
-1.2316784 -1.413442 -5.4052033
-1.2009227 -1.3465183 -5.3244357
-1.1864456 -1.3192598 -5.2864804
-1.1566969 -1.2672821 -5.2085495
-1.1422539 -1.2275237 -5.1704946
-1.1122799 -1.0680782 -5.0903578
-1.0973125 -1.0283452 -5.0509439
-1.0833942 -0.98856199 -5.0142493
-1.0681648 -0.94884336 -4.9741554
-1.0568665 -0.90892965 -4.9442539
-1.0386041 -0.82936919 -4.8956938
-0.84296381 -0.99269795 -4.3908038
-0.84199238 -1.0327079 -4.3888879
-0.84274137 -1.0726933 -4.3914337
-0.8407979 -1.1527162 -4.3876004
-0.84154713 -1.192701 -4.3901467
-0.84884119 -1.3149364 -4.4109063
-0.29619989 -0.96431029 -2.9724531
-0.49052879 -0.72093874 -3.4727349
-0.36828449 -0.48267439 -3.1521249
0 0 0 1 0 0 0 1 0 0 0 1 0 0 0 0 0 228 1 0 0
