ply
format ascii 1.0
comment PCL generated
element vertex 477
property float x
property float y
property float z
element camera 1
property float view_px
property float view_py
property float view_pz
property float x_axisx
property float x_axisy
property float x_axisz
property float y_axisx
property float y_axisy
property float y_axisz
property float z_axisx
property float z_axisy
property float z_axisz
property float focal
property float scalex
property float scaley
property float centerx
property float centery
property int viewportx
property int viewporty
property float k1
property float k2
end_header
-9.1485052 -1.6649557 1.6850076
-8.8034668 -1.6622757 1.6017829
-8.5742092 -1.2600356 1.5500522
-8.4103031 -1.2591374 1.510514
-8.3766899 -1.2599003 1.5023972
-8.3813887 -1.0999297 1.5049558
-8.3878479 -0.90000236 1.5082948
-8.1972885 -0.65835977 1.4644705
-8.198945 -0.65081489 1.4649374
-8.3972702 -0.61962634 1.5130661
-8.4356403 -0.61242366 1.5223877
-8.4675159 -0.60540324 1.530141
-8.5888157 -0.65361255 1.5589778
-8.684967 -0.65616602 1.5821542
-8.7038183 -0.65700459 1.586695
-8.7420683 -0.67730188 1.5957429
-8.7849932 -0.74245965 1.6055191
-8.7798815 -0.79759073 1.6037947
-8.7530661 -0.90237725 1.5963914
-8.750494 -0.94235575 1.5954148
-8.7429562 -1.0222933 1.5928841
-8.8187962 -1.2227882 1.6093962
-8.9439163 -1.3258811 1.6386663
-8.9893656 -1.3437334 1.649473
-9.1964264 -1.6653283 1.6965666
-10.647036 0.68061775 2.0674572
-10.646971 0.6656189 2.0673079
-10.648419 0.62566608 2.0673018
-10.648246 0.5856688 2.0669034
-10.663813 0.20481403 2.0672669
-10.661155 0.1448383 2.0660911
-10.518013 -0.29493582 2.0276375
-10.517931 -0.31368679 2.0274506
-10.518076 -0.37366998 2.0269513
-10.51758 -0.39368069 2.0266533
-10.518305 -0.41365492 2.0266504
-10.517694 -0.55364543 2.0252562
-10.518158 -0.63361681 2.0246556
-10.558167 -0.99379814 2.0311003
-10.591246 -1.3137521 2.0362315
-10.611168 -1.353617 2.040683
-10.567554 -1.4459482 2.0293379
-10.539551 -1.4334618 2.0226922
-10.139778 -1.4312801 1.9262571
-9.9242487 -1.6687887 1.87214
-9.9210005 -1.6688778 1.8713555
-9.9058914 -1.6686175 1.8677125
-10.643935 0.74468511 2.0672798
-10.647181 0.71311468 2.0677814
-10.64735 0.70562112 2.0677557
0.73205853 -1.0275187 -0.69323421
0.88708401 -0.78745818 -0.72849941
0.88303089 -0.747311 -0.72716379
0.8812685 -0.66728878 -0.72602582
0.87579155 -0.58596694 -0.72397995
0.87611198 -0.53472143 -0.72360086
0.88200855 -0.46714389 -0.7244215
0.88690329 -0.42714554 -0.72524607
0.89659309 -0.3871479 -0.72722781
0.89184475 -0.36714077 -0.72590387
0.8809824 -0.28706115 -0.72256982
0.87289715 -0.24717529 -0.72026384
0.85668564 -0.24730797 -0.71635354
0.82646179 -0.28763133 -0.70942056
0.82881117 -0.30763769 -0.7101655
0.82866526 -0.36762768 -0.71066475
0.83101702 -0.38763463 -0.71141028
0.83571625 -0.42763299 -0.7129004
0.83885622 -0.5075478 -0.71436989
0.84012556 -0.5876264 -0.71538949
0.75395679 -0.849617 -0.69693291
0.74714899 -0.90727794 -0.695804
-0.69954729 -1.6331799 -0.35322034
-0.6358428 -1.6259928 -0.36852658
-0.72676849 -1.6257538 -0.34658647
-0.77232742 -1.6257473 -0.3355943
-0.84033012 -1.6258152 -0.31918764
-0.96811771 -1.6381469 -0.28846562
-1.0128069 -1.6355641 -0.27766025
-1.1346288 -1.640929 -0.24831569
-1.1726117 -1.6404694 -0.23914731
-1.2623677 -1.6332612 -0.21742737
-1.3197489 -1.6430254 -0.20366979
-1.3517838 -1.6430973 -0.19594121
-1.4091587 -1.6503623 -0.18216276
-1.4542193 -1.6432366 -0.17122746
-1.537292 -1.6481507 -0.15122795
-1.6393447 -1.6478332 -0.12660253
-1.7417855 -1.6504736 -0.10190976
-1.760777 -1.6502432 -0.097325563
-1.8442154 -1.6481116 -0.07717514
-1.9015908 -1.655377 -0.063396573
-1.9447765 -1.6653712 -0.053066134
-1.952641 -1.6652176 -0.05116725
-1.9573894 -1.6651599 -0.050021052
-1.9726868 -1.6652918 -0.046331406
-1.9742217 -1.6652153 -0.045960307
-1.9846382 -1.6502901 -0.043314099
-1.6819162 -1.2652823 -0.1129235
-1.6830845 -1.2577682 -0.1125747
-1.61797 -1.1052824 -0.12692678
-1.5806222 -1.090592 -0.13580704
-1.4028268 -0.94562042 -0.17741299
-1.349823 -0.84313047 -0.18928838
-1.2753253 -0.7856133 -0.20675039
-1.2481103 -0.78556991 -0.21331632
-1.2381473 -0.78560364 -0.21572042
-1.1929607 -0.78557694 -0.22662258
-1.1874967 -0.86549735 -0.22865272
-1.1923904 -0.90549564 -0.22782826
-1.1997814 -0.98549151 -0.22675765
-1.2095613 -1.0629867 -0.22508836
-1.0705218 -1.6257852 -0.26364803
-1.0195022 -1.6284436 -0.27598155
-0.95542622 -1.6258001 -0.29141784
-6.5194349 -1.1371901 1.0553833
-6.1087141 -1.1355281 0.95630205
-5.745297 -1.0538907 0.86934632
-5.4610705 -0.9419868 0.80176675
-5.3735809 -0.93191636 0.78074753
-5.2437558 -0.91176939 0.74960363
-5.1326323 -0.93164587 0.72261536
-5.1130528 -0.93164253 0.71789134
-5.0379539 -0.91849613 0.69988906
-4.9164734 -0.92570686 0.67051482
-4.7751694 -0.7777096 0.63774019
-4.7903199 -0.77791035 0.64139378
-4.7951126 -0.77792811 0.64255011
-4.8398814 -0.78294039 0.65330684
-4.8782306 -0.7855767 0.66253603
-4.9230027 -0.78559124 0.67333829
-4.9946699 -0.78616762 0.69062448
-5.0380554 -0.78350127 0.70111609
-5.076407 -0.78113949 0.71039033
-5.1225376 -0.78387749 0.72149611
-5.1992645 -0.77427125 0.74009383
-5.2184477 -0.77187049 0.74474359
-5.2631803 -0.77004802 0.75555259
-5.442348 -0.69257683 0.79947114
-5.6020198 -0.76816809 0.83732241
-5.6915245 -0.77068007 0.85889512
-5.7450738 -0.77300668 0.87179446
-5.8025503 -0.77464724 0.88564742
-5.8289461 -0.77410936 0.89202076
-5.857738 -0.77358592 0.89897227
-5.8960485 -0.77012706 0.90824634
-5.9791808 -0.75783169 0.92841345
-6.0686893 -0.75784308 0.95000947
-6.0942521 -0.75342202 0.95621645
-6.177413 -0.75228125 0.97629112
-6.2477298 -0.74786556 0.99329603
-6.3563643 -0.7611475 1.0193884
-6.4202847 -0.7544257 1.0348706
-6.4906244 -0.73751092 1.0519924
-6.5704551 -0.77780783 1.0708945
-6.7456665 -1.0929067 1.1103616
-6.9629579 -1.1094705 1.1626408
-7.0779815 -1.1300602 1.1902094
-7.5632858 -1.0527267 1.3079895
-7.0799618 -1.1400007 1.1905987
-7.0331559 -1.1793783 1.178955
-7.0139456 -1.1967793 1.174165
-6.8720913 -1.2181014 1.1397493
-6.7974591 -1.1776913 1.1221026
-6.5825648 -1.1374018 1.070613
-10.151834 -1.4138741 1.9293213
-10.312452 -1.1514783 1.9704114
-10.312626 -1.1114811 1.9708095
-10.315372 -1.0315063 1.9721847
-10.314178 -0.95138502 1.97261
-10.314528 -0.87139142 1.9734069
-10.317272 -0.79141557 1.9747816
-10.320019 -0.71144044 1.9761567
-10.32037 -0.63144726 1.9769537
-10.324484 -0.59159517 1.9783015
-10.324659 -0.55159801 1.9787
-10.325009 -0.47160399 1.9794971
-10.321331 -0.41146165 1.9791453
-10.321419 -0.39146543 1.9793446
-10.323901 -0.37148297 1.9801216
-10.326384 -0.3515048 1.9808986
-10.328957 -0.31152683 1.9818753
-10.329985 -0.29209566 1.9822967
-10.330763 -0.25165713 1.9828446
-10.33074 -0.21209042 1.9831916
-10.330103 -0.17211647 1.9833938
-10.205704 0.068724215 1.9555249
-10.210016 0.15357167 1.9573209
-10.338196 0.38791174 1.9903349
-10.339238 0.46767008 1.9912969
-10.337366 0.58768034 1.9919142
-10.337542 0.62767655 1.9923128
-10.337357 0.70825148 1.9929857
-10.331194 0.74841362 1.9918567
-10.331545 0.82840776 1.992654
-10.333263 0.86827683 1.9934239
-10.322659 0.98847038 1.9919361
-10.322835 1.0284667 1.9923346
-10.055492 1.3719909 1.930892
-9.9950562 1.3730363 1.9163196
-9.9885616 1.3728561 1.9147509
-9.9502239 1.3731538 1.9055039
-9.9118862 1.3734523 1.8962564
-9.9024601 1.3738714 1.893986
-9.8634872 1.3727894 1.8845733
-9.8443184 1.3729377 1.8799498
-9.7867785 1.3658848 1.8660039
-9.767601 1.363535 1.8613558
-9.7484417 1.3661832 1.8567569
-9.6659155 1.3704771 1.8368838
-9.7010174 1.3725883 1.8453717
-9.7393541 1.3722913 1.8546188
-9.8033781 1.3770254 1.8701081
-9.8608847 1.376577 1.883979
-9.8891745 1.3778206 1.8908156
-9.9183931 1.3761319 1.8978503
-9.959343 1.3745449 1.9077163
-9.9788303 1.3750864 1.9124229
-10.036652 1.3753285 1.9263759
-10.078259 1.3801202 1.9364574
-10.119855 1.382413 1.9465138
-10.18026 1.3738666 1.9610116
-10.195863 1.3729395 1.9647679
-10.22508 1.3712502 1.9718026
-10.256913 1.3682722 1.9794563
-10.285497 1.3652049 1.9863254
-10.310833 1.3620458 1.9924102
-10.34362 1.3470238 2.0001872
-10.362612 1.3068779 2.0044117
-10.372716 1.266569 2.0064905
-10.356253 1.1071665 2.0010986
-10.555975 0.82578456 2.0467796
-6.6408987 1.4382523 1.1076306
-6.6780305 1.4330786 1.1165434
-6.6970291 1.4250035 1.1210554
-6.7519345 1.3967273 1.1340507
-6.8822594 1.3691235 1.1652488
-6.99119 1.372039 1.1915569
-7.0421019 1.3811733 1.2039219
-7.0743418 1.3843857 1.2117292
-7.1381474 1.3938031 1.2272077
-7.221292 1.3986497 1.2473115
-7.5300674 1.3758738 1.3216078
-7.2148318 1.3835081 1.2456179
-7.1700382 1.3835144 1.2348105
-7.16359 1.3833718 1.2332534
-7.0868979 1.3836678 1.2147523
-7.0614438 1.3816009 1.2085924
-6.99085 1.3685372 1.1914436
-6.9144878 1.3623365 1.1729642
-6.8377934 1.3601322 1.1544403
-6.801908 1.3567768 1.1457522
-6.6522036 1.3925105 1.1099508
-6.4794502 1.362676 1.0680041
-6.453999 1.3631095 1.0618672
-6.3963065 1.3578309 1.0479006
-6.3692422 1.3582278 1.0413742
-6.2493529 1.3410666 1.0122952
-6.211 1.3337144 1.0029761
-6.1407638 1.3441516 0.98612291
-6.0192986 1.364453 0.95699739
-5.9619455 1.362676 0.94314378
-5.8978128 1.3647546 0.92768878
-5.814671 1.3624088 0.90760803
-5.7444329 1.370347 0.89073211
-5.7318754 1.3710647 0.88770872
-5.6677389 1.3681428 0.87220824
-5.6100631 1.3803619 0.85840142
-5.5512452 1.4014248 0.8443979
-5.4760547 1.4188794 0.82641184
-5.4502692 1.4208102 0.82020766
-5.399363 1.4191751 0.8079108
-5.2713861 1.3718382 0.77661163
-5.2201462 1.3717012 0.76424754
-5.1370177 1.3843536 0.74430358
-5.0844703 1.3838813 0.73162103
-5.0158744 1.3906586 0.71513104
-4.9951153 1.3922887 0.71013689
-4.931078 1.3969294 0.69472772
-4.9886999 1.4021642 0.70867705
-5.0718284 1.4095136 0.72879922
-5.1101799 1.4093765 0.73805118
-5.2839055 1.4021127 0.77990192
-5.3674688 1.4244667 0.80026263
-5.4506102 1.426813 0.82034343
-5.4950647 1.4233036 0.83103782
-5.5079546 1.4185897 0.83410585
-5.5678535 1.4008585 0.84839988
-5.718987 1.3757792 0.88464105
-5.7892256 1.3703409 0.90153933
-5.8530235 1.3697604 0.91692692
-5.8788152 1.3728292 0.92317718
-5.9300532 1.3704662 0.9355185
-6.0386457 1.3723792 0.96173608
-6.0769906 1.3697327 0.97096407
-6.1088862 1.366942 0.97863472
-6.1984715 1.3644315 1.000227
-6.2687106 1.3589929 1.0171254
-6.3070598 1.3613449 1.026399
-6.3966475 1.3638328 1.0480363
-6.5445671 1.4384249 1.0843898
-6.5565515 1.4383798 1.087281
-3.5055277 1.4184963 0.35097212
-3.4224138 1.4311464 0.33103162
-3.358551 1.4216679 0.31553876
-3.2625504 1.3790724 0.29199696
-3.1922593 1.3619715 0.27488518
-3.2306097 1.3618344 0.28413689
-3.3521087 1.3965454 0.31376064
-3.538306 1.4060273 0.3587696
-3.5567091 1.4011087 0.36316597
-3.6589112 1.3954484 0.38777423
-3.7036746 1.382936 0.39846295
-3.7484455 1.3804239 0.40924263
-3.8128753 1.3657912 0.42465752
-3.8508255 1.3681456 0.43383491
-4.0170836 1.3828448 0.47407952
-4.0233202 1.3820878 0.47557753
-4.0936036 1.3891888 0.49259827
-4.1319523 1.3865527 0.50182736
-4.1576438 1.3895484 0.50805271
-4.2086582 1.3937776 0.52039886
-4.230238 1.4036998 0.52569383
-4.2470212 1.4111391 0.52980942
-4.4518089 1.4190818 0.57929009
-4.4885182 1.4038053 0.58801103
-4.5284863 1.3888087 0.59752059
-4.4389777 1.4363334 0.57634795
-4.4293489 1.443648 0.57409
-4.3990269 1.4439394 0.56677663
-4.3901844 1.4437144 0.56464112
-4.2855935 1.4593805 0.53954566
-4.2598996 1.4538854 0.53329742
-4.0554447 1.397706 0.48346743
-3.9721324 1.3919767 0.46331531
-3.9147036 1.3976223 0.44950956
-3.8635101 1.4000107 0.43717915
-3.7868059 1.3952851 0.41863036
-8.6685381 1.3843387 1.5963664
-8.4378223 1.3722453 1.5405931
-8.3806658 1.3808819 1.5268795
-8.335844 1.3834995 1.5160885
-8.2526855 1.3864141 1.4960506
-8.1890125 1.3898703 1.4807186
-8.1695366 1.3918291 1.476037
-8.0488033 1.4264188 1.4472156
-7.9974985 1.4313561 1.434881
-7.9207897 1.4244521 1.4163117
-7.8759131 1.4145703 1.4053961
-7.7289715 1.395943 1.3697771
-7.6776319 1.3933802 1.3573673
-7.6711378 1.3932002 1.3557987
-7.6009779 1.3989749 1.3389225
-8.6750107 1.3795196 1.597885
-8.3997049 1.2789311 1.530565
-8.1628122 1.1955427 1.4726663
-7.8945799 1.3712348 1.4095138
-7.8179269 1.3768296 1.3910694
-7.7730827 1.3744472 1.3802285
-7.7159147 1.3805839 1.36649
-7.6152229 1.3655154 1.3420615
-7.6091342 1.3653463 1.340591
-7.5495305 1.3714144 1.3262641
-1.9438524 1.3867824 -0.02610147
-2.0076785 1.3913248 -0.010661483
-2.2554648 1.3660356 0.048897505
-2.2801366 1.3656687 0.054846942
-2.2885838 1.365831 0.056886435
-2.3006501 1.3660623 0.05979985
-2.320899 1.3656098 0.064681292
-2.3580394 1.3654817 0.073641181
-2.3656821 1.3656282 0.075486481
-2.3799303 1.3651654 0.078920007
-2.3831148 1.3651208 0.079688013
-2.4088559 1.3656156 0.085903049
-2.4459975 1.3654866 0.094863236
-2.4871619 1.365436 0.10479462
-2.529129 1.3654009 0.1149199
-2.5764635 1.3521271 0.12622219
-2.6660302 1.3421648 0.14774352
-2.7511237 1.3431097 0.16828281
-2.8278251 1.3428345 0.18678635
-2.8726017 1.3478221 0.19763422
-2.9493017 1.3475472 0.21613741
-2.1306679 1.3258497 0.018429399
-1.9376202 1.3254158 -0.02815187
-2.1738098 1.3257318 0.028837323
-2.2175183 1.3261504 0.039386809
-2.3080275 1.3553619 0.061484456
-2.4040294 1.3530234 0.084626377
-2.4230716 1.352547 0.08921653
-2.4997683 1.3498372 0.10769725
-2.5316799 1.3446091 0.11535013
-2.6148126 1.3320239 0.13529575
-2.6360629 1.328521 0.14039165
-2.9123826 1.0878382 0.20491648
-2.9167755 1.0878134 0.20597607
-8.7127476 1.3853413 1.6070418
-8.7322216 1.3833821 1.6117228
-8.8089085 1.3852868 1.6302425
-8.8283825 1.3833276 1.6349237
-8.9174156 1.3817139 1.6563907
-8.9239111 1.3818929 1.6579593
-8.9498806 1.3801146 1.6642091
-9.0200825 1.3843384 1.6811848
-9.096736 1.3787434 1.6996294
-9.1604404 1.3827865 1.7150357
-9.2695827 1.3805934 1.7413492
-9.3650665 1.3691609 1.7642851
-9.2565603 1.3727334 1.7381372
-9.2370739 1.3721926 1.7334309
-9.1480408 1.3738073 1.711964
-9.1096935 1.3716054 1.702692
-9.0648823 1.3767215 1.691926
-8.9940796 1.3786176 1.6748599
-8.7133265 1.3742217 1.6070824
-8.7958736 1.3749268 1.6270052
-8.9050484 1.3802327 1.6533934
-0.01939106 1.4330058 -0.49001169
0.017837524 1.4430175 -0.49890471
0.060577869 1.4327685 -0.5093081
0.20252323 1.3925949 -0.5439136
0.2542367 1.3929192 -0.5563879
0.31141281 1.4001685 -0.57011843
0.36227894 1.3875008 -0.58250391
0.44606686 1.3704053 -0.60287201
0.37557316 1.3703285 -0.58586442
0.36305904 1.3729939 -0.58282137
0.28007603 1.3855814 -0.56268752
0.24169254 1.3830843 -0.55344892
0.1649394 1.3830904 -0.53493035
0.08195591 1.3956789 -0.51479638
0.0051956177 1.3931843 -0.49629843
-0.077782631 1.4082724 -0.4761436
-2.1582556 1.3258533 0.025085568
-4.2855058 -0.77548122 0.51961714
-4.1751013 -0.75835937 0.49313185
-4.1240921 -0.75508952 0.48085383
-4.0216994 -0.75780976 0.45612496
-4.1112437 -0.760337 0.47770715
-4.1367497 -0.75822181 0.48387995
-4.2483602 -0.77532148 0.51065624
-3.5805628 -0.77917242 0.34950006
-3.6765409 -0.7665754 0.37276924
-3.5614879 -0.76866376 0.34499139
-3.5359852 -0.76577902 0.33886397
-3.5231397 -0.76602811 0.33576244
-3.5102937 -0.76627588 0.33266079
-3.4080875 -0.768116 0.30798477
-3.497447 -0.76902366 0.3295368
-3.0907402 -0.77271569 0.23137623
-3.1715658 -0.76491755 0.25094682
-3.062937 -0.76438218 0.22474235
-3.0181611 -0.76936901 0.21389467
-2.9476993 -0.76735151 0.19691205
-2.9093461 -0.77221406 0.1876151
-2.6339626 -0.74539697 0.12141114
-2.5456526 -0.91290247 0.098612189
-2.4165425 -1.0654119 0.066102862
-2.4228735 -1.0653348 0.067631066
-2.5714462 -1.1050873 0.10312361
-2.6175251 -1.1308045 0.11401218
-2.787796 -1.1160291 0.15522569
-0.77627802 -1.6331701 -0.33470714
-3.5950606 1.4034708 0.37244022
-3.2227585 -0.76730716 0.26327699
-3.2099133 -0.76755428 0.26017553
-3.2034917 -0.76767826 0.25862509
-3.1906478 -0.7654255 0.25554627
-9.5249338 1.3731487 1.8028924
-9.5444088 1.3711895 1.8075738
-9.5476551 1.3712798 1.8083577
-9.5762615 1.3732119 1.8152769
-9.556776 1.3726709 1.8105707
-9.5314293 1.3733288 1.8044612
-9.6016073 1.3725529 1.8213865
-9.582756 1.3733927 1.8168457
0 0 0 1 0 0 0 1 0 0 0 1 0 0 0 0 0 477 1 0 0
