ply
format ascii 1.0
comment PCL generated
element vertex 444
property float x
property float y
property float z
element camera 1
property float view_px
property float view_py
property float view_pz
property float x_axisx
property float x_axisy
property float x_axisz
property float y_axisx
property float y_axisy
property float y_axisz
property float z_axisx
property float z_axisy
property float z_axisz
property float focal
property float scalex
property float scaley
property float centerx
property float centery
property int viewportx
property int viewporty
property float k1
property float k2
end_header
-10.440691 1.3499787 1.7134327
-10.469021 1.3048539 1.7213299
-10.478266 1.2257395 1.7221695
-10.483109 1.144771 1.7215427
-10.46172 0.98724514 1.7104105
-10.460204 0.84717572 1.7061431
-10.460232 0.82718801 1.7056127
-10.462112 0.70741987 1.7029859
-10.465296 0.66531152 1.7028738
-10.462279 0.58749437 1.6998036
-10.458258 0.50837445 1.6963748
-10.590673 0.22644311 1.731371
-10.620168 0.14934298 1.73878
-10.576434 0.10898799 1.7236201
-10.445292 -0.13104504 1.674949
-10.445128 -0.16910505 1.6738694
-10.450301 -0.25294513 1.6732713
-10.457397 -0.29396909 1.6744475
-10.459846 -0.31494647 1.6746691
-10.459792 -0.35396314 1.673599
-10.459986 -0.4148826 1.6720175
-10.454799 -0.59260958 1.665553
-10.564298 -0.81408852 1.6948071
-10.569462 -0.83360475 1.6959422
-10.564358 -0.85656136 1.6936802
-10.555446 -1.0147996 1.6865431
-10.555505 -1.0572722 1.685416
-10.564746 -1.1338878 1.6863219
-10.560207 -1.1542935 1.6843109
-10.555894 -1.3345995 1.6780577
-10.556005 -1.4145496 1.6759361
-10.537305 -1.4148901 1.6699103
-10.437427 -1.268302 1.6417305
-10.439844 -1.1902962 1.6446135
-10.441768 -1.0684872 1.6485193
-10.441821 -1.0294685 1.6495892
-10.439289 -0.9485305 1.6509585
-10.443909 -0.86959845 1.6545746
-10.443519 -0.66876608 1.6598686
-10.450724 -0.63175362 1.6631855
-10.403809 1.3669976 1.7020251
-10.348127 1.3771362 1.6843837
-10.246796 1.375602 1.6517394
-10.219388 1.3805895 1.6430557
-10.099341 1.3887079 1.6046507
-10.053235 1.3933556 1.5899417
-10.016275 1.3888446 1.5779284
-9.9423561 1.3773246 1.5538347
-9.9884567 1.3776752 1.5686767
-10.034556 1.3780239 1.5835183
-10.089792 1.3767103 1.6012545
-10.117628 1.3753886 1.6101747
-10.163732 1.3732402 1.6249504
-10.455055 1.0690134 1.7104727
-10.453806 1.03037 1.7090279
-10.445763 0.95112491 1.7043015
-10.451691 0.9102354 1.7051054
-10.452317 0.87031364 1.70423
-10.450717 0.79020679 1.7015536
-10.446041 0.75124872 1.6989977
-10.448522 0.63129348 1.696559
-10.451164 0.47040451 1.6930678
-10.4488 0.43141741 1.6912552
-10.446545 0.39147308 1.6894516
-10.453918 0.3085593 1.6895869
-10.449246 0.19060957 1.6849008
-10.445774 0.14620075 1.6825852
-10.442864 0.10692161 1.6805893
-10.438465 0.026075482 1.6769922
-10.436211 -0.013869226 1.6751889
-10.433847 -0.052857816 1.6733766
-10.434069 -0.13376534 1.6712646
-10.440454 -0.20806301 1.6713141
-10.447607 -0.28906155 1.6714301
-10.442959 -0.34800774 1.6683439
-10.440735 -0.407938 1.666011
-10.440818 -0.4679026 1.6644198
-0.036178112 1.3722317 -1.6335485
0.019874573 1.3691461 -1.6516664
-0.071894646 1.3951695 -1.621438
-0.09990406 1.3992116 -1.6123171
-0.12679672 1.4014218 -1.603605
-0.15480471 1.4054635 -1.5944846
-0.18115091 1.4068677 -1.5859699
-0.18675375 1.4073284 -1.5841548
-0.18774652 1.4061879 -1.5838662
-0.18571997 1.4054098 -1.5845393
-0.12800026 1.3907586 -1.6035054
-9.9696178 -1.6676271 1.480441
-9.9523296 -1.6677585 1.474875
-9.98106 -1.6668222 1.4841442
-0.25442266 -0.82875842 -1.6227214
-0.44865274 -1.0559204 -1.5663588
-0.49652767 -1.0558009 -1.5509523
-0.53379583 -0.83030194 -1.5328765
-0.54258251 -0.80205089 -1.5292872
-0.45053959 -0.37565476 -1.5473956
-0.43981266 -0.37020296 -1.5506997
-0.25418091 -0.79377776 -1.6218553
-1.8590512 1.3642527 -1.0472667
-1.8609667 1.3623197 -1.0467027
-1.8979125 1.3670397 -1.0346882
-1.9718599 1.3664844 -1.0109111
-2.0179791 1.3594191 -0.99626327
-2.0440106 1.3527956 -0.98806655
-2.0919538 1.3538673 -0.97261238
-2.1663051 1.3776908 -0.9480474
-2.1474733 1.3918765 -0.95372355
-2.0605054 1.3789206 -0.98205447
-1.9790144 1.374149 -1.0084025
-1.9069347 1.3827398 -1.0313618
-1.8680153 1.385021 -1.0438224
-1.8542037 1.3751361 -1.0485328
-8.1507778 1.3644331 0.97705841
-8.0859756 1.3662405 0.95625746
-8.0028973 1.3738734 0.92973363
-7.9476705 1.3676908 0.911798
-7.919405 1.3678446 0.90270782
-7.8367605 1.374146 0.8762877
-7.7806616 1.3731236 0.85821062
-7.7258587 1.3756053 0.84064507
-7.6797609 1.3727574 0.82573664
-7.6336627 1.3724082 0.81089544
-7.6058264 1.3737299 0.80197489
-7.5966911 1.375392 0.79908049
-7.274076 1.3859223 0.69556546
-7.5871134 1.383383 0.79621458
-7.7071486 1.3827591 0.83481824
-7.7345457 1.3852663 0.84370077
-7.8271875 1.379638 0.87335581
-7.8915577 1.3766625 0.89398617
-7.956358 1.3773522 0.91485381
-8.0302744 1.388872 0.93894684
-8.0768986 1.4019243 0.95430005
-8.1046104 1.4115546 0.96347606
-8.2616234 1.4029503 1.0137616
-8.2874451 1.4066831 1.0221702
-8.3324852 1.4062097 1.0366491
-8.4456129 1.3881891 1.0725607
-8.5291233 1.3817247 1.0992553
-8.5939178 1.384914 1.1201884
-8.6217575 1.3810928 1.1290425
-8.7226524 1.3864574 1.1616493
-8.7965975 1.37799 1.1852123
-8.852705 1.371516 1.2030901
-8.9449091 1.369718 1.2327074
-8.8465805 1.3598335 1.2008041
-8.8062038 1.3500118 1.187548
-8.7692299 1.3529959 1.1757327
-8.7254305 1.360112 1.1618325
-8.6213322 1.3749285 1.1287395
-8.5935001 1.3737524 1.1197529
-8.4830322 1.3738809 1.084214
-8.4278049 1.3701968 1.0663457
-8.344738 1.3703327 1.0396229
-8.3260384 1.3699929 1.0335972
-8.2242765 1.3647916 1.000716
-5.9720788 1.3748269 0.27635723
-5.8385253 1.4024976 0.23413393
-5.7414532 1.4374769 0.20384564
-5.7181597 1.4435672 0.19651531
-5.5101395 1.3822569 0.12793195
-5.4640656 1.3842927 0.11316276
-5.4270859 1.3846276 0.10127395
-5.3901191 1.3824654 0.089321822
-5.3622379 1.3811003 0.080314398
-5.2791824 1.3834722 0.053655922
-5.2149348 1.3839126 0.032996505
-5.1763926 1.3878907 0.020703018
-5.1393967 1.3907146 0.0088762045
-5.0851579 1.3943467 -0.0084768534
-5.0389624 1.3880782 -0.023509026
-4.9642606 1.3921709 -0.047433376
-4.899353 1.3936 -0.068278372
-4.8623457 1.3989221 -0.080041617
-4.7513456 1.4098892 -0.11545935
-4.6600103 1.4005382 -0.14509812
-4.6021972 1.4060411 -0.16355053
-4.5877161 1.4063294 -0.16820201
-4.4939122 1.4077711 -0.1983439
-4.4199548 1.4059222 -0.22218904
-4.4101696 1.4060874 -0.22533283
-4.3641114 1.4081304 -0.24009672
-4.3361778 1.4117323 -0.24898693
-4.2720528 1.3997234 -0.26994273
-4.3271513 1.4034576 -0.25211444
-4.3920574 1.4020292 -0.23126987
-4.4283543 1.3951536 -0.21977714
-4.5302811 1.3859043 -0.18723252
-4.5951629 1.3894739 -0.16626093
-4.6133003 1.3885345 -0.16045061
-4.6412334 1.3849318 -0.15156057
-4.7152152 1.3817846 -0.12784234
-4.7800965 1.3853531 -0.10687092
-4.8261561 1.3833086 -0.092106789
-4.8910747 1.3793817 -0.07132557
-4.9650192 1.3837302 -0.047417074
-5.0020151 1.3809078 -0.035590112
-5.0215898 1.3812639 -0.02928251
-5.039773 1.3803618 -0.023456544
-5.0571232 1.3821425 -0.017826051
-5.121295 1.3841577 0.0028751493
-5.1877108 1.3740216 0.023970366
-5.2156029 1.3728884 0.032913893
-5.27073 1.3791461 0.050819606
-5.3537965 1.3742747 0.077414185
-5.4277191 1.3810995 0.10138249
-5.4550018 1.3784976 0.11009023
-5.4926138 1.3746336 0.12208742
-5.5756798 1.3697624 0.14868185
-5.6496487 1.3665918 0.1723953
-5.695713 1.3670541 0.18722871
-5.7696824 1.3638849 0.21094233
-5.8436508 1.3607147 0.23465556
-5.9340768 1.36149 0.26377052
-5.936348 1.3616898 0.26450658
-6.0466928 1.3656292 0.30011562
-6.1388226 1.3665534 0.32978272
-6.20367 1.3700812 0.35074216
-6.2497578 1.3655474 0.36544827
-6.3140178 1.362608 0.38604409
-6.4067698 1.3625029 0.41588366
-6.3049083 1.3668078 0.38322648
-6.2491002 1.3740726 0.36546662
-6.2030473 1.3711113 0.35056952
-6.1297131 1.370754 0.32696503
-6.0920892 1.3771158 0.3150315
-6.0272183 1.3785849 0.29419941
-4.5711346 -1.1672339 -0.24298188
-4.5619249 -1.174649 -0.24614522
-4.2847567 -0.77159661 -0.32444629
-4.2397966 -0.77173942 -0.33891562
-4.3012447 -0.76096636 -0.31885442
-4.3835773 -0.76488918 -0.29247037
-4.4205379 -0.76021606 -0.28045246
-4.4945059 -0.76086408 -0.25667116
-4.5405173 -0.75291342 -0.24165282
-4.6325989 -0.74950415 -0.21193418
-4.7155457 -0.7318837 -0.18477127
-4.9833584 -0.61316067 -0.095400661
-5.2292099 -0.76287836 -0.020339549
-5.3582048 -0.74734432 0.021582842
-5.4502759 -0.74891645 0.051163673
-5.496325 -0.75345021 0.065857321
-5.5702944 -0.75171965 0.089703262
-5.7483253 -0.65316409 0.14964294
-5.8472519 -0.52412492 0.18495382
-6.0812755 -0.73274595 0.25461993
-6.2450285 -0.72530347 0.30750722
-6.3218608 -0.73330134 0.33201167
-6.4299483 -0.71972769 0.36715436
-6.5122967 -0.75585169 0.39267457
-6.5516534 -0.77125114 0.40492177
-6.6661134 -0.81182522 0.44065371
-6.707262 -0.85469741 0.45273614
-6.7351551 -0.89496082 0.4606241
-6.6644077 -0.97699851 0.43564788
-6.6211424 -1.0974128 0.41847825
-6.6177998 -1.0926728 0.41753072
-6.191051 -1.0164397 0.2822842
-5.8719096 -0.93162006 0.18189138
-5.6906323 -1.2895088 0.11390951
-5.5065813 -0.96686226 0.06339851
-5.080729 -1.1279855 -0.077964306
-5.0646214 -1.1478055 -0.083681613
-8.3971691 -0.29791409 1.0114764
-8.393199 -0.31576782 1.0097173
-8.3934784 -0.360156 1.0086094
-8.3935061 -0.3801434 1.0080791
-8.4395266 -0.47781724 1.0202503
-8.4489059 -0.49888366 1.0226996
-8.5044613 -0.57456666 1.0385319
-8.4997482 -0.89451665 1.0283819
-8.4975491 -0.97443622 1.0255177
-8.504921 -1.0573506 1.0256523
-8.5047302 -1.0754237 1.0251031
-8.5073433 -1.1373305 1.0242736
-8.2743206 -1.4506066 0.94084644
-8.2574949 -1.6546676 0.92992663
-8.3576717 -1.6531181 0.96219969
-8.3859453 -1.6582689 0.97115767
-8.3950815 -1.6599321 0.97405207
-8.4490356 -1.660233 0.99140334
-8.4576807 -1.6601684 0.99418664
-8.5115309 -1.1386397 1.0255855
-8.5086212 -1.0989263 1.0257211
-8.5166378 -1.0194411 1.0304451
-8.5669127 -0.77834445 1.0531265
-8.947298 -0.64519769 1.1791055
-9.1815071 -1.0234063 1.2442554
-9.12397 -1.2615404 1.2193174
-9.2202711 -1.1034472 1.2545675
-9.3547974 -0.95168966 1.3019456
-9.3547821 -0.94169563 1.3022103
-9.3637238 -0.80344576 1.3088177
-9.3636742 -0.76846677 1.3097454
-9.0560179 -0.66007489 1.2136842
-9.0490828 -0.65748554 1.2115226
-9.0212336 -0.64616948 1.2028677
-8.7839413 -0.28122014 1.1363683
-8.7810736 -0.27148706 1.1357083
-8.6980133 -0.27634716 1.1088529
-8.5270987 -0.24007797 1.0548412
-8.5039806 -0.22978085 1.047681
-8.467001 -0.22179914 1.0359983
-8.4209232 -0.2371394 1.020759
-8.404809 -0.27939993 1.0144342
-3.054399 -0.92500478 -0.72444499
-2.9039373 -0.48738486 -0.76104629
-3.219768 -0.77982408 -0.66732109
-3.2846878 -0.78375036 -0.64653957
-3.3956275 -0.78222543 -0.61080432
-3.4228144 -0.77988654 -0.60199392
-3.5156198 -0.77742201 -0.5720681
-3.5986629 -0.77978998 -0.54541337
-3.5624251 -0.78540748 -0.55722415
-3.0915711 -1.0827916 -0.71674287
-2.9156451 1.1715267 -0.71251547
-3.3019545 1.4414151 -0.58094037
-2.9399238 1.4111702 -0.69823742
-2.9239144 1.412951 -0.70334017
-2.884263 1.4125178 -0.71610951
-2.8458257 1.4142518 -0.72842968
-2.8303642 1.4164279 -0.73334551
-2.7933795 1.4167523 -0.7452364
-2.7541294 1.4168823 -0.75786138
-2.7456341 1.4161513 -0.7606144
-2.7268074 1.4124634 -0.76677132
-2.6528738 1.4080522 -0.79067791
-2.6068585 1.40007 -0.80569839
-2.5887091 1.3985109 -0.81157994
-2.5608301 1.3945848 -0.8206557
-2.5911584 1.3885479 -0.81106067
-2.8051853 0.99432188 -0.75283682
-2.8053772 0.95434397 -0.7538538
-2.808151 0.93261182 -0.75354779
-2.8207493 0.85217321 -0.751665
-2.8215139 0.69226176 -0.75573397
-2.8217051 0.65228385 -0.75675118
-2.814687 0.53279293 -0.7622335
-2.8079441 0.49287641 -0.76548016
-2.8293207 0.37276 -0.76184356
-2.8295121 0.3327831 -0.76286077
-2.8321142 0.25323769 -0.76416993
-2.8277509 0.21786618 -0.76652825
-2.8283489 0.092936188 -0.76970708
-2.8520381 -0.027200878 -0.76532686
-2.9041309 -0.22751129 -0.75397158
-2.9055848 -0.10762328 -0.7502687
-2.9025159 -0.067674041 -0.75017822
-2.9032662 0.012380362 -0.74777663
-2.9021502 0.12726671 -0.74503565
-2.9065578 0.17220268 -0.74240494
-2.9032893 0.37211132 -0.73806226
-3.0019245 0.56776911 -0.70104742
-2.9289167 0.85074216 -0.71690142
-2.9254801 0.97327834 -0.71470058
-2.9252815 1.0523729 -0.71263027
-2.9158361 1.1315486 -0.71353281
-6.470994 1.3670614 0.43667036
-6.5449514 1.3663889 0.46044746
-6.6091881 1.3684483 0.48117068
-6.6461797 1.3656144 0.49299601
-6.600749 1.3616233 0.47827137
-6.5910397 1.3618553 0.47515363
-6.5268021 1.3597963 0.45443007
-6.8680267 1.3685963 0.56445438
-6.7577491 1.361078 0.52877039
-6.7116838 1.3606154 0.5139367
-7.2377782 1.3727342 0.68353093
-7.1826277 1.3714745 0.66575265
-7.1638322 1.3709075 0.65969008
-7.0625935 1.3741822 0.62720561
-7.0898399 1.3790751 0.63610399
-7.1359167 1.3770394 0.6508739
-7.1547227 1.375107 0.65687245
-7.1917009 1.3747716 0.66876101
-7.2098732 1.3763666 0.67465085
-7.2371311 1.3787616 0.68348551
-2.9047112 -0.40743846 -0.75864005
-2.904218 -0.30499375 -0.75603437
-2.9041443 -0.40748817 -0.75882375
-2.8926737 -0.30738997 -0.75981331
-6.7201371 1.364942 0.51677316
-6.7940702 1.3692687 0.54067749
-6.8771009 1.3718933 0.56746292
-6.9049826 1.3732585 0.57647043
-6.9419727 1.370423 0.58829528
-6.9789629 1.3675894 0.60012019
-7.0062099 1.372483 0.60901868
-6.9795613 1.3715575 0.60041964
-6.6928663 1.3650467 0.5080018
-3.4235377 -0.78083175 -0.60178673
-9.1105909 1.3832672 1.2863801
-9.2036371 1.398793 1.316736
-9.2417545 1.3934151 1.3288549
-9.3324051 1.3753533 1.3575337
-9.3693762 1.3723686 1.3693483
-9.4524326 1.3797269 1.3962698
-9.489399 1.3792404 1.4081504
-9.4433031 1.3763933 1.3932424
-9.3606815 1.3677032 1.366425
-9.2867508 1.3661776 1.342597
-9.2497787 1.3691611 1.3307823
-9.2219439 1.3704832 1.3218622
-9.1571369 1.3747901 1.3011272
-9.0740767 1.36993 1.2742718
-9.0001459 1.3684046 1.2504439
-8.9540424 1.3705529 1.2356684
-9.6185713 1.3769552 1.449649
-9.6838026 1.3788128 1.4706869
-9.7390385 1.3775003 1.4884231
-9.7853546 1.3784342 1.5033503
-9.8314543 1.3787827 1.5181921
-9.8408041 1.3777038 1.5211711
-9.8773403 1.3760502 1.5328817
-9.8960419 1.3763902 1.538908
-9.9325733 1.3772349 1.5506846
-9.8036261 1.3751082 1.5091393
-9.8401623 1.3734543 1.5208499
-9.8686523 1.3688874 1.529893
-9.9051762 1.374728 1.5418022
-9.9234409 1.3764002 1.5477238
-4.2260075 1.3992689 -0.28476986
-4.1799598 1.3988123 -0.29959765
-4.1890116 1.402091 -0.29659697
-9.6746769 1.3729806 1.4675936
-9.7386074 1.3763328 1.488253
-9.776226 1.3750999 1.5003232
-9.7851419 1.3753514 1.5031986
-9.5911741 1.3744484 1.4407665
-9.5354996 1.379591 1.4229923
-9.544632 1.3804263 1.4259534
-9.5728998 1.3802724 1.4350441
-3.8093462 1.4129965 -0.41845736
-3.754189 1.4217563 -0.43596742
-3.708179 1.4138041 -0.4509854
-3.5608449 1.4391441 -0.49770537
-3.5517943 1.4358652 -0.50070584
-3.3298757 1.4403102 -0.57198668
-3.5142419 1.4046521 -0.51363027
-3.6154945 1.3863531 -0.48154679
-3.7378728 1.4127632 -0.44145975
-3.7689643 1.413028 -0.43144909
0 0 0 1 0 0 0 1 0 0 0 1 0 0 0 0 0 444 1 0 0
