ply
format ascii 1.0
comment PCL generated
element vertex 716
property float x
property float y
property float z
element camera 1
property float view_px
property float view_py
property float view_pz
property float x_axisx
property float x_axisy
property float x_axisz
property float y_axisx
property float y_axisy
property float y_axisz
property float z_axisx
property float z_axisy
property float z_axisz
property float focal
property float scalex
property float scaley
property float centerx
property float centery
property int viewportx
property int viewporty
property float k1
property float k2
end_header
-7.2949524 1.4367391 -2.2226253
-7.2836819 1.4181844 -2.063143
-7.2437944 1.4332391 -2.0658557
-7.2891388 1.4236953 -2.1404152
-7.2095242 1.4363221 -2.1484535
-6.1717134 -1.1424936 -2.8788588
-6.0465722 -1.0076908 -2.8067973
-5.9009018 -1.1437811 -3.0183764
-7.0870028 1.4312251 -2.1170266
-6.9333401 1.4247423 -2.2482078
-6.9757376 1.4271845 -2.2452006
-7.0846376 -0.76789939 -2.1704471
-7.1458359 -0.76462972 -2.3264925
-7.3939304 -0.37719721 -2.0271449
-7.1409712 1.4299903 -2.3137295
-7.3005867 1.4422673 -2.3023927
-6.8246431 1.5006959 -2.3756709
-6.827445 1.4884598 -2.4156547
-7.0696039 1.4233927 -2.4391072
-6.8190155 1.5001675 -2.2958708
-6.7819328 1.5054882 -2.3385508
-6.8617153 1.4853764 -2.3330579
-7.0240755 1.4229202 -2.3621211
-6.1344624 1.3918378 -2.826067
-6.0861201 1.391101 -2.7091808
-6.3884439 1.3890737 -2.4472716
-6.8310547 -1.1628064 -2.5640278
-7.064599 -0.73379672 -2.4523888
-6.8707123 -0.76296246 -2.5465026
-5.9778633 -1.149158 -2.9728458
-7.2522411 1.4390303 -2.1855228
-6.816206 1.5049044 -2.2559383
-6.5873423 1.4257606 -2.3528023
-6.5452557 1.4135866 -2.3959506
-6.9820032 1.4257464 -2.4051697
-5.0584126 1.3919075 -3.0623562
-5.1232514 1.3918175 -3.0577829
-5.0911613 1.4021305 -3.1000791
-5.5331173 1.3724067 -2.8285046
-5.8527403 -1.0018573 -2.9007146
-5.9767585 -1.0000511 -2.8117075
-7.1066942 1.4255735 -2.3963771
-6.5649862 1.4504339 -2.6750166
-6.6650372 1.4984179 -2.3869421
-5.934958 1.3921146 -2.8401358
-5.8264976 1.3783377 -3.0082769
-6.8303146 -0.9628917 -2.5479519
-6.8622227 -0.76361465 -2.426805
-6.9050045 -0.73097694 -2.4636941
-2.5575209 1.3568926 -4.2333679
-2.215831 1.383468 -4.4986343
-2.13027 1.3404386 -4.4249191
-7.1780653 1.4371703 -2.2709658
-2.1402228 1.3488468 -4.562006
-2.1905332 1.1597967 -4.702487
-2.1871781 1.3494931 -4.656352
-2.1360538 1.3584675 -4.5045929
-6.8588953 1.4776133 -2.2932076
-6.348402 1.4266123 -2.4473414
-7.0105543 -0.73230588 -2.2557089
-7.0048628 -0.75274134 -2.1760221
-6.9335804 -0.73442864 -2.3012819
-6.8563986 -0.86654782 -2.3475783
-6.8024035 -1.1630429 -2.5134294
-7.1034222 -1.4038652 -2.4532914
-7.0421638 -1.4446347 -2.2974548
-6.5879641 1.4062955 -2.4330876
-6.5081635 1.4089069 -2.4386983
-6.8645325 1.4881402 -2.3729405
-5.6138949 1.3905971 -2.9429877
-5.1310554 1.3945738 -3.0973151
-3.7395651 1.361253 -3.6662509
-3.6227715 1.3715137 -3.7147682
-3.859761 1.4238038 -3.6646307
-4.1414065 1.3715298 -3.6771162
-4.0957232 1.3609986 -3.6002891
-4.1668339 1.3427072 -3.4749296
-4.7108707 1.3614004 -3.2347782
-4.6207581 1.366088 -3.2537918
-4.8146253 1.3552835 -3.1599903
-4.8849359 1.3577292 -3.4226978
-4.9248285 1.3627297 -3.4197676
-4.8791471 1.3497006 -3.342958
-4.654254 1.3610166 -3.5597413
-4.7652516 1.3552264 -3.431402
-4.5258775 1.3627186 -3.4487317
-4.4177752 1.3712728 -3.6169474
-3.4675298 1.3844048 -3.7861121
-3.5117743 1.3748038 -3.8431237
-3.6285658 1.3695434 -3.7945731
-5.7467151 1.3984489 -3.0137706
-5.8124404 1.3895181 -2.8086927
-5.9748735 1.4070597 -2.8372211
-5.9434142 1.4079063 -2.9597354
-3.6430023 1.4583638 -3.9934657
-3.278574 1.4255894 -3.9800346
-3.6430056 -1.1933427 -4.0484781
-3.7557466 -1.1537094 -3.9448268
-3.6439092 -1.1932698 -4.0609465
-3.7508948 -0.89156246 -3.8834918
-3.7556109 -0.75405812 -3.8823478
-3.6738813 -0.83395505 -3.9288428
-3.6336017 -0.91405928 -3.9247096
-4.857162 1.3529748 -3.1945996
-4.9045525 1.3633784 -3.140492
-4.8722725 1.341571 -3.2482584
-4.8363562 1.3469347 -3.3059769
-5.0641251 1.3758824 -3.1288245
-5.0141497 1.3775051 -3.1457732
-4.7803588 1.3633662 -3.2425547
-4.8820348 1.3649647 -3.3827536
-4.9406605 1.3816715 -3.2580676
-4.7166605 1.3669307 -3.3145342
-4.4897327 -1.4345037 -3.5523741
-4.5891075 -1.195721 -3.3031485
-4.2133369 -1.4247054 -3.6124537
-5.719882 -1.1571513 -3.1006608
-5.8897991 -1.0096537 -2.8580289
-6.1546946 1.4199343 -2.5437534
-6.9392843 -0.70649374 -2.3809266
-3.0787172 -1.0246483 -4.0131912
-3.5118721 -1.0694315 -3.9018505
-3.3496013 -1.1724095 -3.8741057
-3.5199258 -0.75374031 -4.0197439
-7.0639791 1.4253656 -2.3592911
-5.0524416 1.4214103 -3.2095828
-4.9773974 1.3930916 -3.2284615
-5.0691714 1.4213451 -3.1983426
-5.0704393 1.4214609 -3.2157955
-4.6606646 1.3710334 -3.2509451
-4.4772935 1.3644226 -3.3319283
-4.2836156 1.3574463 -3.4262469
-4.3633871 1.3899475 -3.4202411
-6.7847366 1.4957525 -2.3785174
-6.4480762 1.4283653 -2.7235084
-6.3255572 1.4257681 -2.6920652
-6.8226881 -1.1628596 -2.5520904
-6.7133245 -1.1474174 -2.5998635
-6.7475519 -1.1554329 -2.517278
-6.05199 -1.157254 -2.8874307
-6.1294851 -1.1600899 -2.8493674
-5.9447565 -1.1595384 -2.8950484
-1.5500455 -0.27045572 -4.7183685
-1.4760468 -0.26742876 -4.8039312
-1.381043 0.23005763 -4.8075285
-1.5536354 -0.21012622 -4.7678385
-1.5197341 -0.24958074 -4.853281
-7.098259 1.4322814 -2.2766263
-2.9198265 -1.1128646 -4.2510223
-2.6385579 -1.0905557 -4.243721
-2.7523942 -0.97858334 -4.1545019
-3.0244241 -0.99423647 -4.0345926
-3.1621971 -1.1542467 -4.055522
-2.1337059 1.3482518 -4.4722452
-2.1377087 1.3086177 -4.5273628
-2.1847336 1.171767 -4.6226149
-5.7729535 -0.99419618 -2.9063325
-5.9321423 1.3893517 -2.8002529
-5.133873 1.3998381 -3.137182
-5.4786043 1.3761575 -3.1420357
-6.4682703 1.4164616 -2.4414618
-6.3946342 1.4271505 -2.5343032
-1.8998756 -0.011509508 -4.5308275
-1.8235714 -0.37598008 -4.6189966
-7.0988274 -0.74181247 -2.3698034
-6.8560982 -0.8442713 -2.3073754
-6.5822744 -1.1680477 -2.4488673
-6.5024538 -1.180389 -2.4545963
-6.6204014 1.4262493 -2.4306672
-4.9618258 1.3624666 -3.3769758
-4.9560342 1.3619372 -3.2971888
-5.2752042 1.3419486 -3.2741497
-4.4336104 1.3827145 -3.4552963
-4.4489722 1.3879795 -3.4942524
-5.262248 1.3685871 -2.9679344
-5.2472653 1.3511102 -2.969106
-5.2108164 1.3494649 -3.0919888
-4.1491637 1.4247398 -3.7839849
-4.1459055 1.4244415 -3.739104
-4.1347051 1.4245571 -3.7574623
-4.1471972 1.3745579 -3.7568872
-4.9472589 1.3827301 -3.4180057
-4.8022475 1.3599623 -3.3885787
-4.2466164 1.3552103 -3.4690549
-4.808042 1.3554913 -3.4684007
-6.2467184 1.4291803 -2.817903
-5.8685842 1.3905107 -2.9651282
-6.01477 1.4020045 -2.8344417
-5.8579664 1.3874898 -2.8856964
-3.3225923 1.4257388 -3.999398
-6.1121035 -1.0814388 -2.6020458
-5.8014979 -1.0176477 -2.7440321
-4.3608389 -1.1628921 -3.4398162
-4.1335115 -1.407329 -3.6181362
-4.0108466 -1.362748 -3.5866606
-6.3058062 -1.1672713 -2.5085733
-3.5062754 -1.1648951 -3.8226016
-3.5499694 -1.0745142 -3.8740537
-3.6341145 -0.8990159 -3.9321039
-4.8758516 1.3416712 -3.2630384
-4.7877665 1.3586392 -3.1891084
-3.9058754 -1.035188 -3.6324651
-4.0770502 -0.99537897 -3.5396168
-3.7897179 -0.71406209 -3.8696172
-5.5103345 -1.1798277 -3.1665783
-5.002059 -1.1641684 -3.4334595
-5.2078767 -1.3947576 -3.2594662
-6.6278543 -1.1551924 -2.5257671
-3.272696 -1.1698008 -3.9197695
-5.654757 1.3913441 -3.0604026
-5.6353626 1.3385508 -3.0908663
-5.621026 1.3905547 -2.937474
-5.6263657 1.3905801 -2.9421093
-5.8439007 -1.0000374 -2.776017
-5.9240389 -1.0101693 -2.7754009
-4.0423579 -0.7536124 -3.8615654
-4.1571321 -0.99365807 -3.8145411
-4.0298514 -0.73363256 -3.8623559
-4.0044804 -0.71389949 -3.8239734
-4.2568598 -1.3939531 -3.7294362
-4.3691444 -1.433779 -3.7215316
-3.8962467 1.365993 -3.6147387
-4.3550096 1.4235052 -3.5810511
-4.6455603 1.3677219 -3.4400094
-4.922401 1.3811417 -3.1791842
-4.700562 1.3684773 -3.2481489
-4.5940809 1.3641626 -3.2833445
-6.4477568 1.4280971 -2.6834326
-6.942131 -0.69627547 -2.4207697
-6.2373214 1.4325858 -2.5779426
-6.0136776 -1.1595504 -2.9127171
-5.8610024 -1.1437016 -3.0212061
-5.821094 -1.1486219 -3.0240636
-5.7497644 -1.039596 -2.8280232
-2.1303051 1.2729388 -4.4253645
-2.1054349 1.1479422 -4.4280005
-1.9493778 0.70847583 -4.5224571
-2.1295257 1.0278625 -4.4145145
-1.9672141 0.74874043 -4.5610018
-2.1351957 1.2683867 -4.4927197
-2.904995 1.3483449 -4.0477734
-3.0355015 1.4268396 -4.1881771
-2.6344175 1.3516309 -4.1877136
-2.6147957 1.3559816 -4.4698524
-2.3268411 1.3576797 -4.3704281
-2.409528 1.3554461 -4.4045458
-2.3326325 1.3607084 -4.4502001
-2.1360757 1.3159683 -4.5048723
-2.3355303 1.3559725 -4.4901276
-2.2956328 1.3609719 -4.4929895
-5.8456583 1.3888361 -2.7111168
-5.6528034 1.3547403 -2.8201804
-5.8100238 -0.99449503 -2.8636043
-5.2842717 -0.99742186 -3.0838697
-5.7701077 -1.0044138 -2.8664887
-5.5204406 -1.1749604 -3.1152186
-5.6401029 -1.1622757 -3.1064727
-5.6447444 1.3513594 -3.0613737
-5.6167097 1.3908613 -2.9828882
-5.1516428 1.3925812 -3.1760762
-5.2192783 1.3727554 -3.2115378
-5.1908684 1.381531 -3.2173436
-5.7410707 1.3804214 -2.9340873
-5.6185427 1.367824 -2.9027119
-5.6285515 1.3512647 -3.0449715
-6.4364681 1.427276 -2.5589204
-2.4031422 -1.0326999 -4.3155756
-2.5200305 -0.87294781 -4.2684298
-2.1314094 -0.89451671 -4.4396639
-2.3778684 -0.95136285 -4.519908
-2.462204 -0.99094701 -4.5767126
-2.3432221 -0.95088542 -4.5951109
-2.1700721 -0.2521075 -4.420063
-1.9405107 -0.67123508 -4.572361
-2.8095307 -0.71200132 -4.3892212
-6.6221809 -1.1631278 -2.4460101
-7.0903301 -0.74746513 -2.2501342
-6.8588619 -0.76387274 -2.3794246
-6.702117 1.4905993 -2.3442791
-6.9471016 1.4382944 -2.407548
-5.0271254 1.3786455 -3.1715984
-5.0303826 1.3814441 -3.2164633
-5.0720067 1.3811475 -3.1683238
-4.9759703 1.3819375 -3.2956085
-4.9817634 1.3824667 -3.375397
-5.2352967 1.3644463 -3.2768979
-5.3249173 1.3787689 -3.003547
-5.5387416 1.3679353 -2.9083385
-5.3162122 1.3257442 -3.1139786
-5.2871017 1.351524 -3.036469
-5.3626194 1.3514853 -3.0411692
-5.2650628 1.3688512 -3.0078332
-3.94468 -0.75419223 -3.7934496
-3.9846525 -0.79412878 -3.7907865
-4.061429 1.3840096 -3.6803329
-4.1783838 1.4112653 -3.6340606
-4.2240896 1.3767965 -3.7111843
-4.2182803 1.408766 -3.631181
-4.8450394 1.3602273 -3.425576
-4.7253542 1.360225 -3.4342659
-4.4946651 1.3785108 -3.5712116
-4.4859805 1.3677171 -3.4515936
-4.4344172 1.3832446 -3.5354459
-6.3311901 1.4312946 -2.7718315
-5.8807335 1.3902268 -2.9241731
-6.2857208 -1.1631685 -2.7906823
-6.1987801 -1.1602707 -2.8369348
-6.2486591 -1.1578711 -2.8333838
-6.3641095 -1.1609368 -2.7650611
-5.000968 -1.1567549 -3.1223776
-3.8224247 -1.1946453 -3.7572515
-3.7028656 -1.1673168 -3.7682631
-4.4377475 -1.1680008 -3.3941662
-4.4137363 -1.4343218 -3.6105192
-6.4396477 -1.1714219 -2.6996083
-6.5176945 -1.1617181 -2.6689558
-3.4808609 -1.1762931 -4.0250378
-3.3923774 -1.167115 -3.9110801
-3.39817 -1.1716508 -3.9908965
-3.3212652 -1.1690426 -4.036561
-2.9264917 -1.0497541 -4.3428659
-2.7326341 -0.70673931 -4.4348755
-3.0460229 -0.74725711 -4.332181
-3.164525 -1.144058 -4.0878792
-3.7057421 -1.159585 -3.8081143
-4.053688 -1.3899536 -3.6238205
-3.8227866 -1.1946172 -3.7622392
-4.0286832 -1.3549931 -3.6254289
-4.1563268 -1.3945657 -3.6565149
-4.0919023 -0.99497175 -3.6062162
-3.8281989 -0.91414285 -3.8429291
-5.2972517 -0.99439621 -3.2907612
-5.3121686 -0.97187281 -3.2895496
-6.5536985 -1.1645981 -2.611279
-6.5565357 -1.1593807 -2.6511502
-3.1986985 -1.1744598 -4.0053701
-5.5184922 1.3811959 -3.1391239
-5.938663 1.3885384 -2.6794963
-6.0805016 1.4005724 -2.6293144
-6.0406032 1.4031284 -2.6321113
-5.9251084 1.3886908 -2.7005019
-6.0063262 1.398712 -2.7147584
-2.652225 -1.0722626 -4.3629274
-2.6143193 -0.87253177 -4.3242464
-1.8719382 0.052311391 -4.7329636
-1.8751118 -0.49241847 -4.776453
-2.1080339 -0.79096234 -4.601099
-1.9891148 -0.71043766 -4.6894102
-1.9483941 -0.67097032 -4.6118917
-2.3424978 -0.94845092 -4.5851212
-3.5968111 -0.74634874 -3.9740231
-3.7127163 -0.75396752 -3.9130304
-3.7534359 -0.71383417 -3.9223764
-3.6794426 -0.72099197 -4.0079927
-3.8674188 -0.75411284 -3.834141
-4.1775393 -1.3944329 -3.6725233
-4.2067223 1.3552086 -3.4719508
-4.1350651 1.3834492 -3.5897653
-4.0928268 1.3632338 -3.5603797
-4.1298304 1.3529714 -3.5176542
-4.3354239 1.4235375 -3.5874865
-4.4090796 1.3829786 -3.4971831
-4.9315305 1.3723521 -3.1115332
-4.8545399 1.3702282 -3.1570771
-4.5599799 1.3646902 -3.36603
-6.4466686 1.4282326 -2.7035582
-6.1880803 1.4281907 -2.6616452
-6.163136 1.4207255 -2.6634538
-6.1687632 1.4212532 -2.7432532
-6.3476849 1.4279683 -2.6503897
-2.8113794 1.3457234 -4.4155426
-2.6829987 1.3574253 -4.3044662
-2.7627921 1.3524286 -4.298707
-2.8126631 1.3474295 -4.2951202
-2.1379099 1.0279449 -4.4264383
-2.9992895 1.3021718 -4.2417641
-2.939455 1.3021688 -4.24611
-3.0018377 1.3455832 -4.0006552
-3.0217867 1.3430839 -3.999223
-2.1332355 1.2082063 -4.4656878
-2.1876483 1.1370314 -4.6627398
-2.7171021 1.3543971 -4.2217989
-3.431988 1.3673018 -3.8489654
-2.6938658 1.3484185 -4.4541359
-2.566206 1.3651862 -4.3530006
-2.1871986 1.3094947 -4.6566153
-5.6799922 -1.1597135 -3.1035666
-5.5603209 -1.1673992 -3.1122832
-5.8894215 1.3816432 -2.7632155
-5.9293313 1.3915868 -2.7603347
-5.2061501 1.3522388 -3.1323998
-5.7022343 1.3905756 -2.9517965
-2.6443424 -1.0725272 -4.3233938
-2.1711779 -0.29200649 -4.4352875
-6.74471 -1.1631505 -2.4774203
-6.577631 -1.162816 -2.4892688
-6.5171146 -1.0817752 -2.6585364
-6.8614855 -0.8040601 -2.3468757
-6.8616915 -0.76365626 -2.4193242
-6.9100256 1.4511145 -2.4501777
-5.118504 1.3722066 -3.3254313
-5.226614 1.3536526 -3.1572816
-5.4218521 1.368365 -2.9566796
-5.3648181 1.3787133 -3.0007339
-5.3704395 1.3717417 -3.080584
-5.5730023 1.354852 -2.8258088
-5.5443568 1.3559631 -2.9882212
-4.1306205 1.383499 -3.5976074
-3.8251441 1.3692839 -3.7401974
-3.7502334 1.3847276 -3.8132117
-3.7685924 1.3848112 -3.8244121
-3.5175653 1.3778334 -3.9228942
-4.2581906 1.3787676 -3.6284835
-4.3428664 1.384217 -3.6899788
-4.4518661 1.390744 -3.5341308
-6.3037558 1.4288335 -2.7737834
-6.2884736 1.4285862 -2.7347629
-6.2030473 1.43317 -2.6605558
-5.9006901 1.3976984 -2.9227159
-6.1549106 -1.0338013 -2.6388512
-6.1235442 -1.0055685 -2.761225
-6.160603 -1.0133656 -2.7185385
-5.7594047 -1.0398387 -2.7872393
-5.3406019 -1.0252399 -3.127377
-5.3481545 -1.0247284 -3.1371346
-5.2855182 -0.99232662 -3.101299
-3.6259472 -1.1572088 -3.8138845
-3.5918148 -1.1468066 -3.8965089
-4.5175381 -1.167876 -3.3883841
-4.2988901 -1.4141159 -3.6864026
-6.4710417 -1.1821549 -2.577137
-3.5959923 -1.1933863 -4.0568981
-3.4866135 -1.1608284 -4.1047421
-2.6914773 -1.0718639 -4.4202328
-3.4692624 -1.1597244 -3.8653591
-4.1006842 -0.99465883 -3.6582162
-4.1414251 -1.0191381 -3.7356174
-3.8628623 -1.1945394 -3.7618411
-3.7474809 -0.99435127 -3.8342068
-5.3634362 -1.01498 -3.1657698
-5.552824 1.3842537 -3.1077378
-1.9622478 0.70874047 -4.5616274
-1.8513951 0.42953804 -4.6918459
-1.914525 0.45256796 -4.7673235
-1.9157443 0.19017383 -4.7840147
-2.1853154 0.029292941 -4.6301527
-2.1861808 0.10937288 -4.6420918
-2.1853015 0.056792289 -4.6299706
-1.7907431 -0.39033687 -4.7192354
-1.9862189 -0.7132026 -4.6495314
-3.5597913 -0.73867786 -4.0167665
-3.3320036 -0.74811959 -4.1937513
-3.8303261 -0.70894277 -3.8766711
-3.829047 -0.79405773 -3.8572075
-4.3346992 1.4234715 -3.577512
-4.3321905 1.3732412 -3.5429347
-4.9702187 1.3921812 -3.0911291
-6.2877693 1.4285204 -2.7247882
-6.1974058 1.4176425 -2.5808573
-6.0462236 1.3961562 -2.7119606
-6.0546741 1.4069479 -2.8315942
-6.1316586 1.4015743 -2.7861011
-6.2142949 1.4242257 -2.8202236
-6.2497859 1.4275684 -2.5770967
-6.3640532 1.4280796 -2.6692848
-2.1301095 0.94791377 -4.4225225
-2.1507607 1.0682101 -4.4653435
-2.4153259 1.3459762 -4.4844007
-2.1301496 0.86791551 -4.4230499
-1.993959 0.50821722 -4.480443
-2.1483688 0.86821342 -4.4668446
-2.5974188 1.3518941 -4.230505
-2.8023467 1.3073965 -4.2911205
-2.1305802 0.73295176 -4.4289274
-2.1363957 0.688483 -4.5090122
-2.8101897 1.3074309 -4.2955656
-3.2964315 1.4258546 -4.0188437
-2.9249511 1.345844 -4.0463419
-2.2072277 1.0692687 -4.6216621
-2.1308515 1.2679898 -4.4328775
-2.7997894 1.3521643 -4.2559166
-2.6373143 1.3518941 -4.2276087
-2.6888056 1.3304554 -4.3844357
-2.4523225 1.3507125 -4.441576
-1.9825778 0.74900603 -4.5999908
-2.0299156 0.70968616 -4.6995869
-2.1970131 0.74901128 -4.5844221
-2.2048559 0.82927465 -4.6234274
-2.1820874 0.68151355 -4.5859537
-2.1850324 0.22927085 -4.6263399
-3.0562449 1.2994075 -4.1975431
-2.019742 0.423749 -4.5593443
-5.6643009 -1.1630832 -3.0753641
-5.7697148 1.3793095 -2.771673
-5.6637402 1.3907635 -2.9745591
-2.6826072 -1.072674 -4.2980576
-2.1706252 -0.27206284 -4.4276743
-2.7302842 -0.71195352 -4.4024954
-2.6909318 -0.71190584 -4.4128714
-2.496345 -0.71146393 -4.4946737
-5.0786085 1.374706 -3.3283119
-5.0751452 1.4218895 -3.2806244
-5.3619971 1.3709495 -2.9608839
-5.5044613 1.3610191 -2.9910028
-5.5471597 1.3437275 -3.0282059
-5.4359198 1.3671849 -3.1561966
-5.3190069 1.3426168 -3.2047043
-5.2791834 1.3334665 -3.1567054
-3.7424595 1.3665179 -3.7061121
-3.4618042 1.4263889 -4.0870447
-3.3117952 1.4261197 -4.0578308
-3.450423 1.426487 -4.102911
-4.4978299 1.38255 -3.6148202
-6.318398 1.4285458 -2.7326531
-5.7844977 1.3906956 -2.9810815
-3.9136171 1.3825802 -3.8540046
-3.6828969 1.4608655 -3.9905531
-4.0703039 1.37482 -3.8025734
-3.8541758 1.385343 -3.8984077
-3.9506183 1.3748165 -3.8112633
-3.8338234 1.3875774 -3.8597629
-3.8708289 1.3748153 -3.8170564
-3.7199342 1.383104 -3.9482744
-3.9448254 1.3767872 -3.7314589
-6.3997345 -1.1788425 -2.7024796
-6.5096798 -1.0415648 -2.6939328
-6.0807948 -1.0182062 -2.724225
-6.8982954 -0.7239939 -2.3688905
-4.6742125 -1.1603613 -3.3368804
-4.8280172 -1.1630789 -3.2455392
-4.8149376 -1.1607114 -3.2558973
-5.0731664 -1.1597425 -3.307965
-5.2684112 -0.98956954 -3.1425991
-5.2712579 -0.97935295 -3.1824417
-5.4561176 1.3602819 -2.8741162
-3.2015896 -1.1742284 -4.0452642
-3.2871423 -1.1636384 -4.1192141
-3.057445 -0.75317538 -4.2788496
-3.0967984 -0.75315773 -4.2684774
-3.0307398 -0.95365846 -4.1215963
-5.2940288 -0.97917438 -3.2209256
-5.3207679 -0.99717414 -3.1389263
-5.6271815 1.3911325 -3.0247555
-1.4084716 0.23005763 -4.8055372
-2.1778355 0.029292941 -4.6306963
-1.8322992 -0.45268464 -4.7391901
-3.4875014 -1.1532561 -4.1171665
-3.4246604 -1.1531973 -4.149292
-3.3311973 -1.0732294 -4.1756516
-3.3197956 1.3447986 -3.85726
-3.2156706 -0.98306775 -4.2436571
-3.2134752 -1.1532687 -4.2097149
-3.2304897 -1.113272 -4.2032366
-3.252809 1.3266491 -4.1429853
-3.175324 -0.75313544 -4.2452412
-4.3164201 1.3827111 -3.4638045
-6.2429376 1.4206142 -2.6578259
-6.3997288 1.4226285 -2.6066551
-2.1324413 0.98812747 -4.4546719
-2.8279223 1.3460904 -4.0909834
-2.7923708 1.3464864 -4.1537218
-2.1305661 0.76045144 -4.4287453
-2.7541056 1.3466339 -4.1790581
-2.9954867 1.3068236 -4.1893711
-3.0246835 1.3408489 -4.039134
-2.9847884 1.3408474 -4.0420303
-3.0417428 1.3405832 -3.9977934
-3.1186323 1.3453221 -3.9520733
-2.8367906 1.3494004 -4.2131433
-2.6866236 1.3477564 -4.3544006
-2.6546988 1.3409833 -4.4670553
-2.5321093 1.3557152 -4.4357519
-2.1847565 1.1267681 -4.6229115
-2.1820498 1.1090195 -4.5856266
-1.9827802 0.70902324 -4.6027479
-2.0004556 0.70927143 -4.6390619
-2.1804445 0.7088635 -4.5633326
-2.1852195 0.2192876 -4.6288996
-2.0271993 0.46874818 -4.5585032
-5.7354431 1.3798938 -2.8542871
-2.1709883 -0.2732802 -4.4326692
-5.0806742 1.4219396 -3.2877409
-5.0742602 1.3818084 -3.26842
-5.4274759 1.3638933 -3.0365119
-5.3035207 -0.98507011 -3.1699364
-5.5424986 1.3515011 -3.0685835
-5.3732395 1.3520044 -3.1206167
-5.3988261 1.3660814 -3.1478577
-5.2762876 1.3374089 -3.1676509
-3.7482474 1.3745458 -3.7858498
-3.7083542 1.3720453 -3.7887642
-3.5937312 1.385004 -3.8671854
-3.5262544 1.3786263 -4.0425777
-3.7933867 1.3850272 -3.8551972
-3.8487852 1.3850778 -3.8586953
-3.8309314 1.3798139 -3.8199198
-4.0275121 1.3770545 -3.7655604
-4.0587234 1.3637626 -3.6430638
-3.967665 1.3845527 -3.7698548
-6.0975418 -1.0411862 -2.642961
-6.0836334 -1.0129882 -2.7640965
-4.7511177 -1.1629702 -3.2912159
-4.7141137 -1.1627991 -3.3340023
-4.6543002 -1.4342479 -3.5404475
-5.2740641 -0.99413383 -3.2224252
-4.9745417 -1.1585315 -3.2445655
-5.2489715 -0.9969877 -3.1515357
-4.4805336 -1.1677059 -3.4311693
-4.4522076 -1.1693381 -3.5936549
-4.5319986 -1.1692141 -3.5878713
-4.4184351 -1.4339443 -3.675349
-2.7223215 -1.0726894 -4.2926683
-2.7306495 -1.0719286 -4.4073629
-2.8853416 -1.0723708 -4.3284559
-3.2900333 -1.1634055 -4.1591082
-3.2102284 -1.1560309 -4.1648493
-2.9267025 -0.75222802 -4.34589
-5.3068843 -0.99725902 -3.1198621
-1.8202956 0.3687447 -4.5741882
-2.018312 0.70953667 -4.6778698
-3.6395476 -0.7210542 -4.0108852
-3.3679347 -0.7533772 -4.1360331
-3.2913957 -0.75324035 -4.1866989
-3.0071015 -0.95410621 -4.1332741
-3.2152095 -0.74807322 -4.242321
-3.1331291 1.316646 -4.151741
-3.2013249 1.3355888 -3.9862406
-3.9471204 -0.70898938 -3.8281019
-3.9197032 -0.71403205 -3.8301189
-3.9079583 -0.71399355 -3.8409956
-4.2773304 1.3832392 -3.5468514
-6.3570147 1.4224207 -2.5695693
-2.1919239 0.94900644 -4.5834656
-2.1561708 1.0284746 -4.5053215
-2.9187737 1.3071028 -4.2375507
-2.5633116 1.3624216 -4.3131227
-2.7257948 1.3476921 -4.3415308
-2.4980125 1.3437436 -4.5185175
-2.1802676 0.14928964 -4.6297226
-5.6556368 1.3750037 -2.8599477
-2.6528463 -0.70924115 -4.4406853
-2.5485258 -0.71148026 -4.4883795
-2.4442043 -0.71121812 -4.5360575
-5.5898771 1.3464365 -3.0652752
-5.3361373 1.339826 -3.1634142
-3.5545638 1.3800695 -3.8800881
-3.7170382 1.3828385 -3.9083793
-3.4089036 -0.74822855 -4.1480742
-3.4464695 1.368624 -4.0484362
-3.6372473 1.3853362 -3.9141572
-3.7968256 1.3878419 -3.9025543
-3.9818242 1.3740238 -3.6886842
-4.8309026 -1.1603464 -3.2854195
-4.7938991 -1.160175 -3.3282053
-4.8424721 -1.1619163 -3.4450123
-4.9318156 -1.1561693 -3.2074809
-4.9966521 -1.1562995 -3.2028837
-4.4406338 -1.1652683 -3.4340475
-4.6122899 -1.4240847 -3.5835383
-4.707015 -1.1550819 -3.3745782
-4.5661006 -1.1646172 -3.505162
-4.7655635 -1.1568069 -3.4906614
-4.6932473 -1.1544204 -3.4958875
-4.4123068 -1.1669003 -3.5965316
-4.378716 -1.4314915 -3.6807191
-2.9261203 -1.1125168 -4.3032017
-3.3669376 -1.1660142 -4.1134453
-3.2052364 -1.1535376 -4.1651964
-3.0055861 -0.75230873 -4.32763
-5.3006439 -0.9928031 -3.1300836
-1.8231921 0.36900863 -4.6140823
-3.2524042 -0.75322902 -4.2020569
-3.1672206 1.338617 -4.0689077
-3.9500117 -0.70875716 -3.8679965
-3.910116 -0.70881939 -3.8708885
-4.2495089 1.3654739 -3.5088828
-2.1562512 0.86847913 -4.5063772
-2.1482868 1.0282102 -4.4657888
-2.1797791 0.94880903 -4.5542679
-2.181921 1.0065053 -4.5838099
-2.9307466 1.3413748 -4.1261644
-2.5750489 -0.71156108 -4.4739218
-5.3161893 1.337352 -3.1648376
-3.4858034 -0.74833643 -4.102397
-3.3296857 1.3613862 -4.0970678
-3.4435699 1.3758599 -4.0084915
-3.6713552 1.3723084 -3.8315537
-4.8947425 -1.1583711 -3.2502244
-5.013207 -1.1562059 -3.2242653
-4.6521997 -1.4315228 -3.5806887
-4.7597756 -1.1547732 -3.4108584
-4.6373792 -1.155177 -3.3821304
-4.366631 -1.1674268 -3.519634
-3.6045563 -1.1932871 -4.0713186
-3.0061283 -0.74975812 -4.3350935
-5.3081288 -0.99529076 -3.1295557
-3.1585293 1.3428224 -3.9491928
-3.3210001 1.3530921 -3.9774358
-3.2441111 1.3458545 -4.0231733
-3.2100143 1.3338834 -4.1059399
-2.1877372 0.96203613 -4.6638947
-2.9564929 1.314405 -4.2046843
-2.9256754 1.3459105 -4.0563164
-5.3219471 1.3412656 -3.1936727
-3.500376 -0.75354171 -4.061265
-4.8548422 -1.1582923 -3.2530546
-5.0144415 -1.1586106 -3.2417364
-4.7568893 -1.1575052 -3.3709786
-4.7644734 -1.154395 -3.4756873
-4.5603037 -1.1575814 -3.4253304
-4.3637342 -1.1651595 -3.4797242
-4.8018398 -1.154536 -3.4378879
-4.6045308 -1.1546715 -3.4822667
-4.8025622 -1.1544777 -3.44786
-4.7797232 -1.154742 -3.4094117
-4.6070614 -1.1544681 -3.5171745
0 0 0 1 0 0 0 1 0 0 0 1 0 0 0 0 0 716 1 0 0
