ply
format ascii 1.0
comment PCL generated
element vertex 176
property float x
property float y
property float z
element camera 1
property float view_px
property float view_py
property float view_pz
property float x_axisx
property float x_axisy
property float x_axisz
property float y_axisx
property float y_axisy
property float y_axisz
property float z_axisx
property float z_axisy
property float z_axisz
property float focal
property float scalex
property float scaley
property float centerx
property float centery
property int viewportx
property int viewporty
property float k1
property float k2
end_header
-6.9052982 1.5087314 -3.0858712
-7.1094427 1.5275444 -3.0088096
-7.2163248 1.430222 -2.9673767
-7.2305269 1.4090343 -2.9617877
-7.3404956 1.2690212 -2.9187541
-7.4213104 1.2285864 -2.8877623
-7.5488644 1.1075524 -2.8382664
-7.6180272 1.0664557 -2.8116775
-7.619503 0.94648027 -2.8099027
-7.6182847 0.8258568 -2.8091412
-7.6200142 0.74587345 -2.8076758
-7.6132388 0.66652071 -2.8094354
-7.6060104 0.58652431 -2.8113599
-7.6035156 0.54652762 -2.8118985
-7.6953421 0.2660715 -2.7743065
-7.6908073 0.18672265 -2.7752185
-7.6937332 0.063750103 -2.7728643
-7.6934891 0.02445069 -2.7725587
-7.6903172 -0.056225628 -2.7729409
-7.6935034 -0.093224347 -2.7713604
-7.68922 -0.13539606 -2.7725534
-7.6931925 -0.21255973 -2.7702682
-7.6965084 -0.25383449 -2.7685947
-7.6889863 -0.30947873 -2.7708774
-7.6854281 -0.31527451 -2.7721651
-7.5834465 -0.52372253 -2.8086438
-7.577704 -0.64429867 -2.8095946
-7.5635586 -0.68415654 -2.8145435
-7.533721 -0.73255038 -2.8253438
-7.4539289 -1.004195 -2.8527853
-7.4536657 -1.0441889 -2.8524795
-7.45086 -1.1640612 -2.8523259
-7.4496617 -1.2440132 -2.851969
-7.4488688 -1.3639945 -2.8510528
-7.4101114 -1.4031345 -2.8653226
-7.3068113 -1.4432124 -2.904007
-7.3490057 -1.162485 -2.8908856
-7.071454 -0.73365402 -3.0002635
-7.0033569 -0.74038041 -3.0259643
-6.9674673 -0.75054884 -3.0394428
-6.954011 -0.75311232 -3.0445089
-6.9315844 -0.758219 -3.0529437
-6.8492069 -0.75546396 -3.0841451
-6.7631545 -0.75272071 -3.1167367
-6.5512123 -0.89120722 -3.1955357
-6.5309644 -0.91379797 -3.2029688
-6.3763022 -0.737625 -3.2632818
-6.3026772 -0.71285701 -3.291394
-6.1505203 -0.73055089 -3.3487937
-6.0322881 -0.72796607 -3.3935614
-5.924695 -0.73597574 -3.4341955
-5.8782077 -0.72305179 -3.4519181
-5.759984 -0.71796703 -3.4967077
-5.5096436 -0.91420007 -3.589452
-5.4737091 -1.1942399 -3.6002116
-5.4779096 -1.274204 -3.5978115
-5.4707651 -1.3942168 -3.5992985
-5.3524618 -1.4116278 -3.6438901
-5.3345118 -1.4142116 -3.6506567
-5.2986646 -1.411881 -3.6642456
-5.2162356 -1.424124 -3.6953142
-5.1790104 -1.4342177 -3.7092984
-5.0979671 -1.4315373 -3.739994
-5.073308 -1.4341545 -3.749299
-4.9797254 -1.4314524 -3.7847397
-4.830101 -1.4340148 -3.8413346
-4.7539167 -1.4318776 -3.8701856
-4.6849685 -1.4340569 -3.896255
-4.653595 -1.4342058 -3.9081259
-4.553299 -1.4290359 -3.9461322
-4.5174265 -1.4342053 -3.9596546
-4.3633289 -1.4342914 -4.0179672
-4.3588467 -1.4343116 -4.0196633
-4.3081155 -1.3539201 -4.0396757
-4.2856493 -1.2342919 -4.0493898
-4.2272444 -1.0730629 -4.0731258
-4.1230116 -0.91293895 -4.114193
-3.8719349 -0.75221992 -4.210834
-3.7783437 -0.75201774 -4.246253
-3.7039628 -0.75220954 -4.2743983
-3.6287277 -0.75208151 -4.3028698
-3.5419049 -0.73934948 -4.3358545
-3.3853819 -0.79193628 -4.3945527
-3.1001618 -0.96825743 -4.5006981
-2.8405905 -0.79396117 -4.6006913
-2.6976879 -0.78970885 -4.6548119
-2.4758863 -0.95221281 -4.7370982
-2.2163453 -0.91136193 -4.8357277
-2.1035302 -0.83039916 -4.87924
-2.050153 -0.75057662 -4.9002481
-1.9268894 -0.58871257 -4.948534
-1.901906 -0.54945672 -4.9583859
-1.4146667 -0.30863464 -5.1452079
-1.3988771 -0.32867941 -5.15098
-1.3374195 -0.24726462 -5.1750617
-1.353832 -0.16822079 -5.1696525
-1.3544643 0.19109303 -5.1730556
-1.3656046 0.17863022 -5.1687136
-1.3903968 -0.12939742 -5.156209
-2.3680112 1.377498 -4.8015366
-2.3068788 1.3591541 -4.8244843
-2.3021593 1.3494313 -4.8261719
-2.2857151 1.2684455 -4.8315735
-2.2858434 1.1891215 -4.8307209
-2.2384119 0.94869268 -4.8462324
-2.1249516 0.70867968 -4.886735
-2.1114099 0.66947258 -4.8914623
-1.9536276 0.46985468 -4.9491463
-1.9772422 0.22968265 -4.9377756
-1.9784403 0.15168338 -4.9365315
-1.9635932 0.06921678 -4.9413137
-1.9506302 -0.051005766 -4.9450006
-1.9622939 -0.16962597 -4.9393845
-1.9497561 -0.29001459 -4.9429088
-5.8966599 1.2341894 -3.464776
-5.8182764 1.2342861 -3.4944386
-5.7422261 1.1542403 -3.5224061
-5.5821686 1.07406 -3.5821624
-5.5134163 1.0741547 -3.6081805
-5.4818525 1.074319 -3.6201265
-5.4715543 1.0743595 -3.6240239
-5.1877751 1.3552473 -3.7342587
-5.1305914 1.3588938 -3.755935
-5.105392 1.3556573 -3.7654381
-5.0481944 1.3568044 -3.7870944
-5.0123377 1.3566942 -3.8006623
-4.9513459 1.3658453 -3.8238356
-4.9047937 1.3613651 -3.8414063
-4.8582797 1.3643833 -3.8590386
-4.7972236 1.3610365 -3.8821096
-4.6935129 1.365202 -3.9213977
-4.5752087 1.3530046 -3.9660428
-4.5034952 1.3527858 -3.9931781
-4.4425154 1.3644357 -4.0163722
-4.3242497 1.3597374 -4.0610785
-4.252563 1.3645179 -4.0882549
-4.1342974 1.359818 -4.1329613
-4.0518751 1.352729 -4.1640792
-3.9336352 1.3530294 -4.2088265
-3.8713834 1.3460004 -4.2323127
-3.8492131 1.3460578 -4.2407031
-3.7437453 1.3656077 -4.2808123
-3.7079015 1.3679984 -4.2944002
-3.6613493 1.3635172 -4.3119712
-3.4965951 1.3668361 -4.374351
-3.4714344 1.371097 -4.3839154
-3.4142246 1.3697443 -4.405551
-3.3676853 1.3677633 -4.4231424
-3.2959838 1.3700446 -4.4502983
-3.2494204 1.3630637 -4.4678483
-3.1525326 1.3646084 -4.504528
-3.0953612 1.3707536 -4.5262251
-3.0774398 1.3731985 -4.5330315
-3.0415955 1.3755889 -4.5466199
-2.9698815 1.3753707 -4.5737557
-2.8874857 1.3732808 -4.6049147
-2.851629 1.3731711 -4.6184826
-2.7692585 1.3760794 -4.6496825
-2.7227314 1.3765987 -4.6672945
-2.6510305 1.3788788 -4.6944509
-2.6045036 1.3793976 -4.7120628
-2.5579655 1.3774166 -4.7296534
-2.5221202 1.3798065 -4.7432423
-2.4969463 1.3815686 -4.7527866
-2.450433 1.3845876 -4.7704186
-2.4145889 1.3869781 -4.7840066
-6.1692619 1.4017214 -3.3633165
-6.2516627 1.4038912 -3.3321564
-6.3843856 1.4051015 -3.2819438
-6.430934 1.4071231 -3.2643495
-6.4815784 1.4048469 -3.2451618
-6.5174274 1.407401 -3.2316215
-6.5598955 1.4138138 -3.215616
-6.62501 1.4200587 -3.1910386
-6.6716051 1.4219841 -3.1734257
-5.935184 1.2341794 -3.4501977
0 0 0 1 0 0 0 1 0 0 0 1 0 0 0 0 0 176 1 0 0
