ply
format ascii 1.0
comment PCL generated
element vertex 389
property float x
property float y
property float z
element camera 1
property float view_px
property float view_py
property float view_pz
property float x_axisx
property float x_axisy
property float x_axisz
property float y_axisx
property float y_axisy
property float y_axisz
property float z_axisx
property float z_axisy
property float z_axisz
property float focal
property float scalex
property float scaley
property float centerx
property float centery
property int viewportx
property int viewporty
property float k1
property float k2
end_header
-1.4968762 -0.29122257 -4.5414495
-1.4123149 0.22902739 -4.5844035
-1.5793853 0.28736773 -4.5000257
-1.7299628 0.34837162 -4.4239812
-1.8831601 0.74827105 -4.3467655
-2.0331283 1.1477286 -4.2711811
-1.915565 0.74630004 -4.3303938
-1.9507523 0.54659587 -4.3125277
-1.93681 0.46687841 -4.3195357
-1.9255557 0.34659654 -4.3251672
-1.9171491 0.27659619 -4.3293829
-1.903326 0.24687707 -4.3363528
-1.8895102 0.21965703 -4.3433204
-1.5361652 -0.29109055 -4.5216007
-1.8436618 -0.5522747 -4.366137
-2.0663676 -0.7536335 -4.2535357
-2.2716503 -0.74636996 -4.1498303
-2.4221044 -0.96854794 -4.0737214
-2.4899993 -0.99353087 -4.0394096
-2.678124 -0.99405384 -3.9443693
-2.8515449 -1.0025717 -3.8567533
-2.9520054 -1.0223404 -3.8059916
-2.9683013 -1.0351707 -3.7977533
-3.0121727 -1.0755652 -3.7755713
-3.1783018 -1.1663229 -3.6916022
-3.2496343 -1.1681241 -3.6555643
-3.2825837 -1.1655567 -3.6389198
-3.3375964 -1.1665456 -3.6111269
-3.4172444 -1.1666565 -3.5708885
-3.4418793 -1.1657776 -3.5584435
-3.450191 -1.1665882 -3.554244
-3.5352778 -1.1686361 -3.5112572
-3.5957327 -1.1665635 -3.4807167
-3.8457875 -0.99660087 -3.354465
-3.8594766 -0.98102236 -3.3475566
-3.8828888 -0.95652616 -3.3357396
-3.8989329 -0.95387661 -3.3276353
-3.901422 -0.95388818 -3.3263779
-3.9528699 -0.99137998 -3.3003697
-3.9588819 -0.99648833 -3.2973304
-4.290462 -1.2040045 -3.1297231
-4.3227901 -1.2027255 -3.1133914
-4.3885946 -1.2153722 -3.0801413
-4.4353161 -1.218178 -3.0565367
-4.6137562 -1.2162796 -2.9663897
-4.5530081 -1.2362186 -2.9970706
-4.3775892 -1.3161521 -3.0856564
-4.1829953 -1.236553 -3.1840005
-3.897965 -1.1967132 -3.3280158
-3.7028651 -1.1921687 -3.4265819
-3.5902667 -1.1971248 -3.4834642
-3.5530205 -1.1971158 -3.5022812
-3.5131965 -1.19706 -3.5223999
-3.4768114 -1.197067 -3.540782
-3.4031811 -1.1970643 -3.57798
-3.3278313 -1.1970302 -3.6160464
-3.2565994 -1.1969877 -3.6520329
-3.2135172 -1.1969569 -3.6737981
-3.1762729 -1.196947 -3.6926136
-3.1364484 -1.196891 -3.7127333
-3.1009226 -1.1969126 -3.7306809
-2.9682069 -1.1865275 -3.7977333
-2.743052 -1.1710134 -3.9114881
-2.5892215 -1.1649171 -3.9892058
-2.4381714 -1.1877333 -4.065506
-2.2184749 -1.169153 -4.1765051
-2.2142148 -1.1540655 -4.1786637
-2.2082973 -1.1139454 -4.1816711
-2.0569901 -0.89721823 -4.2582088
-2.0378389 -0.8775053 -4.2678928
-1.8966975 -0.71301919 -4.3392711
-1.8652287 -0.6992023 -4.3551755
-1.8469543 -0.67200589 -4.3644199
-1.8420734 -0.63199061 -4.3669038
-2.9443784 1.4436877 -3.8109508
-2.7823553 1.4439334 -3.8928051
-2.6420727 1.367252 -3.9636416
-2.5733161 1.3636491 -3.9983754
-2.6391892 1.3536649 -3.9650917
-2.6996608 1.3631126 -3.934546
-2.7738681 1.3672826 -3.8970585
-2.8260045 1.3625768 -3.870717
-2.9110713 1.3503776 -3.8277359
-2.9742556 1.3526094 -3.7958164
-3.0539088 1.3548442 -3.7555766
-3.198823 1.3434646 -3.6823611
-3.2269197 1.341536 -3.6681657
-3.2406697 1.3412565 -3.6612191
-3.2483068 1.3426278 -3.6573615
-3.4219975 1.3346016 -3.5696092
-3.5016384 1.3318368 -3.5293736
-3.5400257 1.3274118 -3.5099783
-3.6809893 1.329926 -3.4387646
-3.779758 1.3322783 -3.3888679
-3.8586235 1.3313526 -3.3490248
-3.911448 1.3345813 -3.3223391
-3.9712248 1.3335949 -3.2921395
-4.0431366 1.3368832 -3.2558112
-4.0892658 1.3314035 -3.2325044
-4.1089597 1.3317853 -3.2225552
-4.1557245 1.3389571 -3.1989331
-4.2077475 1.339137 -3.1726513
-4.2215734 1.3413572 -3.1656671
-4.287025 1.358947 -3.1326089
-4.3704157 1.3670863 -3.0904837
-4.4086218 1.3675456 -3.0711825
-4.4500637 1.3642085 -3.0502446
-4.5111589 1.3513595 -3.0193734
-4.5296574 1.3463317 -3.010026
-4.6666336 1.3491431 -2.9408267
-4.7271976 1.3510358 -2.9102306
-4.7792373 1.3562163 -2.8839426
-4.8642626 1.378846 -2.8409979
-4.9110088 1.3810179 -2.8173831
-5.0458708 1.3620266 -2.7492423
-5.0649662 1.359756 -2.7395942
-5.0734963 1.3589684 -2.7352843
-5.1584044 1.3490998 -2.6923845
-5.2657309 1.3581647 -2.6381674
-5.3368235 1.3485745 -2.6022472
-5.3532686 1.3435483 -2.5939369
-5.3808937 1.3404918 -2.5799792
-5.4190989 1.3409511 -2.560678
-5.4508753 1.3478864 -2.5446277
-5.4849763 1.3508521 -2.5274014
-5.5870085 1.3569082 -2.4758575
-5.6528492 1.35681 -2.442595
-5.7378006 1.3594409 -2.3996787
-5.7654529 1.3638834 -2.3857107
-5.7845659 1.3666118 -2.3760562
-5.8589363 1.3657272 -2.3384838
-5.9248304 1.3806272 -2.3052006
-5.9439521 1.3858563 -2.295543
-6.0842543 1.4098717 -2.2246733
-6.0948162 1.4083889 -2.2193365
-6.108634 1.4081091 -2.2123559
-6.1830325 1.414724 -2.1747727
-6.2679839 1.4173541 -2.1318564
-6.3200092 1.417534 -2.1055734
-6.5066862 1.5034627 -2.0113029
-6.5211253 1.5134413 -2.0040128
-6.6007824 1.5130638 -1.9637698
-6.6389618 1.5060232 -1.9444784
-6.667758 1.5034797 -1.9299297
-6.712461 1.5026554 -1.9073453
-6.9084997 1.4223473 -1.8082707
-6.9122849 1.4223089 -1.8063585
-6.957294 1.4220153 -1.7836196
-7.0369873 1.4316387 -1.743363
-7.0507956 1.4288596 -1.7363858
-7.0889754 1.4218192 -1.7170942
-7.1495199 1.4187118 -1.6865058
-7.3278122 1.3831878 -1.5964168
-7.4574246 1.373687 -1.5309324
-7.6358919 1.3855904 -1.4407761
-7.7155447 1.3852837 -1.4005356
-7.7813206 1.3794802 -1.3673031
-7.8072701 1.3768352 -1.3541924
-7.9078317 1.3909266 -1.303395
-8.0723248 1.3897592 -1.2202926
-8.1000738 1.3919065 -1.2062747
-8.1849031 1.3913811 -1.1634191
-8.2316685 1.3909714 -1.1397928
-8.2974663 1.3905054 -1.1065519
-8.3442307 1.3900954 -1.082926
-8.4048624 1.3895098 -1.0522949
-8.4567938 1.3892183 -1.0260592
-8.5174408 1.391132 -0.99542075
-8.5313082 1.3909565 -0.98841536
-8.6161537 1.3929309 -0.94555199
-8.6438875 1.3925803 -0.93154103
-8.7148333 1.3897306 -0.89569795
-8.7754974 1.3941454 -0.8650521
-8.8273954 1.388853 -0.83883095
-8.9209433 1.390534 -0.79157156
-8.953825 1.3878011 -0.77495849
-9.0334902 1.3871582 -0.73471141
-9.0854044 1.3843654 -0.70848322
-9.132185 1.3864559 -0.68485045
-9.2672005 1.3676099 -0.61663258
-9.3086395 1.3647792 -0.59569609
-9.3796988 1.3567332 -0.55979353
-9.4593945 1.3610892 -0.5195331
-9.4922609 1.3558569 -0.50292683
-9.5650244 1.3603005 -0.46616864
-9.6031399 1.3625007 -0.4469139
-9.6447382 1.367157 -0.4259007
-9.6915522 1.3742471 -0.40225333
-9.7244339 1.371514 -0.38564014
-9.804081 1.3683697 -0.34540099
-9.9026966 1.3551691 -0.29557484
-9.9798756 1.3694674 -0.2565906
-10.04309 1.3689412 -0.22465432
-10.07854 1.3637671 -0.2067427
-10.17207 1.3629476 -0.15949154
-10.224 1.3626567 -0.1332559
-10.289765 1.3571894 -0.10002899
-10.32873 1.3568778 -0.080343843
-10.449207 1.3734021 -0.019486427
-10.528935 1.3827585 0.020788193
-10.674348 1.3741481 0.094254255
-10.80081 1.378095 0.15814102
-10.847543 1.3726851 0.1817528
-10.861393 1.3700098 0.18875098
-10.913259 1.3597189 0.21495807
-10.919277 1.3521417 0.21800196
-10.929398 1.3121023 0.22313297
-10.941475 1.2720159 0.22925222
-11.042409 1.1111178 0.28031647
-11.035822 1.031196 0.27702427
-11.027541 0.99132222 0.27285886
-11.022972 0.92135245 0.27058232
-11.022909 0.91135281 0.27055466
-11.025248 0.87132114 0.27175403
-11.095469 0.61310077 0.30734563
-11.127831 0.5303688 0.32373166
-11.127294 0.44787031 0.32349741
-11.145164 0.35024285 0.33256936
-11.126251 0.28787571 0.32304287
-11.120071 0.27045342 0.31992817
-11.107084 -0.12949632 0.31354702
-11.106303 -0.24949344 0.31320608
-11.021094 -0.46881682 0.27025688
-11.020054 -0.62881237 0.26980305
-11.013891 -0.70869309 0.26672566
-11.016435 -0.86879146 0.26808214
-11.059626 -1.0289457 0.28997433
-11.00202 -1.2686194 0.26097929
-10.998921 -1.4285998 0.2594856
-10.974596 -1.4558512 0.24720871
-10.852385 -1.4671688 0.18547249
-10.796206 -1.4666959 0.15709066
-10.659292 -1.4656363 0.087921739
-10.54673 -1.4647596 0.031054974
-10.474519 -1.384207 -0.0054619312
-10.073538 -1.4610986 -0.20800287
-10.008164 -1.4605904 -0.24102968
-9.9363174 -1.4575461 -0.27732813
-9.8291988 -1.4192361 -0.33146149
-9.6444273 -1.3378067 -0.4248445
-9.5775423 -1.3373023 -0.45863467
-9.3786545 -1.4555444 -0.55905986
-9.1439962 -1.4536695 -0.6776098
-8.9544992 -1.4321828 -0.77335286
-8.6240158 -1.6598401 -0.940211
-8.5772505 -1.6594306 -0.96383691
-8.3849421 -1.6704093 -1.0609858
-8.3524561 -1.687602 -1.0773901
-8.2333002 -1.6867208 -1.137588
-8.2004013 -1.6864871 -1.1542088
-7.8356428 -1.4433159 -1.3385934
-7.5750194 -1.4412956 -1.4702611
-7.3362675 -1.3296784 -1.5909286
-7.3373761 -1.209633 -1.590422
-7.3370075 -1.1296823 -1.5906441
-6.9419699 -0.75734174 -1.7903841
-7.2424674 -0.48902547 -1.6386931
-7.2443404 -0.44905502 -1.6377648
-7.2430043 -0.34402728 -1.638487
-7.2371078 -0.30017424 -1.6414856
-7.2269645 -0.26015961 -1.6466278
-7.203495 -0.13995065 -1.6585385
-7.0865903 0.020302862 -1.7176706
-7.0708599 0.060582638 -1.7256355
-7.0484986 0.10072893 -1.7369504
-7.0382285 0.14062999 -1.742157
-7.0489311 0.22072524 -1.7367859
-7.0492191 0.30072343 -1.7366762
-7.0721574 0.42057317 -1.7251418
-7.0398135 0.58061892 -1.7415535
-7.0637574 0.74045157 -1.7295287
-7.0743699 1.0208645 -1.724293
-6.8169208 1.3780012 -1.8545165
-6.7458034 1.3800919 -1.8904458
-6.7299376 1.3828729 -1.8984625
-6.6418371 1.4022313 -1.9429793
-6.4687157 1.4057637 -2.0304418
-6.4410715 1.403821 -2.0444067
-6.3699541 1.405912 -2.0803361
-6.3094087 1.4090184 -2.110925
-6.2350192 1.4049039 -2.1485047
-6.210639 1.4066671 -2.1608224
-6.169179 1.405003 -2.1817672
-2.3839269 1.3652589 -4.0940552
-2.4635744 1.3649949 -4.0538173
-2.488225 1.3658483 -4.0413647
-2.5294776 1.3675091 -4.0205245
-2.477366 1.3822147 -4.0468578
-2.3426929 1.3710985 -4.1148896
-2.2768016 1.3735834 -4.1481786
-2.210916 1.3785678 -4.1814661
-2.1779847 1.3860608 -4.1981068
-2.1298637 1.3870389 -4.2224178
-2.1092401 1.387458 -4.2328367
-2.0624881 1.3652308 -4.2564459
-2.0652189 1.3163193 -4.2550445
-2.0567207 1.2346675 -4.2593012
-6.3031073 -1.1917951 -2.1129422
-6.2472448 -1.203565 -2.1411583
-6.2978077 -1.1871864 -2.1156213
-6.3775091 -1.1750655 -2.0753617
-6.4295759 -1.1699805 -2.0490599
-6.4349027 -1.1670892 -2.04637
-6.5476036 -1.1350431 -1.9894478
-6.5944805 -1.0953504 -1.9657836
-6.666564 -1.0060799 -1.9294071
-4.9088297 -1.6388618 -2.8171291
-4.9175277 -1.638769 -2.8127351
-5.0874476 -1.1984861 -2.7270889
-5.2847085 -1.1481051 -2.6274557
-5.124836 -1.1586342 -2.7082183
-4.9633188 -1.1978675 -2.789799
-4.479291 1.3684247 -3.0354805
-4.507391 1.3698972 -3.0212855
-4.5923247 1.3675271 -2.9783757
-4.6475935 1.3664136 -2.9504535
-4.6528802 1.3669215 -2.947783
-4.7219639 1.3655277 -2.9128811
-4.8141165 1.3917431 -2.8663375
-4.849905 1.3913674 -2.8482571
-4.8813696 1.3897724 -2.8323605
-4.9472189 1.3921741 -2.7990947
-4.9610457 1.3943951 -2.7921104
-5.0130582 1.3920753 -2.7658324
-5.0216856 1.3894001 -2.7614729
-5.1690311 1.3651156 -2.6870232
-5.2295928 1.3670096 -2.6564283
-5.2545795 1.3636963 -2.6438036
-5.2815981 1.3621897 -2.6301527
-5.2980633 1.3621639 -2.6218348
-5.3776836 1.3517865 -2.5816059
-5.4244127 1.3489581 -2.5579972
-5.452055 1.3509011 -2.5440333
-5.4797077 1.3553427 -2.5300651
-5.4935341 1.3575639 -2.5230808
-5.5264721 1.362515 -2.506443
-5.5402889 1.3622367 -2.4994626
-5.6443815 1.3750964 -2.4468808
-5.6820469 1.3877976 -2.4278581
-5.7432675 1.4099474 -2.3969393
-5.7623525 1.4051775 -2.3872957
-5.9493012 1.4038649 -2.2928486
-6.0046234 1.4177494 -2.2649062
-6.0810094 1.4111674 -2.2263131
-2.2684841 1.3669286 -4.1523781
-2.3343754 1.3644439 -4.1190882
-3.818346 1.3544611 -3.3693833
-3.7432475 1.3605202 -3.4073257
-3.6718683 1.3474407 -3.4433804
-3.6142821 1.3515791 -3.4724751
-3.5509815 1.3510433 -3.5044541
-3.4851017 1.3585275 -3.5377398
-3.4222822 1.3821187 -3.5694866
-3.2874827 1.3884826 -3.6375904
-3.140594 1.3831673 -3.7117958
-3.1364746 1.3831664 -3.7138772
-3.0705838 1.3856512 -3.7471662
-5.5099173 -1.1365118 -2.5136855
-5.430234 -1.1436318 -2.5539384
-5.5428162 -1.1440849 -2.4970617
-5.5757313 -1.1466594 -2.4804318
-5.6554322 -1.1345397 -2.4401724
-5.5896182 -1.1243926 -2.4734263
-6.6996636 -0.72614533 -1.9128108
-6.7085056 -0.70581245 -1.908353
-6.7279568 -0.68625885 -1.898535
-6.7500567 -0.6690107 -1.887378
-6.7899475 -0.68700254 -1.8672172
-3.9191432 1.3607993 -3.3184638
-3.9391904 1.3640229 -3.3083372
-4.0371766 1.3561091 -3.258831
-4.084661 1.3560468 -3.2348418
-4.1841149 1.3814235 -3.1846094
-4.1899514 1.3813906 -3.1816607
-4.3083291 1.3933398 -3.1218615
-4.389554 1.3773161 -3.0808196
-4.4139347 1.3755524 -3.0685019
-4.4362726 1.3719872 -3.0572152
-3.8503795 1.3546975 -3.3532
-6.4104619 -1.1676394 -2.0587173
-6.6226768 -1.0064234 -1.9515789
-6.6309729 -0.98894095 -1.9473956
-5.8312526 -1.1228358 -2.3513534
-5.8615189 -1.1231058 -2.3360627
-6.0225487 -1.1634154 -2.2546926
-5.8805304 -1.1529454 -2.3264446
-5.7680416 -1.1274931 -2.3832855
-6.0294509 -1.1635305 -2.2512054
-6.058897 -1.171046 -2.2363262
0 0 0 1 0 0 0 1 0 0 0 1 0 0 0 0 0 389 1 0 0
