ply
format ascii 1.0
comment PCL generated
element vertex 1479
property float x
property float y
property float z
element camera 0
property float view_px
property float view_py
property float view_pz
property float x_axisx
property float x_axisy
property float x_axisz
property float y_axisx
property float y_axisy
property float y_axisz
property float z_axisx
property float z_axisy
property float z_axisz
property float focal
property float scalex
property float scaley
property float centerx
property float centery
property int viewportx
property int viewporty
property float k1
property float k2
end_header
-9.918891 -0.17834556 3.884985
-9.8350925 -0.25855303 4.0392594
-9.7713089 -0.59878552 4.1713109
-9.7285519 -0.29897967 4.272315
-9.7007122 -0.33914635 4.3454132
-9.6526566 -0.25941277 4.4677162
-9.6796856 -0.21984193 4.4164414
-9.9501057 -0.91818547 3.8039598
-9.9962044 -0.79810613 3.7274358
-10.047451 -0.83807063 3.6531272
-10.000734 -0.87813431 3.7274261
-10.073647 -0.9578619 3.5717547
-10.10928 -0.87789786 3.5344408
-10.084307 -0.83792526 3.5729742
-9.1296844 -0.44237953 5.4461432
-8.7155762 -1.1241052 6.30165
-8.742363 -1.2842561 6.2977495
-8.9596958 -1.3652514 6.227128
-9.0536461 -1.4438919 5.8372955
-8.9164104 -1.4126933 6.2690411
-8.9698982 -1.4345443 6.0721464
-8.8001709 0.47998244 6.3899632
-8.8351822 0.49475348 6.3924379
-9.1220741 -0.42252916 5.4858074
-8.7287121 0.05624494 6.2227354
-8.7595062 -0.22449529 6.3313284
-8.7198391 -0.32417494 6.3156147
-8.7783451 0.015920877 6.2259655
-8.769474 0.056042403 6.2130089
-8.9799194 0.62770879 6.1223364
-8.9814625 0.65529883 6.1025219
-9.0298481 0.69558418 5.9857502
-9.0258656 0.49540824 6.0246563
-9.3678398 0.057930738 5.091424
-9.3597488 0.097922593 5.1035795
-9.3490219 0.057591289 5.182848
-9.2414856 0.010794669 5.1752367
-10.675926 -0.63475966 2.0985169
-8.9581337 0.7751528 6.1616058
-8.9576283 1.1767592 5.8426437
-8.9947777 1.2148666 5.9255619
-8.9476566 1.1370246 5.8016815
-9.2871132 1.1370053 5.3839874
-8.9043331 1.3107096 6.1202526
-8.9136753 1.2963352 5.9830036
-8.9935055 1.2158509 5.9806108
-8.9685974 1.1356875 6.043685
-8.9943638 1.1884191 5.9655075
-9.3215828 1.1372939 5.2836161
-9.2738972 1.056892 5.4228067
-9.2808838 0.97684515 5.4229231
-9.3073158 1.1370748 5.3452816
-9.3050728 1.1372889 5.3050337
-9.3018322 1.0571088 5.3445406
-9.719717 1.0192199 4.5770159
-9.7064915 0.97927344 4.5834856
-9.6802101 1.0182362 4.6486826
-9.2261486 -0.22261921 5.3760977
-9.2088604 -0.18269411 5.4126797
-9.2269115 -0.18258661 5.3688154
-10.381268 0.30278838 3.0367413
-10.415123 0.462942 2.9595339
-10.366728 0.42269886 3.076318
-10.723955 0.18518193 2.0550244
-10.519855 0.50342333 2.7163298
-10.498957 0.50332689 2.7650061
-10.625822 0.2632727 2.612411
-10.73045 0.15049787 2.5389853
-10.567846 0.62361324 2.61237
-10.472086 0.6631453 2.8414812
-10.595234 1.0500627 2.2526181
-10.649359 0.66402245 2.4151764
-10.661543 0.58396041 2.4131887
-10.691561 0.58394551 2.3776703
-10.567791 0.58362377 2.6096988
-10.555958 0.30351579 2.647846
-10.613922 0.66388035 2.4929202
-10.65733 0.70415294 2.375793
-10.519182 0.023556381 2.6842728
-10.613708 1.063885 2.4945221
-10.565739 1.1434633 2.6519141
-10.469416 -0.13672277 2.8105016
-8.9725666 -1.4468617 6.0321779
-9.2474499 -1.3223566 5.2898502
-9.0702343 -1.4436997 5.7782936
-9.1224136 -1.455641 5.6014004
-9.1201649 -1.4033128 5.6390743
-9.0972958 -1.4033767 5.6801023
-9.9481678 -0.33834475 3.8462646
-9.9536114 -0.25837749 3.8469625
-9.637785 -0.47993028 4.4927568
-10.444756 -1.0367167 2.8352358
-10.492466 -1.1164709 2.717921
-10.478155 -0.95656252 2.757674
-10.464741 -1.0766593 2.7963583
-10.429987 -0.95680559 2.8746352
-10.677628 -0.42723566 2.0919561
-9.8623638 1.1607603 4.16716
-10.064619 0.70149589 3.7382157
-9.9381027 1.1676151 3.6511753
-9.8926897 1.1675326 3.7282305
-10.061897 0.66151118 3.7378652
-9.9835148 1.1676984 3.5741186
-10.495777 0.38334471 2.7643013
-10.47574 1.1831709 2.8338101
-10.429453 1.1805395 2.9233253
-10.391277 1.1827353 3.0409863
-10.330379 1.1823905 3.1971636
-10.335918 1.187713 3.117377
-9.8106556 1.1394898 4.3906622
-10.148642 1.1670607 3.5053217
-10.09775 1.1716561 3.6622095
-10.194113 1.1771429 3.4283106
-10.233902 1.1569031 3.4309742
-10.150213 1.1415181 3.6256135
-10.134443 1.0612675 3.7018857
-10.594604 0.38381732 2.5305524
-10.592567 0.46382999 2.530735
-10.746296 0.30387044 2.3226788
-10.424992 1.1452101 3.0030656
-8.8810272 0.45454204 6.3778677
-8.8508892 0.61465287 6.3940659
-8.924612 0.13466723 6.296711
-8.882555 0.17476703 6.3290825
-8.9329739 0.054712206 6.2768736
-9.0287056 -0.15411565 5.9216528
-8.8821926 0.25470746 6.3419523
-9.0564137 0.1746691 6.1330509
-9.0098763 -0.065404095 6.2039328
-9.0106983 0.039603949 6.2019615
-9.5815392 1.1388376 4.8563986
-9.0133247 0.21470089 6.1803875
-10.508492 0.86327255 2.7671177
-10.518044 0.74339139 2.7271979
-10.52042 0.78335512 2.7325356
-10.569729 0.98359382 2.6164598
-10.58688 0.82368946 2.5718913
-10.484873 0.70323527 2.8049371
-9.7568378 0.86032569 4.3992362
-9.7464046 0.78038824 4.3981943
-9.7670174 0.82045424 4.3571768
-9.6953793 0.77898526 4.4782314
-9.6322775 1.161724 4.6995296
-9.8480034 0.30119467 4.0825067
-9.8068924 0.18108679 4.1593752
-9.9644852 0.38138485 3.8903923
-9.9724226 0.46133673 3.8912635
-9.9369869 0.46119529 3.9690084
-10.399815 -1.4366283 2.8706141
-10.382095 -1.436699 2.9094858
-10.377077 -1.3968468 2.9493959
-10.410019 -1.3966888 2.8714797
-10.349154 -1.436856 2.9874027
-10.184698 -1.4374672 3.3369091
-10.64674 -1.1962668 2.4726377
-10.668413 -1.1962861 2.4490726
-10.510412 -1.0764021 2.6792245
-9.1663589 -0.64222175 5.3675661
-9.2343769 -0.69436592 5.2116251
-9.8604326 -1.1985041 3.989599
-9.8769493 -1.3184606 3.9576764
-9.8976173 -1.2384052 3.9193318
-9.4083233 -1.3224076 5.1004419
-9.7699699 -0.99888134 4.1921568
-9.7549744 -0.9589678 4.2313776
-9.9094372 -1.3983002 3.8794055
-10.142891 -1.197747 3.4552779
-10.165628 -1.2375284 3.3764961
-9.6538754 -1.4010968 4.7230997
-9.6356602 -1.4410099 4.7292347
-10.275637 -1.3573242 3.1881402
-10.293701 -1.3572329 3.14428
-10.382292 -1.3568771 2.9499173
-10.041403 -1.3178495 3.60817
-9.9981041 -1.1581869 3.7411489
-9.9682636 -1.2781204 3.763664
-9.9319134 -1.4382585 3.8406992
-9.2344551 -0.6818673 5.211688
-9.4534626 -1.081701 4.904171
-9.4087181 -0.97680759 4.98176
-9.560442 -0.56119657 4.6733351
-9.5437412 -0.8012889 4.7111845
-9.5592232 -1.1611928 4.6705132
-9.5918999 -1.2010076 4.5923905
-9.5584812 -1.2811893 4.6699152
-9.6325684 -1.2800868 4.5292339
-9.6966438 -1.1197864 4.3738184
-9.7644424 -1.1989712 4.2185326
-9.7274599 -1.3191608 4.3082151
-9.6709146 -1.0393518 4.4257298
-9.6525116 -1.1594188 4.4640703
-9.6118374 -0.84093404 4.5553083
-9.6670685 -0.83932686 4.4262705
-9.5027637 -0.92140973 4.7855024
-9.6765709 -0.31927985 4.4064736
-9.6700344 -0.31934017 4.4285774
-9.6508789 -1.4011111 4.7304153
-9.5797443 -1.0803554 4.6643209
-9.6704845 -1.3592215 4.6371679
-9.5983562 -0.56104356 4.5957527
-9.6462469 -0.60075796 4.4785805
-9.6768513 -0.059355535 4.4250851
-9.9206533 0.22129042 3.9669111
-9.8623896 0.38104272 4.0988584
-9.7996073 0.26095259 4.1992908
-9.7868767 0.26085132 4.2385063
-9.7296619 -0.05916176 4.3134556
-9.723526 -0.019213475 4.3332415
-9.7526283 -0.058944471 4.2348509
-9.7583008 0.061022609 4.2357273
-9.6928701 0.14070351 4.3919163
-9.7730694 -0.018889971 4.1963272
-9.7605667 0.021008343 4.2357225
-9.6468716 -0.39938021 4.4667511
-9.8473186 0.18119927 4.081975
-9.8809128 0.34117627 4.0448446
-9.9256725 0.18143804 3.9270015
-9.9513302 0.26146179 3.8890002
-9.8196297 -0.058725841 4.099143
-9.6637383 -0.32010067 4.4951453
-9.7105751 -0.59976435 4.4703379
-9.6934223 -0.34064993 4.4003162
-9.8080502 -0.39928269 4.2373028
-9.7236576 -0.59899879 4.2807894
-9.7340946 -0.63901752 4.2713251
-9.6938982 -0.59913123 4.3489037
-9.699173 -0.63912934 4.341588
-9.693861 -0.51448518 4.4294329
-9.7003193 -0.55909145 4.3319664
-9.7000313 -0.51912194 4.3396254
-9.7008247 -0.25916892 4.3507557
-9.9519138 -1.0381972 3.8036003
-9.9548693 -1.0781707 3.7936192
-10.070208 -1.07802 3.6111269
-10.043425 -0.9180361 3.6500204
-9.1455135 -0.30248198 5.4478712
-9.1783161 -0.32229644 5.3698473
-9.1402016 -0.35494819 5.4472656
-9.1207123 -0.64252329 5.4847088
-8.9722824 -0.60600209 6.1161838
-9.0260715 -0.5241285 5.9247942
-9.0264149 -0.52410591 5.9198074
-8.8378792 -0.48499799 6.333024
-8.8380775 -0.42501009 6.3358192
-8.9616203 -0.55548251 6.2760601
-8.8798027 -0.32519597 6.3216019
-8.8885899 -0.22520137 6.3126402
-8.8929596 -0.32523209 6.3124828
-8.7978783 -0.44476163 6.3354692
-8.8366413 -0.68499148 6.3320265
-8.7945271 -1.1246823 6.3196068
-8.7693024 -1.3644321 6.2992373
-8.8337078 -1.3249031 6.3138714
-8.982029 -0.92541921 6.2356815
-8.9598637 -1.2827766 6.2325277
-9.0052395 -0.92533326 6.1896677
-8.9159412 -1.4052281 6.2765598
-8.9162636 -1.3252417 6.2794542
-8.9159966 -1.2852782 6.2871351
-8.9649963 -1.3399107 6.1524305
-10.743231 -0.7159431 2.278254
-10.583376 -0.13665327 2.6479604
-10.628561 -0.17656901 2.5707269
-10.54525 -0.21660277 2.6851027
-10.540457 -0.13675064 2.7251887
-10.449875 0.3430863 2.8812568
-10.447153 0.30310285 2.880908
-10.6721 -1.154796 2.1086817
-10.701994 -1.2205991 2.2508163
-10.714834 -1.155676 2.2519641
-10.693008 -1.0761778 2.3936191
-10.635839 -1.1944903 2.0859733
-10.633301 -1.2019758 2.0857677
-9.1301765 -0.32258177 5.4868183
-8.9911823 0.53599799 5.9497843
-8.9845963 0.41597646 5.9613142
-9.0334778 0.53625882 5.8449402
-8.9651356 0.53590453 6.0006161
-8.9813385 0.69600034 5.9623661
-8.7612362 0.41533595 6.3669434
-9.469223 0.6184119 4.8729153
-9.4537601 0.57831204 4.9117632
-9.4757156 0.45836788 4.8726311
-9.5056267 0.81837571 4.836235
-9.4187412 0.6981163 4.9951029
-9.6243763 0.3789959 4.5617361
-9.1504765 0.17709096 5.5305891
-9.1282978 -0.18276814 5.527422
-9.3220367 1.0571768 5.3058348
-9.4134007 1.137568 5.1145177
-8.9820614 1.2558008 6.005065
-8.9307308 0.73480618 6.2647867
-8.9099941 0.77486825 6.2785788
-8.9847031 0.73547912 6.0630159
-9.0828018 0.80863893 5.8094807
-9.030714 0.93607986 5.8866673
-9.0758629 0.89618433 5.8094025
-8.9693394 1.2556846 6.0442829
-9.2055607 0.97693789 5.4979324
-9.0646553 0.61665463 5.7271662
-9.0314789 0.61627173 5.8451662
-9.5091019 1.0977546 4.9580345
-9.5027409 1.0976958 4.977644
-9.3711929 0.73785257 5.1072855
-9.4397793 0.8180058 4.9920845
-9.464077 0.93810952 4.941678
-9.2936516 0.057553202 5.2592287
-9.3083725 -0.022343315 5.2197819
-9.16535 -0.40221298 5.3685904
-10.413754 0.22294827 2.9584706
-10.507334 0.22327347 2.7644527
-10.464188 0.18317689 2.8415041
-10.169945 -0.13622305 3.0830319
-10.375595 0.18282159 3.035866
-8.9447556 1.2555078 6.1102514
-8.9359188 1.1755016 6.121809
-8.9450226 1.2155423 6.1025705
-10.529177 0.46349978 2.686739
-10.595417 1.0825611 2.2527623
-10.709681 0.60919368 2.2988327
-10.661484 0.90448463 2.2966974
-10.648558 0.8245616 2.2954831
-10.660507 0.82413435 2.3764973
-10.665298 0.7442838 2.3364105
-10.515076 0.22340538 2.7248924
-10.517513 0.18340154 2.7223935
-10.422161 0.023028165 2.9281716
-10.506193 0.023279071 2.763566
-10.469816 -0.096713632 2.8081849
-10.613235 0.54388404 2.4923894
-10.615503 0.50386977 2.4923835
-10.50396 0.02347061 2.7233176
-9.1179714 -0.68250626 5.4843388
-9.1380234 -0.76241171 5.4402456
-9.1247101 -0.80255073 5.4842529
-9.0068436 -1.1651195 6.1435757
-9.2218094 -1.3948904 5.3278522
-9.1484261 -1.3231095 5.5636997
-9.1712208 -1.4028339 5.4797039
-9.2040501 -1.3626744 5.4069662
-9.9760742 0.18149008 3.8502898
-9.9529114 0.10145113 3.8884637
-10.351276 0.38261408 3.1151843
-9.9907265 -0.83825123 3.7669919
-9.9529915 -0.75855762 3.8849964
-9.9979763 -0.75833845 3.7778387
-9.9533119 -0.83834934 3.8370821
-9.6889038 -0.68043697 4.3608675
-9.9360046 -1.1582808 3.842114
-9.456007 0.53829646 4.9117346
-10.05509 1.1717348 3.699362
-9.799181 1.1797071 3.9223032
-10.009592 1.1566533 3.7763512
-9.8224602 1.1610003 4.1644073
-9.9071426 1.140491 4.1701689
-10.466013 0.50316942 2.842922
-10.424212 0.5029757 2.9402759
-10.547531 0.18338747 2.6868758
-10.587923 0.22332288 2.6497285
-10.560974 0.26334041 2.680608
-9.7955112 1.1394087 4.429739
-9.8097801 1.1402653 4.3463836
-10.143076 1.1567388 3.5850871
-10.567566 0.42366809 2.5990133
-10.647957 0.46385258 2.4543674
-10.691103 0.50394762 2.377315
-10.42148 0.70290565 2.9609425
-10.421251 0.66290581 2.9607654
-10.426613 1.1653776 2.9631634
-10.36034 1.1423874 3.1589744
-8.7999058 -0.14475912 6.3344707
-8.7995071 -0.26473171 6.3288841
-8.8093033 0.015794635 6.2130585
-8.9226475 0.45439446 6.3556709
-9.0535946 -0.22534215 6.1360445
-8.9614811 -0.57798105 6.2759485
-9.0541477 -0.38523474 6.1127987
-8.946434 0.21462561 6.2785292
-8.9677963 0.05465892 6.2441864
-8.9359608 0.13469233 6.2774439
-9.6841908 1.0590605 4.6624975
-9.7492504 0.97935176 4.5061674
-10.563356 -0.67618382 2.564209
-10.561319 -0.59617078 2.5643919
-10.673904 -0.71613806 2.4112959
-10.63348 -0.7162503 2.4886968
-10.528376 -0.59632766 2.6423087
-10.52792 -0.67632604 2.6419539
-10.484415 -0.29659325 2.7607706
-10.695347 -0.63619959 2.3980641
-10.418856 -0.67691469 2.9150922
-10.397501 -0.8769657 2.9529059
-10.357958 -0.67725825 3.0712705
-10.535763 0.74346185 2.6883256
-10.618189 0.82391119 2.4813313
-10.56876 0.78360796 2.6130803
-10.569958 1.023592 2.6166375
-10.554621 0.9435277 2.6503401
-10.597116 0.82380545 2.5325031
-10.424034 0.62292182 2.9532776
-10.418074 0.54292345 2.9600613
-10.547579 0.5835681 2.6483986
-9.6897049 0.77897203 4.4878645
-9.6982689 0.74032187 4.4748993
-9.6948633 0.80643821 4.4883442
-9.6719952 0.7788868 4.526741
-9.7217789 0.70042479 4.4212303
-9.7386951 0.74043357 4.3975005
-9.7973404 0.30096626 4.1992955
-9.7675762 0.42079103 4.277916
-9.8005199 0.42094934 4.1999993
-9.8180094 0.38102031 4.1609497
-9.6481724 0.81874287 4.5854254
-9.6407051 0.85952568 4.6186829
-9.5839481 0.81866264 4.6812449
-9.5819454 0.93847656 4.7217493
-9.7059126 0.85945606 4.5428686
-9.6885281 0.89939094 4.5819578
-10.07143 0.10162827 3.6961668
-10.046686 0.18159898 3.7348783
-10.323921 -1.3970594 3.0660133
-10.52655 -0.91631877 2.6408901
-10.478611 -0.87656343 2.7580283
-10.560617 -1.156171 2.5620823
-10.634657 -0.96448159 2.0868211
-10.669327 -1.0362904 2.4497819
-10.586243 -1.0363233 2.5643337
-10.465488 -1.1565877 2.7785454
-10.42658 -1.1167859 2.8737531
-10.513487 -1.2763109 2.6535709
-10.514149 -1.3412488 2.6383181
-10.465321 -1.2765538 2.7705314
-10.502247 -1.1963539 2.6781771
-10.669781 -0.95629245 2.4501369
-10.672993 -0.8761335 2.4105873
-10.46316 -0.91664916 2.7968953
-9.2344398 -0.32166338 5.1732368
-9.1753292 -0.44207782 5.3290005
-9.1733456 -0.72226709 5.3676815
-9.1863136 -0.68215215 5.328661
-9.8094826 -1.1587644 4.1140471
-9.7935734 -1.2788473 4.1525588
-9.8492222 -1.2786479 4.0361156
-9.4180565 -1.4022726 5.0606527
-9.7679329 -0.91886854 4.1923389
-9.8083591 -0.91875482 4.1149378
-9.8089352 -0.72661293 4.1959462
-9.8542194 -0.71904087 4.1214166
-9.854104 -0.67906225 4.1265831
-9.6575003 -1.4018366 4.6761761
-9.8005676 -1.3190674 4.1929746
-9.7828808 -1.3589611 4.1915927
-9.7526608 -1.3191346 4.2698584
-10.037964 -1.4380068 3.6475432
-10.028444 -1.3579499 3.6472092
-10.002527 -1.4381499 3.7252882
-9.8992643 -1.2962718 3.9994025
-9.9966793 -1.4381696 3.7374146
-9.8969545 -1.2789134 4.0343952
-9.9497089 -1.1984293 3.8579323
-9.9332199 -1.1186188 3.9222713
-9.9002247 -1.2787213 3.9870093
-10.137726 -1.0777712 3.4679365
-10.176485 -1.0377709 3.4181471
-10.209427 -1.0376128 3.3402305
-10.013008 -0.95803094 3.6878552
-9.9499283 -0.91851807 3.8791261
-10.001053 -0.098395258 3.7907395
-10.17104 -1.1177385 3.4174495
-10.273396 -1.2374985 3.2310708
-10.203983 -1.1175812 3.3395324
-10.15122 -1.3968661 3.2445476
-10.102974 -0.098385453 3.6574407
-10.101488 -0.35838059 3.6562884
-10.13546 -0.17822617 3.57917
-9.3925934 -1.0025028 5.140913
-9.4487152 -0.96206892 4.9845791
-9.6315327 -0.76166248 4.677309
-9.381609 -0.76242924 5.1412535
-10.308697 -1.3971463 3.105058
-10.400467 -1.2768086 2.9114008
-10.213535 -1.2374617 3.2996116
-10.069553 -1.2378401 3.5703418
-10.013678 -1.278038 3.6866088
-9.4539585 -1.0017043 4.9045696
-9.3155823 -1.1620879 5.1524305
-9.7107792 -1.1679217 4.4948378
-9.6922569 -1.3992602 4.3756294
-9.6841927 -1.3608112 4.4376297
-9.7180853 -1.2799296 4.3746004
-9.7631254 -1.2790189 4.230648
-9.6462669 -1.00076 4.476758
-9.6284161 -1.2000355 4.524271
-9.5265455 -1.1213787 4.7486362
-9.5472431 -1.0413134 4.710331
-9.4881382 -1.2015285 4.825819
-9.5839005 -0.84115171 4.6335759
-9.6907597 -0.38044521 4.3623638
-9.7070484 -0.25984192 4.3780212
-9.8305283 -0.13870233 4.079524
-9.687254 -0.10061949 4.4034939
-9.6912746 -0.13928798 4.3906741
-9.6964321 -0.020591415 4.3869486
-9.7119436 -0.05923409 4.3523288
-9.5780678 -1.2403913 4.6735792
-9.6741133 -0.59932369 4.4177032
-9.5967541 -0.68109739 4.607625
-9.1160107 -0.024198093 5.8305187
-9.1168423 -0.13909188 5.807498
-9.1662426 -0.37861833 5.6494246
-9.0541878 -0.26778311 6.1233616
-9.5821495 -0.72113967 4.6340032
-9.7099056 0.020779967 4.3525114
-9.6968307 0.09938094 4.3925352
-9.6887398 0.13937201 4.4046907
-9.7430763 0.060935169 4.2747712
-9.8157558 0.46835667 4.2012415
-9.8488827 0.50101388 4.1234694
-9.6765194 -0.47922599 4.3932943
-9.6673126 -0.3593249 4.4282274
-9.6549244 -0.29942632 4.4677095
-9.4456959 -0.32164395 4.9071026
-9.4124947 -0.42180276 4.9795418
-9.8143063 -0.35860839 4.0775161
-9.7988548 -0.39869463 4.1163836
-9.8145361 -0.31861079 4.0776939
-9.8540497 -0.77902937 4.1186571
-9.8993626 -0.79644632 4.041523
-9.8984032 0.30124789 4.0057936
-9.8468599 0.10120085 4.0816197
-9.8718653 0.021405727 4.0028324
-9.8660688 0.18133064 4.0281382
-9.7771759 -0.21873859 4.1557088
-9.8146515 -0.29860911 4.0777817
-9.8487015 -0.058634527 4.0410061
-9.8186245 0.0061926544 4.1193829
-9.7889462 0.1410165 4.19807
-9.7710762 -0.51882827 4.1816425
-9.7718754 -0.37882987 4.1822624
-9.6502285 -0.060186543 4.5353904
-9.6759052 0.055895209 4.5375834
-9.6646156 -0.18010205 4.4957752
-9.7459774 -0.020096399 4.3816037
-9.7317314 -0.17899871 4.2730188
-9.6683407 -0.17932743 4.4290247
-9.6610546 -0.099461317 4.4689398
-9.6528854 -0.21941322 4.4678941
-10.029783 -1.0781322 3.6885276
-10.098358 -0.99801099 3.573298
-10.068171 -0.9980073 3.6113102
-10.048185 -0.95806503 3.6501868
-10.05547 -1.0379308 3.6102724
-9.1355343 -0.26261503 5.487462
-9.111969 -0.36286375 5.5655737
-9.0820656 -0.36339304 5.7088575
-9.1095943 -0.30304629 5.6057777
-9.1196976 -0.32291293 5.566287
-9.1380596 -0.56249756 5.4587011
-8.797575 -0.6047107 6.3246946
-8.8785095 -0.64514035 6.31003
-8.9199772 -0.72526062 6.282445
-8.9651814 -0.64520621 6.2157536
-8.9212723 -0.40531689 6.2940178
-8.7589817 -0.36446968 6.3256416
-8.7979736 -0.4847371 6.3302813
-8.8745785 -1.2801198 6.3068628
-8.8752708 -0.7651189 6.3092604
-8.7939568 -1.2446674 6.316514
-8.8341084 -1.2049294 6.3194571
-9.0074825 -0.96373492 6.1169734
-8.9655628 -0.80510926 6.1950035
-8.9656029 -0.96503592 6.1792412
-8.9171753 -0.84539449 6.3117762
-10.749279 0.34403121 2.2829528
-10.747225 -0.015959926 2.2813563
-10.743687 -0.63594604 2.2786088
-10.73947 0.28347743 2.4198589
-10.742222 0.28363878 2.3799543
-10.716648 0.26343787 2.4582977
-10.673073 -1.0747697 2.101557
-10.741632 -0.99593508 2.2770123
-10.67433 -0.91475213 2.0972757
-10.718927 -0.8756988 2.2533779
-10.274591 -0.87755895 3.245137
-10.287312 -0.63754469 3.2269363
-10.735882 -0.55643034 2.3986771
-10.714138 -0.17655098 2.4563475
-10.744978 -0.1985257 2.2980056
-10.694395 -1.3160098 2.3526511
-10.689798 -1.1563363 2.4331694
-10.691462 -1.1362464 2.4108117
-10.417206 -1.1168523 2.9006715
-10.644613 -1.1164196 2.5104032
-10.360237 -1.197099 3.0292327
-10.324261 0.50227773 3.2265723
-10.303532 0.50219119 3.2727537
-10.180578 -0.75779223 3.4195614
-10.136168 -0.8379488 3.5113986
-10.135077 -0.75804168 3.5341997
-10.546391 -0.016607977 2.6859879
-10.423239 0.42294759 2.9474025
-10.384903 0.50276721 3.0378001
-9.003294 0.57605612 5.9232349
-8.9729214 0.49480397 6.211463
-9.0245018 0.2147149 6.1636152
-8.9227428 0.41441894 6.350482
-9.4749718 0.33837146 4.8720322
-9.0701714 -0.063586332 5.7645388
-9.0990982 0.096625894 5.6870689
-9.1058407 -0.063219227 5.6467085
-9.0417366 -0.10400119 5.8826818
-9.0444775 -0.064018585 5.8830538
-9.1201744 -0.043913729 5.7680664
-9.1100674 0.21675558 5.6482763
-9.0995922 0.17662354 5.6874676
-9.1215515 0.016879022 5.6080589
-9.0576077 -0.32503274 6.0682039
-9.5525942 1.153071 4.8409929
-9.4606819 1.1377968 5.0100164
-8.9496346 1.2958127 6.0431118
-8.9553928 0.73517013 6.1612358
-9.0075207 0.85603046 5.9248018
-8.9446621 0.93564236 6.0812206
-8.9581242 1.055755 6.0425997
-8.932436 1.0155225 6.1208401
-9.0384998 1.0959811 5.8979568
-9.1720295 0.55635333 5.6540871
-9.0852222 0.75632143 5.7693119
-9.1509476 0.73669255 5.6133642
-9.1417141 0.85675442 5.6132774
-9.0905132 0.69669902 5.6867094
-9.2695351 0.97682011 5.4421902
-9.2232456 0.77674496 5.5132713
-9.2705364 0.91691315 5.4219389
-9.08461 0.57672417 5.688262
-9.1055756 0.29678446 5.6483316
-8.9921932 0.61602819 5.9427013
-9.0319729 0.69626939 5.8455667
-9.0501747 0.8161521 5.8473654
-9.0534344 0.49632829 5.806035
-9.036274 0.37615108 5.8619432
-9.1770134 0.69662178 5.5949268
-9.2292633 0.77678168 5.4986496
-9.317503 0.97709358 5.3277121
-9.346241 0.85741663 5.2263994
-9.3088207 0.97706211 5.344656
-9.3180943 1.017115 5.3229227
-9.4093494 0.81780469 5.0701799
-9.4677143 0.81822205 4.9138165
-9.5031796 1.0577435 4.9674683
-9.1856632 -0.22294238 5.4910898
-9.1627312 -0.4221946 5.3683205
-10.375078 0.18279178 3.0433478
-10.373137 -0.097221255 3.0470943
-10.421812 0.14296569 2.9436674
-10.375366 0.14282282 3.0356877
-9.9105206 0.19385137 3.9661014
-8.9513817 1.2156004 6.0829611
-10.562119 0.46365702 2.6088228
-10.519974 0.46344399 2.7111647
-10.707474 0.58407235 2.3286498
-10.660572 0.74448979 2.2959886
-10.657784 0.7841512 2.3761477
-10.47072 0.30319387 2.8299098
-10.546846 0.063390464 2.6863432
-10.458971 0.14320762 2.8409822
-10.401821 -0.55698824 2.9544966
-9.0074329 -1.1250987 6.1387882
-9.0093174 -1.0699981 6.1166153
-9.0169773 -1.2029998 5.9561563
-9.018425 -1.3717607 5.9554863
-9.2112885 -1.4425223 5.3670053
-9.1506748 -1.4029248 5.5233955
-9.0692635 -1.3787928 5.7985716
-9.0700417 -1.363748 5.7886696
-9.4085732 -1.2824088 5.1006422
-9.4315166 -1.2423596 5.0623083
-8.953125 -1.3642335 6.0312176
-9.0094891 -1.2440008 5.9153595
-9.0220222 -1.2340823 5.9162664
-9.1471729 -1.1629012 5.524251
-9.1015263 -1.1632019 5.6413937
-9.1253281 -1.1230953 5.5905905
-9.1244144 -1.2431023 5.5924854
-10.223124 1.0617903 3.4699419
-9.9548054 -0.87824678 3.8119645
-9.9380589 -0.79829061 3.8437092
-9.6504917 -0.72078609 4.4783258
-9.9063606 -1.198392 3.9050601
-9.8830786 -1.1184955 3.9589078
-9.9614334 -1.1182554 3.8039341
-9.9364624 -1.078282 3.842468
-9.9072742 -1.038396 3.9057691
-9.6615238 0.69895518 4.5256557
-9.6479244 0.7787447 4.585227
-9.5794725 0.49869031 4.6794767
-9.5777206 0.61870289 4.6799049
-9.6760654 0.9292928 4.6213341
-9.9669619 1.1617305 3.8135252
-9.8444939 1.1622893 3.8451688
-9.8128738 1.0957239 4.3906326
-9.9021988 1.1480205 4.169858
-10.001143 0.7013216 3.8591323
-10.023737 0.62138629 3.8152616
-10.603977 0.2632814 2.6384678
-9.8517551 1.1404693 4.2465372
-10.703978 0.42392558 2.3653517
-10.651426 0.28847486 2.5340886
-10.424318 0.7029103 2.9561255
-10.472486 0.70315313 2.8391645
-10.28772 1.1824694 3.2343149
-10.25005 1.1825182 3.2718105
-10.355124 1.1024183 3.1584537
-10.239454 1.1647255 3.3511987
-10.519377 1.1431644 2.7790229
-10.277475 0.83449459 3.3524892
-10.277573 0.94196141 3.3604469
-10.266531 1.1020632 3.3528147
-10.358595 1.1827534 3.078826
-10.346468 0.9422909 3.1973047
-10.324366 0.82216775 3.2529309
-10.217419 0.9816463 3.50932
-9.0228577 -0.18449128 6.0038061
-9.0253372 -0.14434373 5.9715843
-9.022419 -0.14453819 6.0139828
-9.0457134 -0.025225438 6.1238852
-9.0294533 -0.14407095 5.911726
-9.0815392 -0.14352348 5.7373896
-9.0432434 -0.30381301 5.8417797
-8.9240551 0.70937562 6.359436
-8.8816185 0.4945628 6.3730783
-9.0715408 -0.12419591 5.8846407
-9.0359955 -0.10456285 6.0025692
-9.0731525 -0.22404465 5.8517189
-9.0050335 -0.87536812 6.1973991
-9.0080776 -0.6052863 6.178792
-9.0111275 -0.44515491 6.1496601
-9.0291481 -0.30402118 5.9009523
-9.028511 -0.32405487 5.9083328
-9.0197983 -0.34425938 5.960268
-8.9689445 0.18467738 6.2398462
-9.301878 0.17750068 5.2603416
-9.3199291 0.17760755 5.2164764
-9.0587196 0.21480377 6.1033211
-9.1257057 0.40625417 5.7304058
-8.9234657 0.61437821 6.3589621
-9.6299706 0.73959529 4.6174746
-9.6805897 0.79962242 4.5409298
-9.7204781 0.73971856 4.4631748
-9.6928625 0.73972034 4.5014153
-9.751091 0.81969798 4.4254603
-9.8096323 0.84286475 4.3226185
-9.7745228 0.90022016 4.4006186
-9.7507648 0.73988032 4.3850231
-9.7328758 0.69981742 4.4237518
-9.7666368 0.93941641 4.4670801
-9.7845268 0.97947872 4.4283514
-9.791935 0.93961 4.3885937
-9.6339483 0.49960071 4.6092453
-9.8127174 0.78056645 4.2724609
-9.8581266 0.90060675 4.2059135
-10.560406 -0.75616604 2.5636821
-10.497698 -0.63649881 2.7202199
-10.527691 -0.71632409 2.6417766
-10.527235 -0.79632223 2.6414218
-10.467936 -0.51667482 2.79884
-10.468506 -0.41667628 2.7992837
-10.435562 -0.41683328 2.8771999
-10.484299 -0.31659409 2.7606833
-10.628689 -0.63639832 2.5287843
-10.71909 -0.75605416 2.3340623
-10.544792 -0.29659948 2.684747
-10.55905 -0.55647916 2.637068
-10.467249 -0.63667208 2.7983088
-10.5481 -0.63644719 2.6435072
-10.53853 -0.95656896 2.6816509
-10.466053 -0.87665534 2.7947512
-10.568304 0.70361114 2.6127248
-10.556887 0.90351427 2.6503339
-10.470301 0.86296773 2.8847673
-10.550758 0.70354915 2.6491029
-9.4111042 0.65799177 5.0294771
-9.4616871 0.6905607 4.9529142
-9.4607811 0.73798072 4.9706106
-9.4337997 0.65804255 4.9909439
-9.4265614 0.73789036 5.0309048
-9.4144154 0.83027208 5.0705853
-9.5437813 0.93812668 4.839406
-9.5838327 1.0790023 4.8162193
-9.5832911 1.098961 4.8262863
-9.6242237 1.0990968 4.7388258
-9.6960087 0.65907943 4.4576797
-9.6878357 0.6603837 4.4738574
-9.6929626 0.45914769 4.4465351
-9.6924667 0.37915093 4.4461346
-9.694664 0.50051916 4.433589
-9.6994247 0.46049005 4.433754
-9.789175 0.18101485 4.1982479
-9.6966209 0.2592966 4.4107914
-9.6939754 0.17933835 4.4052334
-9.7233734 0.19570024 4.3541465
-9.6999474 0.22060634 4.4052582
-9.6828632 0.18058671 4.4314823
-9.6148281 0.73951435 4.6565504
-9.6337948 0.81945825 4.6431122
-9.8876953 0.7009598 4.0868611
-9.8191195 0.62083828 4.2020903
-9.8600254 0.75077081 4.1653433
-9.905838 0.82085109 4.0885983
-9.9153881 0.70097101 4.048677
-9.9501724 0.5412941 3.9301469
-9.7706127 0.51577318 4.2785101
-9.7530375 0.54070175 4.3174915
-10.184927 -1.3974688 3.3370867
-10.184971 -1.3899693 3.3371196
-10.155165 -1.2776442 3.4157078
-10.581451 -0.95647281 2.6044211
-10.556484 -1.0364563 2.6324463
-10.503584 -0.91653651 2.7194946
-10.55175 -0.91629362 2.6025338
-10.519964 -1.1962824 2.6393044
-10.516787 -1.3162642 2.6386008
-10.580538 -1.1164683 2.603713
-10.601839 -1.0763625 2.5527191
-10.513134 -1.0364169 2.6795754
-9.1823158 -0.52212435 5.3291159
-9.3756199 -0.6019882 5.0613842
-9.2347164 -0.63936806 5.2119007
-9.3571663 -0.72206867 5.0996618
-9.1157436 -0.31658602 5.8066139
-9.4100628 -1.1220187 5.0212851
-9.4170494 -1.2020645 5.0214014
-9.4524879 -1.239197 4.9033852
-9.9157295 -1.0786912 3.9613209
-9.88554 -1.0786878 3.9993343
-9.8602295 -1.1435361 3.9973252
-9.1203156 -0.22291535 5.5667858
-9.0808735 -0.22353271 5.7394857
-9.0736732 -0.3036117 5.7636843
-9.0976124 -0.14336735 5.6858711
-9.0993633 -0.26337904 5.6854439
-9.0272846 -0.42390949 5.880229
-9.0275612 -0.33911136 5.9207296
-9.0479832 -0.34384316 5.8419228
-9.4993534 -1.0016004 4.8275023
-9.4237862 -1.2823095 5.0615931
-9.2734089 -1.0020497 5.1978722
-9.7631731 -0.87883866 4.1921725
-9.768961 -0.79885048 4.1878824
-9.8424425 -0.71860337 4.0379081
-9.7693624 -0.75884211 4.1855659
-9.7867928 -0.71880198 4.1543541
-9.731144 -0.71900105 4.2707977
-9.67064 -1.3617101 4.6346617
-9.6843166 -1.3408121 4.4377298
-9.6892395 -1.3244642 4.4258442
-9.695158 -0.95977378 4.3743711
-9.8737717 -1.438441 3.9569719
-10.090487 -1.3978455 3.5435741
-9.9058495 -1.3183786 3.9020338
-10.095636 -1.0379957 3.5729485
-10.13669 -0.95787442 3.4934092
-10.262323 -1.0375752 3.2636909
-10.042189 -0.87828434 3.7077324
-9.9976521 -0.9357934 3.7670758
-10.245533 -1.3574773 3.261241
-10.265974 -1.3174217 3.222718
-9.7987585 -1.199055 4.1933346
-9.9547501 -0.97821343 3.804038
-9.9089909 -0.91833794 3.8913376
-10.182621 -1.0777185 3.3983619
-10.149199 -0.43813539 3.5389731
-10.200106 -0.87773335 3.3803284
-10.316618 -0.837367 3.1479611
-10.351372 -0.95722204 3.069685
-10.368917 -0.95716113 3.0333056
-10.045547 -0.018394746 3.7339911
-10.048025 0.46141523 3.776196
-9.8086071 -0.78411198 4.1956902
-9.8765097 -0.95845509 3.9591007
-10.334581 -1.2771233 3.067234
-10.28392 -1.2773517 3.1840231
-10.399767 -0.91697854 2.9529002
-10.184063 -1.2775627 3.3600647
-10.0289 -1.2779508 3.6475639
-9.9986801 -1.2381254 3.7258306
-9.4793968 -0.96166921 4.8664064
-9.2738819 -1.1621288 5.2122097
-9.3147449 -1.2421081 5.1570206
-9.4125843 -0.60171831 4.9611845
-9.4088573 -0.95430863 4.9818726
-9.6729527 -1.1193639 4.4255466
-9.7108727 -1.1529207 4.4949055
-9.7182617 -0.80028486 4.456748
-9.6920242 -1.3193034 4.3859606
-9.6952057 -1.3199595 4.4129949
-9.7760849 -1.2389185 4.1916094
-9.7531166 -1.2391367 4.2702136
-9.5890789 -1.0001563 4.6076441
-9.5467806 -1.1163114 4.7099562
-9.5208149 -1.2413424 4.7476959
-9.5083427 -1.2014604 4.7871151
-9.5311356 -1.4272113 4.907938
-9.4417419 -1.2422264 5.0229168
-9.5681896 -0.92125005 4.672225
-9.682766 -0.31923997 4.38936
-9.7676239 -0.09885788 4.1956291
-9.6561632 -0.51943576 4.4669065
-9.6713877 -0.51935077 4.4278622
-9.6559353 -0.55943507 4.4667292
-9.6894073 -0.51833802 4.4418316
-9.8041134 -0.6069386 4.2762876
-9.7192516 -0.52678335 4.350945
-9.8055315 -0.59935755 4.2563686
-9.8539352 -0.79902875 4.1185675
-9.5852737 -0.60021734 4.629065
-9.5858822 -0.52116197 4.6351709
-9.5691795 -0.76125515 4.6730223
-9.4854622 0.018299371 4.871294
-9.5734749 -0.14112335 4.8506413
-9.5072651 0.1384206 4.8207178
-9.3185425 0.45239425 5.262742
-9.3821774 0.49777937 5.106946
-9.344017 0.45762813 5.1843271
-9.3939056 0.37770081 5.1072044
-9.6594725 0.060549051 4.4694772
-9.6967564 0.05939433 4.389842
-9.6020775 0.17887647 4.6119137
-9.8666019 0.50108457 4.0845976
-9.9092321 0.541152 4.0150285
-9.8027868 0.3809346 4.199995
-9.8186626 0.54084086 4.2017365
-9.6903877 -0.44044411 4.3620644
-9.6901426 -0.48044276 4.361865
-9.6796675 -0.52057469 4.4010553
-9.6503506 -0.34078074 4.4800501
-9.4539928 -0.44194871 4.9572439
-9.5125465 -0.48168212 4.8307819
-9.4079056 -0.30179599 4.9847841
-9.430357 -0.34174314 4.9460516
-9.2399902 -0.34164906 5.1635027
-9.3597698 -0.34188235 5.0614805
-9.2366142 -0.221926 5.223959
-9.3891888 -0.061871715 5.0246859
-9.4150467 0.018172085 4.98423
-9.4158649 0.17815562 4.9875212
-9.4413261 -0.22161323 4.907259
-9.8192978 -0.4186148 4.0726066
-9.800436 -0.55870485 4.1158466
-9.8176384 -0.55866349 4.0844564
-9.8283596 -0.51869458 4.0778394
-9.8288155 -0.43869716 4.0781937
-9.859704 -0.79852962 3.9986811
-9.8431263 -0.59860593 4.0384402
-9.8301678 -0.63870621 4.0774794
-9.8142309 -0.7637887 4.1159697
-9.8556957 -0.098854512 4.0814219
-9.8836508 -0.098667383 4.0031614
-9.839819 -0.25876051 4.0796809
-9.9678593 -0.33864194 3.887717
-9.8807011 -0.17864951 4.002634
-9.9236183 -0.17855275 3.9254069
-9.9542637 -0.098558486 3.8877492
-9.9215803 -0.098538607 3.9255893
-9.7807798 0.02106452 4.197022
-9.7327404 -0.43900746 4.2720389
-9.77388 -0.29874212 4.1601706
-9.9303341 -0.35841817 3.8850482
-9.9503174 -0.39836115 3.8461697
-9.9099655 -0.38597396 3.9236257
-9.6431274 -0.30109525 4.5524054
-9.6577053 -0.32102996 4.5207396
-9.6915264 -0.17584863 4.4435401
-9.9260979 0.30125892 3.9676111
-9.7466469 0.34056157 4.356338
-9.7303467 0.060834736 4.3139887
-9.587616 -0.44014108 4.6098289
-9.6195488 -0.40098053 4.5578461
-10.037752 -1.038003 3.6491439
-9.1169586 -0.40269613 5.5256395
-9.1110954 -0.42325705 5.6454277
-9.1553879 -0.76235092 5.4063568
-9.0778904 -0.48361695 5.7581406
-8.8790035 -0.56514239 6.3104286
-8.9210434 -0.52527964 6.2859364
-8.8795757 -0.44515675 6.3135214
-8.8382015 -0.40501136 6.3359175
-8.7984695 -0.40474015 6.3306799
-8.7588596 -0.38446677 6.3255415
-8.7582397 -0.48446512 6.3250437
-8.7944508 -1.1646694 6.3169136
-9.0096188 -1.0075057 6.118175
-8.9603596 -0.92540228 6.2592506
-10.745384 0.14387502 2.3219705
-10.738049 -0.17643875 2.400362
-10.737135 -0.33643544 2.3996515
-10.740055 -0.57867843 2.3362269
-10.739336 -0.91609943 2.3172717
-10.624353 -0.4765479 2.5692253
-10.604002 -0.54642731 2.5675383
-10.559505 -0.4764809 2.6374226
-10.603422 -0.31654349 2.5959926
-10.584402 -0.87648845 2.604949
-10.552662 -0.75629729 2.6032429
-10.7388 -0.31634453 2.377295
-10.717264 -1.0760454 2.3326452
-10.717493 -1.036047 2.3328214
-10.390915 -1.1569277 2.9513206
-10.369438 -1.0770867 3.0153162
-10.400127 0.50285363 2.9987547
-10.264606 -0.63758552 3.2654648
-10.323666 -0.59736323 3.1393933
-8.975153 0.49495262 6.17904
-8.9234867 0.53441596 6.3510809
-8.8412189 0.41482705 6.369936
-9.5883198 0.51950717 4.6939678
-9.5101223 0.73834515 4.8361797
-9.5682373 0.73856473 4.7198935
-9.5084076 0.37839133 4.8269024
-9.4610691 0.25821096 4.9208298
-9.4991741 0.17841198 4.8328724
-9.5877686 0.29956394 4.6805067
-9.4512844 0.17832394 4.9097691
-9.0826454 -0.10346907 5.7251186
-9.0591984 -0.14391488 5.843606
-9.1349945 0.21695496 5.5773201
-9.1487465 -0.14270133 5.4889174
-9.1819935 -0.050216772 5.4515305
-9.2195778 -0.062763847 5.4139652
-9.2350121 0.017861247 5.2700491
-9.1247864 0.13685735 5.6088295
-9.4301968 1.1636702 4.8727169
-9.4412575 1.1375986 5.0738344
-9.4582806 1.137637 5.0449333
-8.9618759 0.85572851 6.0419464
-8.9917717 0.93585992 5.9792137
-8.9094906 0.97547305 6.159174
-8.8975315 1.0153881 6.1911106
-8.9478989 1.0556228 6.0819921
-8.9633617 1.0957209 6.0431433
-8.9942303 1.05597 5.9548712
-8.9823189 1.176398 5.8844357
-9.1923409 0.93662322 5.5770283
-9.0397205 1.0160964 5.8726168
-9.1320572 0.65656531 5.6618185
-9.1846142 0.85687339 5.5360394
-9.2223015 0.37722266 5.4161587
-9.2175617 0.41725439 5.4160147
-9.2624607 0.33736056 5.3385496
-9.2831593 0.41742504 5.3002424
-9.315588 0.33761352 5.221921
-9.041172 0.69633472 5.8211393
-8.9993153 0.33607948 5.9218655
-9.1784935 0.71421278 5.5750618
-9.1781216 0.65421444 5.5747623
-8.9853516 0.1757694 6.0003643
-9.3191433 0.93721998 5.3000774
-9.2933655 0.8573631 5.3029518
-9.3744221 0.93743396 5.1886082
-9.3474998 0.61760747 5.185297
-9.2449989 0.37727392 5.3776245
-9.3687572 0.78766906 5.1474409
-9.4617367 0.65826118 4.9126759
-9.4580536 1.0176754 5.0368538
-9.115572 -0.14308333 5.6069193
-9.1445084 -0.26347387 5.6484537
-9.1202621 -0.2238279 5.7497101
-9.1191864 -0.20390797 5.7672691
-9.2470207 -0.14254314 5.3352985
-9.1724358 -0.26450711 5.5701818
-9.1976414 -0.34282166 5.451273
-9.1279316 -0.12086392 5.6479645
-9.1775723 -0.18295136 5.5032463
-10.37274 -0.25718808 3.0389032
-10.462362 -0.13681367 2.8400848
-10.409206 -0.13702855 2.9567022
-10.424429 -0.13694221 2.9176579
-10.46487 0.30317456 2.842036
-10.476461 0.10328129 2.8019321
-10.480436 -0.55657321 2.7594461
-10.355692 -0.63724518 3.0712752
-8.8753662 -1.1251352 6.3101301
-9.1122379 -0.76266909 5.5236731
-9.1504269 -1.4429241 5.5231972
-9.204298 -1.322675 5.4071674
-8.9633484 -1.3243004 6.0321045
-8.9660797 -1.1649162 6.1533031
-8.9765091 -1.3641365 5.982708
-9.0720921 -1.1636097 5.7596512
-9.1217651 -1.2832611 5.627203
-9.1017723 -1.083403 5.6818695
-9.1050053 -0.92362297 5.7229156
-9.0957661 -0.7637614 5.7631035
-9.1050072 -0.96342361 5.6826401
-9.0694504 -1.3487945 5.7987204
-9.0257339 -1.2438316 5.8613472
-9.1236668 -1.2531477 5.6024122
-9.1032791 -1.2832147 5.6409674
-10.052345 0.78139329 3.7777853
-10.092999 0.82150459 3.7005622
-10.015343 0.4614355 3.8140359
-10.089605 0.18169691 3.6576498
-10.334909 0.18253233 3.153343
-10.374903 0.30273694 3.0563495
-10.314697 0.18247576 3.1920424
-10.111401 0.021742672 3.6184125
-10.136387 -0.015730448 3.5798893
-10.091188 0.021686256 3.6571114
-10.138035 0.061837703 3.5627751
-9.5505247 -0.51133084 4.7129736
-9.6702452 -0.71934497 4.4269743
-9.631526 -0.6800614 4.5291057
-9.6291924 -0.60023606 4.5718708
-9.923275 -1.1583812 3.8813303
-9.6058922 0.73870033 4.6460533
-9.6219845 0.65964735 4.6166139
-9.5764847 0.41870892 4.6789074
-9.6019039 0.53870678 4.6486263
-9.6049051 0.4991262 4.653029
-9.851038 1.0602939 4.2862592
-9.8883476 0.8607794 4.1276464
-10.147001 1.0613595 3.665164
-10.232613 1.141834 3.4483662
-10.111109 0.9812181 3.7425539
-10.088474 0.99367702 3.7811372
-10.088388 0.97867763 3.7810709
-10.138472 0.74161911 3.6156702
-9.9116755 1.0604625 4.1701593
-10.133886 0.99375916 3.7040808
-10.231274 0.74173784 3.4692121
-10.133987 0.98126972 3.7015319
-9.9966965 0.78119326 3.8942304
-9.9993057 0.74120057 3.8892384
-10.045292 0.78130198 3.8073711
-10.029182 0.70135343 3.8159597
-10.333134 1.1825516 3.1572592
-10.236656 1.1570641 3.3910697
-10.421614 0.98265159 3.0197182
-10.451687 1.1429048 2.9247081
-10.447365 0.82292771 2.9231186
-10.470932 0.82301939 2.8721187
-10.416916 0.82275558 3.0012059
-10.373737 0.82248175 3.1185122
-10.347397 0.62246144 3.1559811
-10.163351 0.82143617 3.6252272
-10.183031 0.50173724 3.5300682
-10.172462 1.0615618 3.5867307
-10.245146 0.94183397 3.4308815
-10.262407 0.86190784 3.391655
-10.388294 1.1425745 3.080714
-10.241299 1.1418583 3.4314241
-10.191271 1.1619824 3.4681487
-10.319685 1.1022758 3.2361975
-9.0572338 -0.025188304 6.1021242
-9.0295868 0.015867233 5.9249935
-9.0291862 -0.10410708 5.9194088
-8.8809414 0.63445628 6.3962231
-8.9243813 0.73438621 6.3570662
-8.9306526 0.69481921 6.2620926
-9.0184326 -0.52445364 5.999445
-8.9662304 -0.72510153 6.1929083
-9.0253754 -0.30427095 5.955821
-9.3405361 0.25784951 5.1430817
-9.357996 0.2179345 5.1040058
-9.3397903 0.17765267 5.1827612
-9.025198 0.41540003 6.0267515
-9.0434589 0.29539084 6.0049067
-9.0812302 0.41620857 5.7950516
-9.0278683 0.37559426 5.9841528
-9.6348705 0.61960626 4.6072903
-9.7477665 0.65989816 4.3844957
-9.7240515 0.85955036 4.4964767
-9.8575706 0.80310917 4.2054806
-9.7843361 0.78051496 4.3206205
-10.515419 -0.63642764 2.6813483
-10.420338 -0.41691971 2.916245
-10.420223 -0.43692029 2.9161568
-10.458155 -0.43679285 2.8385832
-10.468332 -0.356709 2.8070323
-10.516102 -0.51643127 2.68188
-10.50893 -0.41656286 2.721884
-10.714951 -0.51638269 2.4149361
-10.739777 -0.35627457 2.359659
-10.604177 -0.63638413 2.5571632
-10.603537 -0.29654247 2.5960817
-10.430672 -0.83680856 2.8751659
-9.4167213 0.53805423 5.0092688
-9.5392857 1.0579567 4.8797388
-9.5860004 0.99916649 4.7759495
-9.5963554 1.0590993 4.776886
-9.6909647 0.53916168 4.446763
-9.6819344 0.50041676 4.472806
-9.6851139 0.62039971 4.4735093
-9.7357903 0.1408018 4.3146868
-9.6708183 0.30048323 4.4712286
-9.6429462 0.81951034 4.6186695
-9.9631004 0.62121689 3.9313612
-9.9744453 0.86115062 3.9331131
-9.9487886 0.78112638 3.9711156
-9.9639807 0.82103622 3.9723248
-9.981699 0.82110631 3.9334531
-9.9524403 0.50128019 3.9301412
-9.8140392 0.740659 4.2498369
-9.8091106 0.66072106 4.2416573
-9.8449392 0.82050753 4.2447748
-10.522915 -1.1162988 2.6398311
-10.623228 -1.1563689 2.5263073
-10.390686 -1.1969271 2.951143
-10.511181 -0.95656133 2.7148459
-9.1410332 -0.44235444 5.426877
-9.1842957 -0.84221578 5.3428268
-9.1853046 -0.76218319 5.3357449
-9.1713638 -1.0422583 5.3660841
-9.1837044 -0.88223612 5.3476152
-9.2539253 -1.1221972 5.2511148
-9.2599049 -0.96223485 5.2522554
-9.1310749 -0.94279259 5.524147
-9.2201309 -1.2225773 5.3686161
-9.1793785 -1.0824347 5.3915129
-9.2382145 -1.162496 5.33004
-9.2307186 -0.84204352 5.2507954
-9.3841114 -0.84204531 5.0608721
-9.3868523 -0.80206293 5.061244
-9.225996 -0.30259541 5.3707113
-9.0705986 -0.30417898 5.8812485
-9.0554237 -0.34516725 6.098033
-9.4474792 -1.2018635 4.943306
-9.8076744 -1.0387516 4.1144075
-9.8274307 -1.1186941 4.0753517
-9.8496799 -1.1986502 4.0364699
-9.4694309 -1.2820067 4.9444504
-9.3153915 -1.0821365 5.1628065
-9.4132957 -0.96223795 5.0623322
-9.4013557 -1.0022857 5.0863876
-9.3856087 -0.92245638 5.1407986
-9.7356424 -0.75920546 4.3110418
-9.7449665 -0.91908509 4.2709446
-9.7933292 -0.83901983 4.1944141
-9.6993904 -1.0798028 4.3741655
-9.702137 -1.0398204 4.3745117
-10.090206 -1.1154635 3.5722611
-10.128578 -1.0378383 3.4950323
-10.274248 -0.99753582 3.2396157
-10.275229 -1.1574203 3.2114732
-10.089033 -0.83813226 3.6133952
-9.9945259 -1.0009539 3.8066921
-9.949873 -0.9585067 3.8764555
-10.273642 -1.2849683 3.2233777
-9.8296623 -1.1188849 4.1156015
-9.8578463 -1.0786979 4.0375175
-9.8433075 -0.95878768 4.0770941
-10.368862 -0.99714971 3.0306349
-9.9443684 -0.9585073 3.8835936
-10.22304 -0.83769375 3.3419785
-10.159679 -0.87784511 3.4577291
-10.320026 -0.67738652 3.1488426
-9.9437332 -0.67832339 3.8445845
-10.134956 -0.59810603 3.5498736
-10.083347 -0.47827262 3.6545517
-10.041721 -0.59841192 3.738903
-10.088221 -0.55828065 3.6495535
-10.091057 -0.43831915 3.6552458
-10.135988 -0.085728347 3.5795796
-10.135887 -0.10322773 3.5795023
-10.166349 0.38177037 3.5434675
-10.206545 0.34188366 3.4658897
-10.229937 0.46192151 3.4278936
-9.9999981 0.62128425 3.868753
-10.092602 0.66153836 3.6923718
-10.150457 0.70169079 3.5837579
-10.114792 0.66154957 3.6613257
-9.8618011 -0.95850992 3.9906633
-10.364803 -1.3169489 2.9889669
-10.412268 -0.95687616 2.9135065
-10.054102 -1.2779258 3.6092079
-9.9882488 -1.3180628 3.7247875
-9.9503412 -1.238379 3.8452859
-9.3285103 -1.2820863 5.135231
-9.547226 -0.64130986 4.7121544
-9.401062 -0.60175544 4.9829445
-9.4113045 -0.64178526 4.9759483
-9.4584045 -0.42166442 4.8949909
-9.4307461 -0.68174946 4.9445276
-9.5919724 -1.121219 4.6353602
-9.6098566 -1.160924 4.5537128
-9.6531963 -1.0394231 4.4646025
-9.6568146 -1.2794468 4.4638815
-9.7179089 -1.1992809 4.3481364
-9.5781708 -0.96111488 4.6326342
-9.5958796 -0.96103179 4.5937586
-9.5859013 -1.0803169 4.6471949
-9.5463505 -1.2412843 4.7043457
-9.5053511 -1.2814422 4.7865438
-9.521801 -1.0415471 4.7887697
-9.5435858 -1.161503 4.7521315
-9.5795746 -1.1603324 4.6589727
-9.4646912 -1.2419758 4.9443073
-9.4519711 -1.2420934 4.9835262
-9.4473534 -1.1820617 4.9834833
-9.5477543 -0.95881593 4.710741
-9.6978741 -0.33915171 4.3502288
-9.8480177 -0.17863044 4.0404749
-9.8227844 -0.13883495 4.1190853
-9.8642483 -0.258618 4.0162115
-9.912241 -0.37866315 3.9639075
-9.8635025 -0.35862723 4.0182629
-9.6641016 -0.43948442 4.4677773
-9.6492329 -0.48097605 4.5194273
-9.6496048 -0.42097586 4.5197277
-9.6312008 -0.44017988 4.5576234
-9.6855841 0.22057082 4.4318323
-9.6728554 0.22046973 4.4710469
-9.6763268 0.18052782 4.4535828
-9.6440849 0.29906505 4.5226326
-9.6293793 0.018759131 4.6005325
-9.614953 -0.060315408 4.6132078
-9.586338 0.019592822 4.6742582
-9.5876045 0.37952203 4.6908445
-9.6692009 0.17969061 4.5376387
-9.6483517 -0.26076734 4.4802775
-9.7670403 -0.019564606 4.3562918
-9.6793623 0.33973795 4.5139146
-9.7122898 -0.21987665 4.3785343
-9.7673969 -0.13885674 4.1954527
-10.043917 -0.25856543 3.7730036
-9.5472031 -0.5215472 4.7603121
-9.3685837 0.17792763 5.0920219
-9.368639 0.29787803 5.1025982
-9.4759808 0.098362178 4.871007
-9.5078964 0.018516392 4.8001661
-9.369688 0.21798326 5.079752
-9.3637276 0.33789754 5.104948
-9.4422951 0.37818539 4.9501572
-9.4365616 0.29802126 4.9894905
-9.6742382 -0.01936204 4.4300795
-9.6701336 0.18048717 4.4706974
-9.5902138 0.17881669 4.6386628
-9.6649179 0.14051761 4.4701748
-9.7100697 0.14042325 4.433197
-9.8990879 0.42124432 4.0063276
-9.8845158 0.58097863 4.0861564
-9.8034382 0.54075408 4.2407799
-9.7317924 0.50000226 4.3827753
-9.7340336 0.45998675 4.3827629
-9.7229939 0.46058267 4.3827562
-9.7001686 0.50051963 4.4264507
-9.7284622 0.49996763 4.3950806
-9.687768 -0.42062658 4.4020696
-9.6905127 -0.42044413 4.3621635
-9.6510868 -0.32019687 4.5343876
-9.5083046 -0.40145457 4.790761
-9.3849621 -0.34184676 5.023118
-9.2592449 -0.22242436 5.29568
-9.4016743 -0.42215604 5.0639973
-9.4102898 -0.64221472 5.0635853
-9.3683949 -0.10196167 5.0681801
-9.345295 -0.18218553 5.1414032
-9.3565121 -0.022057004 5.102809
-9.4475517 -0.021652825 4.9085989
-9.4662704 -0.26157644 4.8686981
-9.505249 -0.38148361 4.8006668
-9.5112934 -0.32147235 4.7913303
-9.8463058 -0.47862512 4.039144
-9.8466492 -0.41862428 4.0394106
-9.8146629 -0.83873636 4.1031675
-9.8090401 -0.79908121 4.1881428
-9.8453922 -0.6386199 4.0384359
-9.8703651 -0.67859322 3.999902
-9.9081669 -0.70096564 3.9222291
-9.9135122 -0.63849682 3.9228504
-9.8644714 -0.098661959 4.0268974
-9.7006588 -0.43911433 4.3374867
-9.9153385 -0.3185057 3.9242697
-9.8899088 -0.35852998 3.9624486
-9.8633327 -0.41861331 4.015502
-9.9096069 -0.41848123 3.9259753
-9.6916676 -0.18083718 4.441021
-9.6760178 -0.099552095 4.4699745
-10.007404 0.38148206 3.8131645
-9.7668915 0.30079401 4.2773838
-9.631917 -0.22022477 4.5685902
-9.5862446 -0.26029682 4.6480551
-9.5866632 -0.22028679 4.6457396
-9.6204147 -0.26098514 4.5585442
-9.5947275 -0.34101731 4.596508
-9.1168346 -0.42269456 5.5255404
-9.3633938 -0.52210873 5.1010008
-9.2980423 -0.48228091 5.2169724
-9.3116722 -0.64382684 5.258522
-9.3188553 -0.52215362 5.1655989
-9.1693478 -0.5622403 5.3681355
-9.0719185 -0.50650311 5.8428268
-9.1176052 -0.40392601 5.7712603
-9.0900116 -0.40411973 5.8445387
-9.0715313 -0.56900126 5.8425159
-9.0804729 -0.34350702 5.7338982
-8.7981739 -0.42475033 6.3330746
-9.009058 -0.22538736 6.2006397
-8.9218616 -0.36529577 6.2892303
-8.9649773 -0.34535134 6.247179
-8.8875999 -0.38519552 6.311841
-8.7949467 -1.0846727 6.3173122
-8.8350792 -0.96497154 6.3281374
-8.8361454 -0.76498872 6.3316278
-8.8351555 -0.92498374 6.3308306
-10.744507 0.20130213 2.3396833
-10.745501 0.10389659 2.3168051
-10.741198 -0.37868437 2.3371124
-10.74131 -0.35868281 2.3372006
-10.742924 -0.076190382 2.3384533
-10.740299 -0.53618038 2.3364151
-10.743496 -0.45851988 2.2968543
-10.7446 -0.47595012 2.2793169
-10.742189 -0.41610992 2.3194878
-10.714966 -0.99620926 2.3729038
-10.718863 -0.79605329 2.333885
-10.73979 -0.83610058 2.3176258
-10.669538 -0.51646435 2.4919932
-10.417828 -0.79693174 2.9195487
-10.626863 -0.95639014 2.5273647
-10.590563 -0.71634781 2.5659256
-10.673222 -0.8361342 2.4107642
-10.557222 -0.87646949 2.6356506
-10.527006 -0.83632231 2.6412454
-10.741032 -0.13627866 2.3606346
-10.691835 -0.31652027 2.4767971
-10.73947 -0.19884869 2.377816
-10.283092 0.46213615 3.3112779
-8.9818554 0.37599522 5.9609423
-9.5892029 0.6595031 4.6945972
-9.5895386 0.73949039 4.6974525
-9.5560894 0.49859333 4.7279873
-9.5684834 0.77856374 4.7200928
-9.5220995 0.61846554 4.796361
-9.0733223 0.13580789 5.8834429
-9.1184978 0.12839939 5.8088331
-9.1255302 0.25685465 5.6094275
-9.0691776 -0.18378076 5.8040152
-9.0793896 -0.18614748 5.7646132
-9.1333389 -0.023048796 5.5786161
-9.1841583 -0.14378245 5.411159
-9.1834164 -0.18292803 5.4911184
-9.2183228 0.13724752 5.4147902
-9.1250343 0.17685677 5.6090279
-9.4639549 1.1376511 5.0353003
-8.9903431 0.81581855 5.9885921
-9.0097675 0.81601584 5.9247742
-9.0249844 0.81611645 5.885726
-9.0067787 0.73603427 5.9242048
-9.0307178 0.89628041 5.8463917
-9.0399513 0.77621889 5.8464785
-8.9917908 0.85589671 5.9713326
-8.8990555 1.0954541 6.1765442
-8.9099865 1.0554694 6.1595716
-8.8977985 0.97542393 6.1834288
-8.9457283 1.1081367 6.0820818
-9.2247505 0.93677509 5.506587
-9.1763859 0.77672613 5.5752029
-8.9944973 1.016005 5.9471893
-9.0899086 0.62668955 5.6888533
-9.0902634 0.68418908 5.6891413
-9.1526985 0.61667919 5.6129379
-9.2679214 0.85712886 5.3813915
-9.0786266 0.49636286 5.7676735
-9.3211346 0.42757714 5.2227116
-9.3562431 0.37774706 5.1447096
-9.3744469 0.4578287 5.1062317
-9.070137 0.69662023 5.7279072
-9.0407524 0.65632474 5.8234339
-9.0398731 0.76371884 5.8464155
-9.0651608 0.37624973 5.8062935
-9.1205826 0.21599872 5.7868223
-9.1232338 0.25615704 5.7521057
-9.1256542 0.17635264 5.7093058
-9.1833954 0.25687683 5.5332174
-9.2245255 0.45697153 5.4642887
-9.1744804 0.50903606 5.6139441
-9.1943626 0.41680682 5.5347013
-9.1747303 0.53672284 5.5764999
