ply
format ascii 1.0
comment PCL generated
element vertex 561
property float x
property float y
property float z
element camera 1
property float view_px
property float view_py
property float view_pz
property float x_axisx
property float x_axisy
property float x_axisz
property float y_axisx
property float y_axisy
property float y_axisz
property float z_axisx
property float z_axisy
property float z_axisz
property float focal
property float scalex
property float scaley
property float centerx
property float centery
property int viewportx
property int viewporty
property float k1
property float k2
end_header
-1.1897767 -1.3537421 -4.3828855
-1.2701249 -1.3938812 -4.2668743
-1.3345587 -1.3133177 -4.1742778
-1.4065545 -1.2340373 -4.0707722
-1.4293869 -1.0741142 -4.0384684
-1.4317193 -0.9140867 -4.0357242
-1.4301195 -0.87409747 -4.0381861
-1.3886192 -0.59401178 -4.0991096
-1.3889983 -0.51401472 -4.0988722
-1.4039743 -0.37394342 -4.0778203
-1.4243047 -0.27398351 -4.048892
-1.4097352 -0.094032735 -4.0705962
-1.4371176 0.22587766 -4.0323505
-1.5179751 0.58253103 -3.9171407
-1.4779742 0.82482129 -3.9757559
-1.4797003 0.86475044 -3.9734218
-1.4880168 1.0252644 -3.9620507
-1.4955518 1.105296 -3.9514954
-1.6778603 1.3500122 -3.689568
-1.709914 1.349761 -3.6433485
-1.7597675 1.3616915 -3.5715096
-1.7706532 1.3621505 -3.555815
-1.7952495 1.3610502 -3.520345
-1.8238635 1.3586915 -3.4790766
-1.8347368 1.3566501 -3.4633904
-1.8736696 1.3606198 -3.4072678
-1.8879821 1.36069 -3.3866305
-1.9097412 1.3591106 -3.3552494
-1.9187462 1.3578963 -3.3422601
-1.9594882 1.3485405 -3.2834775
-1.9718649 1.3496805 -3.2656355
-2.0359919 1.3565639 -3.1731963
-2.099926 1.3618853 -3.0810289
-2.1321497 1.3606422 -3.0345602
-2.1712019 1.3545705 -2.9782267
-2.1782496 1.3563067 -2.9680707
-2.1962371 1.3600259 -2.9421489
-2.2068024 1.3613813 -2.9269199
-2.2603371 1.3619108 -2.8497291
-2.3019881 1.3917294 -2.7897871
-2.2890027 1.4229195 -2.8086319
-2.2747521 1.4253815 -2.8291893
-2.271235 1.4257629 -2.8342621
-2.235621 1.416453 -2.8855786
-2.1391978 1.3623786 -3.0244038
-2.0964344 1.3672671 -3.0860846
-2.0644045 1.3700745 -3.1322799
-2.0466104 1.367919 -3.1579292
-2.01458 1.3707253 -3.2041252
-1.9932692 1.3689531 -3.2348471
-1.9504664 1.3663409 -3.296555
-1.929168 1.3670672 -3.3272684
-1.8936067 1.3677574 -3.3785477
-1.8758271 1.3681008 -3.4041858
-1.8171027 1.3794706 -3.4889057
-1.7993622 1.3797899 -3.5144873
-1.749568 1.3803602 -3.5862887
-1.7209654 1.3852196 -3.6275501
-1.7032242 1.3855394 -3.6531329
-1.6426039 1.3981497 -3.7405913
-1.5979943 1.4229307 -3.8050103
-1.577709 1.4230096 -3.8342607
-1.4966125 1.391971 -3.9510753
-1.4679751 1.3893319 -3.992358
-1.4216557 1.3995106 -4.059186
-1.3254588 1.3927615 -4.1978679
-1.287636 1.3456141 -4.252223
-1.1663749 1.2665262 -4.4267659
-1.1855242 1.0264568 -4.3982253
-1.1260977 0.63218176 -4.4823885
-1.1375141 0.58723962 -4.4657531
-1.1383786 0.26825386 -4.4632721
-1.2122369 0.026418388 -4.3558388
-1.2100694 -0.053587407 -4.358655
-1.2116168 -0.29356447 -4.3554955
-1.1781883 -0.45750514 -4.4030623
-1.1875598 -0.65116811 -4.3888001
-1.1915092 -0.75374401 -4.3827085
-1.19205 -0.8737601 -4.3814645
-1.1918607 -0.91375816 -4.3815827
-1.1885061 -1.1537087 -4.3854914
-1.1894259 -1.1937271 -4.3840103
-1.1899662 -1.3137441 -4.3827667
-8.5581665 1.057283 6.2324171
-8.525979 1.3227271 6.1849775
-8.4839239 1.4333003 6.1239095
-8.4389496 1.4989005 6.0588064
-8.4098225 1.53679 6.0166607
-8.3856153 1.579615 5.9815907
-8.3052502 1.5406944 5.8658609
-8.2564487 1.4938455 5.7956753
-8.2126656 1.4619241 5.732667
-8.1133938 1.3832461 5.589829
-8.0705395 1.3638232 5.528111
-8.0242233 1.3594434 5.4613447
-8.0063162 1.3446867 5.4355807
-8.0097952 1.3296361 5.4406552
-8.0554886 1.3440278 5.506485
-8.1130924 1.3407589 5.5895586
-8.2081232 1.3019758 5.7267346
-8.2303209 1.2941793 5.7587733
-8.2517281 1.303897 5.7896032
-8.411931 1.2992479 6.0206203
-8.4367256 1.278915 6.0564508
-8.5323238 0.97762191 6.1954618
-8.5104523 0.8579073 6.1643882
-8.5090942 0.8179239 6.1625848
-8.515522 0.7778365 6.1720071
-8.5214558 0.65775037 6.1810284
-8.5294142 0.57764053 6.1928139
-8.5298119 0.49763101 6.193696
-8.5299883 0.41762432 6.1942606
-8.5310392 0.40761015 6.1958141
-8.5361691 0.33753851 6.2034817
-8.5487442 0.17736454 6.2222352
-8.5633278 0.017162561 6.2438817
-8.5608597 -0.022807002 6.240478
-8.5551796 -0.22274157 6.2330608
-8.5513496 -0.33769318 6.227983
-8.5512867 -0.34769282 6.2279325
-8.5519381 -0.42270634 6.2291613
-8.5530539 -0.60273063 6.2314668
-8.5576286 -0.76279914 6.2386827
-8.5504637 -0.84270847 6.2286601
-8.5480556 -0.8726784 6.2253027
-8.5479927 -0.88267839 6.2252526
-8.5501719 -0.96271074 6.2287035
-8.5500984 -1.0827163 6.2290621
-8.5463009 -1.1226695 6.2237415
-8.5426865 -1.202623 6.2188382
-8.5236816 -1.3623772 6.1920533
-8.5045061 -1.4421265 6.1647115
-8.5554237 -1.4128075 6.2380176
-8.5769367 -1.2430865 6.2683806
-8.5790796 -1.0031015 6.2705421
-8.5735645 -0.9230237 6.2622805
-8.5778408 -0.84307706 6.268137
-8.5838947 -0.76315367 6.2765565
-8.582655 -0.60312951 6.2741504
-8.5825272 -0.44312015 6.2733474
-8.5884628 -0.38319626 6.2816749
-8.5872707 -0.14316788 6.279027
-8.5815306 -0.063086271 6.2704396
-8.5638218 0.09716028 6.2442861
-8.5514603 0.25733304 6.225842
-8.5522461 0.38482779 6.226481
-8.5529385 0.49732572 6.2270451
-8.5545683 0.61730981 6.2289305
-8.5541706 0.69731939 6.2280469
-8.5542164 0.70481825 6.2280846
-8.5555525 0.77730453 6.2297306
-8.545619 0.89744163 6.2149425
-8.545866 0.93744075 6.2151427
-4.5030894 -0.5356462 0.39148164
-4.5006742 -0.5355314 0.38799852
-4.3482494 -0.75911152 0.16907954
-4.3698649 -0.75611043 0.20023568
-4.4015813 -0.75243104 0.24595395
-4.5656366 -0.77661276 0.48260212
-4.6474323 -0.77141774 0.60052484
-6.4158592 -1.1624264 3.1519673
-6.5775261 -1.2661629 3.3854797
-6.6273327 -1.2666349 3.4572983
-6.6188302 -1.2265726 3.4448838
-6.7754498 -0.82780576 3.6691735
-6.8164749 -0.79573739 3.7282045
-6.8875837 -0.77904785 3.8306735
-6.8234849 -0.77850831 3.738246
-6.7736545 -0.78303576 3.6664121
-6.7593498 -0.7854681 3.6457953
-6.7450457 -0.78790045 3.6251791
-6.7190619 -0.82765996 3.5878668
-6.4620104 -0.78543854 3.2170558
-6.4593854 -0.78536606 3.2132704
-6.4309359 -0.78508413 3.1722474
-6.4022155 -0.78485227 3.1308336
-6.3923626 -0.78483522 3.116626
-6.3701687 -1.0220914 3.0855432
-6.370122 -1.0320905 3.0855136
-3.5334773 1.4327178 -1.0142367
-3.4195814 1.4364542 -1.1784798
-3.3979783 1.4282639 -1.2095981
-3.3731937 1.4242482 -1.2453198
-3.3436611 1.4213852 -1.2878925
-3.2982666 1.4145141 -1.3533211
-3.2411101 1.4044623 -1.4356974
-3.2340956 1.4001268 -1.4457952
-3.1621234 1.1029072 -1.5484232
-3.1617041 1.0229106 -1.5487183
-3.1610754 0.90291369 -1.5491608
-3.1611297 0.74292064 -1.5484635
-3.1767497 0.50261003 -1.5250109
-3.1757317 0.34280336 -1.5258608
-3.1744113 0.30282435 -1.5276101
-3.1777503 0.18262304 -1.5223302
-3.168292 -0.017084122 -1.5351959
-3.1753912 -0.097368091 -1.5246485
-3.1772299 -0.25736073 -1.5213783
-3.1757092 -0.37735608 -1.5231069
-3.1739373 -0.44322869 -1.525407
-3.3904417 -0.76520288 -1.2119795
-3.5762892 -0.60716581 -0.94461364
-3.7431917 -0.75044048 -0.70339918
-3.7752147 -0.75572407 -0.65720415
-3.8250029 -0.76128113 -0.58539194
-3.8535936 -0.75630331 -0.54418564
-3.9123776 -0.76970732 -0.45937204
-3.9335177 -0.76990223 -0.42888892
-3.9409442 -0.7697295 -0.4181813
-3.9528897 -0.77069509 -0.40095305
-3.9886992 -0.76796293 -0.34932923
-4.0137711 -0.77022445 -0.31316894
-4.0458193 -0.77050722 -0.26695704
-4.0848546 -0.76631498 -0.21068718
-4.06709 -0.76604235 -0.23630334
-4.0419927 -0.76878262 -0.27248085
-3.4406044 1.4210757 -1.1481067
-3.4272337 1.42012 -1.1673826
-3.4183855 1.4204464 -1.1801424
-3.4096692 1.4213628 -1.192714
-3.3944447 1.4210958 -1.2146655
-3.3854473 1.4207525 -1.2276376
-3.3338068 1.4138764 -1.3020726
-3.2911868 1.3976798 -1.3634647
-6.0480127 1.4221865 2.6115634
-6.1121421 1.4262867 2.7040169
-6.1476412 1.4233134 2.7552152
-6.1697698 1.4080112 2.7871819
-6.2721 1.3790386 2.9348459
-6.3361969 1.3781384 3.0272727
-6.3825374 1.3774762 3.0940943
-6.4002638 1.3722391 3.119674
-6.4322958 1.3692893 3.1658738
-6.4357624 1.3692662 3.1708722
-6.4573956 1.3663867 3.2020764
-6.5214767 1.3629875 3.2944896
-6.547061 1.36269 3.3313811
-6.5604753 1.3649904 3.3507142
-6.6013331 1.3619365 3.4096403
-6.6670208 1.3635696 3.5043502
-6.6709118 1.3634269 3.5099614
-6.7135563 1.3603476 3.5714636
-6.7162619 1.3602996 3.5753651
-6.7462282 1.3599008 3.6185756
-6.7952948 1.3742702 3.6892698
-6.8252821 1.3988484 3.732414
-6.9629903 1.3868531 3.9310246
-6.980732 1.3841177 3.9566176
-6.9984579 1.378881 3.982197
-7.023149 1.3785965 4.0178008
-7.0555916 1.3730283 4.0646014
-7.0694571 1.3729341 4.0845952
-7.0930758 1.3712635 4.1186576
-7.1088629 1.3723185 4.141418
-7.125124 1.3708334 4.1648703
-7.1690216 1.3640614 4.2281938
-7.2516465 1.3572836 4.3473587
-7.2694416 1.3570465 4.3730187
-7.301466 1.3541181 4.4192066
-7.3371277 1.3586321 4.4706106
-7.3726721 1.3506593 4.5218935
-7.4038372 1.3527412 4.5668225
-7.3869629 1.3579662 4.5424719
-7.3442764 1.366042 4.4808893
-7.3174081 1.3682531 4.4421387
-7.3139305 1.3683578 4.4371238
-7.2819548 1.3695023 4.3910131
-7.2606735 1.3741583 4.3603096
-7.2548475 1.375282 4.3519044
-7.2250314 1.3826854 4.3088832
-7.1943436 1.3961573 4.2645812
-7.1898618 1.3937237 4.2581291
-7.1537557 1.3805062 4.2061176
-7.1359768 1.3782734 4.180491
-7.1039739 1.374154 4.1343608
-7.031723 1.3958569 4.030097
-7.0281248 1.3959181 4.0249081
-7.0038443 1.3962641 3.9898968
-6.9700508 1.4068067 3.9411278
-6.9523406 1.4145424 3.9155614
-6.9095149 1.4226823 3.8537786
-6.8740635 1.4331548 3.8026199
-6.8275175 1.4013196 3.7356277
-6.8096972 1.391557 3.7099695
-6.7277145 1.3726933 3.59183
-6.7173305 1.375263 3.5768476
-6.6921835 1.370667 3.5406058
-6.6532016 1.3711642 3.4843948
-6.6423759 1.3713539 3.4687848
-6.6137638 1.3667805 3.4275453
-6.5639725 1.3699661 3.3557384
-6.5284414 1.3679402 3.3045135
-4.3522072 1.4513552 0.16623443
-4.2523227 1.3999707 0.022408068
-4.2094488 1.3950042 -0.03939338
-4.1881895 1.3930397 -0.07004042
-4.141871 1.3958341 -0.13683851
-4.1132927 1.3933573 -0.17803644
-4.1063294 1.3938801 -0.18807931
-4.0885653 1.3941541 -0.21369486
-4.027976 1.3994602 -0.30108017
-3.9424009 1.4245262 -0.42456973
-3.9103026 1.4148096 -0.470815
-3.896008 1.4123211 -0.49141747
-3.782186 1.430946 -0.6556114
-3.7434986 1.425563 -0.711375
-3.6616232 1.4239933 -0.82942671
-3.6296036 1.4292989 -0.87561673
-3.5690575 1.4395787 -0.96295911
-4.358973 1.4108324 0.17614673
-4.3945885 1.4277866 0.22743589
-4.462522 1.4279926 0.32538998
-4.5157304 1.4096744 0.40218297
-4.5477037 1.3943905 0.44834524
-4.579752 1.3941072 0.4945575
-4.5867143 1.3935834 0.50459874
-4.6152687 1.3910605 0.54578173
-4.6650686 1.3880037 0.61760098
-4.7256832 1.3876969 0.70500314
-4.7646818 1.3843894 0.76124918
-4.8144822 1.3813336 0.83306909
-4.8465543 1.3860496 0.87929583
-4.8040991 1.3946182 0.81804633
-4.7755203 1.3921407 0.77684712
-4.7434602 1.3899254 0.73062748
-4.721869 1.3919233 0.69948727
-4.6901784 1.3932438 0.65378678
-4.6404028 1.4013001 0.58198321
-4.6035471 1.403051 0.52883369
-4.5902586 1.405821 0.50966138
-4.5548034 1.4213668 0.45847809
-4.5263476 1.4438888 0.41736004
-4.5103688 1.4441601 0.3943187
-4.5085831 1.444162 0.39174354
-4.5052524 1.4442117 0.38694096
-4.4622893 1.4519556 0.32496196
-4.4267721 1.4550025 0.27373672
-4.3877492 1.4533098 0.21747538
-4.9434261 -1.1715224 1.0288719
-4.70822 -0.77776825 0.68820041
-4.8958588 -0.7396071 0.95861316
-4.9071379 -0.73498869 0.97485816
-4.9500237 -0.7275219 1.0366676
-4.9704051 -0.7402966 1.066105
-5.0919485 -0.77332234 1.2414893
-5.1492615 -0.73225033 1.3239709
-5.1726141 -0.73411858 1.3576504
-5.1773243 -0.73412061 1.3644423
-5.2270551 -0.72200692 1.4361031
-5.2499781 -0.77468109 1.4693599
-5.2614565 -0.8146801 1.4860657
-5.2505746 -0.85459602 1.4705297
-5.2404613 -0.9095757 1.4561596
-5.278616 -1.1759006 1.5122055
-5.2029076 -1.134243 1.402879
-5.1287756 -1.1019676 1.2958616
-4.9910092 1.279385 1.0880014
-4.9886603 1.2796935 1.0846132
-4.8751082 1.383526 0.9204787
-4.0881829 1.3881181 -0.21422251
-4.1344771 1.3803232 -0.14744
-4.1665006 1.3750392 -0.10124473
-4.1842899 1.3797661 -0.075612172
-4.1985855 1.3822545 -0.055008531
-4.2661872 1.3864245 0.042451471
-4.2947783 1.3914012 0.083658375
-4.3338137 1.3955947 0.13992846
-2.904017 0.74603939 -1.9192119
-2.8796661 0.70679355 -1.9541717
-2.8820488 0.62635875 -1.9504247
-2.8790381 0.58679843 -1.954613
-2.8790278 0.54669535 -1.9544728
-2.8695941 0.44919011 -1.9676979
-2.8828602 0.42670357 -1.9484828
-2.9405637 0.1855453 -1.8643458
-2.9276736 0.025470167 -1.8823128
-2.9203687 -0.094394892 -1.8923824
-2.9177213 -0.17434809 -1.8958905
-2.9179754 -0.29434153 -1.8950598
-2.9213285 -0.33433095 -1.89007
-2.8771868 -0.56962645 -1.9528086
-2.87327 -0.63962138 -1.9581852
-2.8929031 -0.75987685 -1.9294109
-2.9017601 -0.80015898 -1.9164839
-2.9144688 -0.9204241 -1.8976939
-2.9271991 -1.0406255 -1.8788726
-2.9251938 -1.0806884 -1.881609
-2.9117973 -1.2477741 -1.9002795
-3.0364866 -1.2412733 -1.7205125
-3.0596519 -1.2414204 -1.6871098
-3.0839276 -1.2415862 -1.6521051
-3.1875539 -1.1379635 -1.5030853
-3.2120543 -1.1233399 -1.4678143
-3.3778634 -0.80420518 -1.2299653
-3.5026746 -0.81529057 -1.0499548
-3.6090193 -1.0469215 -0.89571828
-3.6168265 -1.2473128 -0.88368517
-3.6194062 -1.2673136 -0.87988812
-3.6337309 -1.6469277 -0.85776454
-3.6345792 -1.6470579 -0.8565411
-3.6551516 -1.6469446 -0.82687777
-3.6580031 -1.6470927 -0.82276541
-3.6774278 -1.6470913 -0.79475641
-3.7424166 -1.6476611 -0.70104569
-3.7458982 -1.6479226 -0.69602466
-3.7779465 -1.6482068 -0.64981234
-3.8453455 -1.6495532 -0.55262327
-3.753129 -1.0879411 -0.68776459
-3.9315419 -0.77291834 -0.43172616
-3.9635773 -0.77570224 -0.38552302
-1.9284043 -1.0008806 -3.3192089
-1.9120772 -0.92061377 -3.3430617
-1.9042122 -0.87910175 -3.3545628
-1.8974345 -0.79914105 -3.364645
-1.880599 -0.77046132 -3.3890314
-1.8646379 -0.75899851 -3.4120908
-1.8602145 -0.75641799 -3.418479
-1.8247333 -0.75577796 -3.4696422
-1.80691 -0.77295732 -3.4952757
-1.7915835 -0.79803073 -3.5172782
-1.8238974 -1.2786564 -3.4688249
-1.8240743 -1.3204904 -3.4684079
-1.8298197 -1.3190322 -3.460129
-1.8844454 -1.2409005 -3.3816652
-1.9751108 -1.2009186 -3.2510879
-2.0214846 -1.1984454 -3.1842301
-2.1107237 -1.2409436 -3.0553899
-2.0722752 -1.2010449 -3.1109841
-7.6851439 -0.95114017 4.9813576
-7.6837611 -1.0311255 4.9796734
-7.6274285 -1.0703692 4.8985982
-7.6182985 -1.0702446 4.8854327
-7.4389477 -0.78783858 4.625731
-7.4841499 -0.78344584 4.6908913
-7.5161581 -0.78887463 4.7370663
-7.7048192 -0.78889167 5.0091
-6.0516825 1.3870442 2.6169906
-6.115653 1.3661461 2.7093122
-6.158165 1.3756253 2.7705739
-6.2009907 1.3674864 2.8323565
-6.2438793 1.3693463 2.8941915
-6.2828922 1.3738486 2.9504278
-6.3114433 1.3684236 2.9916167
-6.3434758 1.3654733 3.0378172
-6.3577671 1.3652593 3.0584245
-6.3826704 1.3649167 3.0943344
-6.4110398 1.36455 3.1352422
-6.450038 1.3665526 3.1914663
-5.8374934 1.3726035 2.308203
-5.7932358 1.373217 2.2443845
-5.7523084 1.3737849 2.1853685
-5.7166567 1.3742363 2.1339598
-5.7025023 1.3744714 2.1135495
-5.6571627 1.3750907 2.0481708
-5.6376181 1.375355 2.0199881
-5.6171656 1.3731315 1.9905056
-5.5742764 1.3712702 1.9286706
-5.5244694 1.3719573 1.85685
-5.4711809 1.3701667 1.7800192
-5.4530926 1.3691108 1.7539412
-5.4425831 1.3680934 1.7387918
-5.4210467 1.3693856 1.7077328
-5.3962803 1.3726048 1.6720086
-5.3534536 1.370171 1.6102655
-5.3001914 1.3834338 1.5334147
-5.1772037 1.3987353 1.3560172
-5.1470165 1.3943489 1.3125066
-5.0088634 1.2793708 1.1137456
-4.9991331 1.2796369 1.0997139
-3.1375532 0.9835608 -1.5833898
-2.9421594 0.74506712 -1.8642094
-2.9324126 0.74563944 -1.8782656
-2.9235344 0.74590993 -1.8910685
-2.9097004 0.74652743 -1.9110184
-5.2815328 1.3984616 1.506452
-5.2007332 1.4219931 1.3898549
-5.1721659 1.4170377 1.3486822
-5.1045847 1.4203224 1.2512226
-5.0617094 1.4078877 1.1894482
-5.0354586 1.4046059 1.1516092
-4.9999294 1.4051521 1.1003772
-4.9821644 1.405424 1.0747602
-4.9644122 1.408197 1.0491519
-4.9255452 1.4017875 0.99313396
-4.9042525 1.4022186 0.9624297
-4.8859591 1.3937771 0.93608475
-5.2903867 1.398221 1.5192196
-5.3570037 1.3799387 1.615347
-5.4176421 1.3959965 1.7027209
-5.467401 1.38781 1.7745005
-5.5033092 1.3822165 1.8262987
-5.5279994 1.3819339 1.8619016
-5.592145 1.3885341 1.9543691
-5.6419029 1.3803473 2.0261476
-5.7060328 1.3844472 2.1186018
-5.7419567 1.3813536 2.170413
-5.7809386 1.3808571 2.2266235
-5.8056607 1.3855746 2.2622528
-5.8736181 1.3795316 2.360265
-5.9195805 1.3864883 2.4265125
-5.9918756 1.4104673 2.5306633
-5.9875212 1.3779446 2.5245106
-5.9686108 1.3707557 2.4972713
-5.9447379 1.3711066 2.4628468
-5.9056187 1.3715819 2.4064381
-5.8982611 1.3717477 2.3958285
-5.863533 1.3722382 2.3457513
-5.8627453 1.3722212 2.3446162
-5.8484545 1.3724355 2.3240092
-5.8413086 1.372542 2.313705
-3.7881701 1.2514641 -0.64628857
-3.9530408 1.3922782 -0.40910286
-3.9816198 1.394755 -0.36790407
-4.0383835 1.3911741 -0.28604114
-4.131186 -0.7666105 -0.14388005
-4.1593833 -0.77016819 -0.10320781
-4.2022567 -0.76520264 -0.041406766
-4.1844921 -0.76492953 -0.067023203
-4.1489506 -0.76688385 -0.11826344
-3.5867879 1.4317597 -0.93736309
-3.6187692 1.4189553 -0.89119905
-3.6291683 1.4128786 -0.87618107
-3.6542568 1.4083171 -0.83998758
-7.1548119 -0.78113866 4.2160029
-7.1656408 -0.78107011 4.2316179
-7.19379 -0.78167927 4.2722087
-7.2028809 -0.78217602 4.2853189
-7.2080836 -0.78174639 4.2928195
-7.2276025 -0.78075421 4.3209605
-7.2418489 -0.78081369 4.3415031
-7.2553501 -0.78277063 4.3609776
-7.2562661 -0.78288674 4.362299
-7.280983 -0.78164816 4.3979335
-7.295229 -0.78170741 4.4184756
-7.3247914 -0.78630662 4.4611206
-7.3737874 -0.78196728 4.5317516
-7.3204222 -0.77124476 4.454762
-7.2632036 -0.77885067 4.3722868
-7.2385015 -0.77765012 4.3366642
-7.2189236 -0.77917802 4.3084397
-7.2046299 -0.77911174 4.2878294
-7.1868734 -0.77890801 4.2622252
-7.1834092 -0.77877235 4.2572293
-7.1706281 -0.77801812 4.2387972
-7.1509228 -0.77897787 4.2103872
-7.1336026 -0.77830017 4.1854105
-7.1172347 -0.77962291 4.1618142
-7.1029873 -0.77956378 4.1412702
-7.0887403 -0.77950513 4.1207271
-7.0744939 -0.77944529 4.1001849
-7.0916033 -0.78078997 4.1248603
-7.109395 -0.78100598 4.1505156
-7.144979 -0.78143883 4.2018261
-4.3127079 -0.7610656 0.11783895
-4.2841301 -0.76354289 0.076641157
-4.2733274 -0.76379454 0.061065897
-4.2451057 -0.76523674 0.020378292
-4.2876358 -0.75880563 0.081678219
-7.0551987 -0.78019333 4.0723648
-7.0123196 -0.77999175 4.0105362
-7.0513096 -0.7780329 4.0667491
0 0 0 1 0 0 0 1 0 0 0 1 0 0 0 0 0 561 1 0 0
