ply
format ascii 1.0
comment PCL generated
element vertex 501
property float x
property float y
property float z
element camera 1
property float view_px
property float view_py
property float view_pz
property float x_axisx
property float x_axisy
property float x_axisz
property float y_axisx
property float y_axisy
property float y_axisz
property float z_axisx
property float z_axisy
property float z_axisz
property float focal
property float scalex
property float scaley
property float centerx
property float centery
property int viewportx
property int viewporty
property float k1
property float k2
end_header
-9.6299286 -1.664444 1.0084026
-10.027836 -1.687185 1.132339
-10.116655 -1.6673493 1.1601552
-10.106647 -1.6677413 1.1570324
-10.015863 -1.6669559 1.1287289
-9.0304937 -0.65958065 0.82759738
-9.1853552 -1.1012044 0.87320113
-8.6454144 -1.2574739 0.7038877
-8.8416605 -1.6580558 0.76264524
-8.8311634 -1.6606326 0.7593565
-8.7940111 -1.6603379 0.74777365
-8.7568722 -1.6575449 0.73621011
-8.6189041 -1.6618581 0.69316292
-8.5534096 -1.6662056 0.67271376
-8.4614811 -1.6582484 0.64409745
-8.443821 -1.6583779 0.63858986
-8.4066706 -1.6580846 0.62700748
-8.3765059 -1.6596742 0.61759186
-8.3305016 -1.664444 0.60321784
-8.2863626 -1.6622674 0.58946788
-8.2775326 -1.6623335 0.58671403
-8.3040457 -1.6571395 0.5950129
-0.15375853 1.3691819 -1.9279941
-0.089310646 1.3692603 -1.9480896
-0.11656141 1.3742108 -1.9395622
-0.19704247 1.3890071 -1.9143767
-0.31347132 1.4088972 -1.8779513
-0.36901379 1.4269373 -1.8605225
-0.41407204 1.401474 -1.8466274
-0.42197371 1.3869331 -1.8442518
-0.39086008 1.3744748 -1.8540294
-0.34295225 1.3819551 -1.8689225
-0.30251265 1.3840637 -1.8815193
-0.17919731 1.3690791 -1.9200624
-5.43225 -0.75571936 -0.29498425
-5.6357989 -0.66903728 -0.23098706
-5.7455969 -0.64972812 -0.19663264
-5.8113337 -0.65009338 -0.17613693
-5.819942 -0.65011531 -0.17345293
-5.8565612 -0.65018386 -0.16203484
-5.9274759 -0.65031093 -0.13992305
-5.9938903 -0.65057307 -0.11921538
-6.0059137 -0.65059739 -0.11546647
-6.2370667 -0.68155485 -0.043577
-6.2938528 -0.71709186 -0.026086122
-6.4052973 -0.75016993 0.0084631294
-6.4315081 -0.75244313 0.016622216
-6.4970975 -0.760405 0.037025869
-6.5481806 -0.7731697 0.05287692
-6.6259832 -0.80833167 0.076923311
-6.5897083 -1.3711176 0.062190622
-6.6732473 -1.4140499 0.087978631
-6.7078357 -1.3336267 0.09925282
-7.0433097 -0.94537705 0.20622009
-7.0717268 -0.95314509 0.2150338
-7.0718026 -0.92064589 0.21525502
-6.8980455 -0.89509159 0.16122973
-6.8205109 -0.84172159 0.13737765
-6.6457729 -0.81319195 0.083064616
-6.5738435 -0.77281886 0.060881197
-6.5430155 -0.75802213 0.051358461
-6.4544945 -0.73224562 0.023912668
-5.8762841 1.4353669 -0.14320531
-5.7759581 1.4460902 -0.17442361
-5.5789018 1.3815193 -0.23626187
-5.5397105 1.3819144 -0.24848004
-5.5025449 1.3795595 -0.26008329
-5.4761939 1.3794782 -0.26830035
-5.4653811 1.379703 -0.27167064
-5.4302521 1.3820951 -0.28261006
-5.4782143 1.3742275 -0.2677024
-5.5768628 1.3742716 -0.23694178
-5.6160569 1.3763752 -0.22470747
-5.662004 1.3762584 -0.21038106
-5.7342863 1.3662219 -0.18790321
-5.8086123 1.3659344 -0.16472878
-5.9201059 1.3705027 -0.12993519
-5.9944315 1.3702145 -0.10676101
-6.0120029 1.3727674 -0.10126641
-6.0707932 1.3746743 -0.08292298
-6.1322703 1.3698633 -0.063782454
-6.1714697 1.3744671 -0.051531449
-6.226203 1.3768766 -0.03444986
-6.2349858 1.3769045 -0.031711102
-6.2653971 1.3789821 -0.022215635
-6.2829647 1.3790357 -0.016737476
-6.3180919 1.3741419 -0.005814001
-6.2809253 1.3717861 -0.01741752
-6.243763 1.3719301 -0.029004499
-6.2086329 1.3743227 -0.039944142
-6.5235009 1.3732247 0.058230639
-6.4383554 1.3687375 0.031653583
-6.392416 1.3738542 0.017359942
-6.4316111 1.3759587 0.029594362
-9.5904551 -1.6641316 0.99609601
-9.4790182 -1.1024826 0.96476269
-9.50037 -0.98261899 0.97214937
-9.4939709 -0.86256927 0.97088397
-9.4563446 -0.7626757 0.95975852
-9.0392904 -0.66018838 0.83033669
-9.011097 -0.63915879 0.82167327
-8.9669466 -0.63948172 0.80790436
-8.7144756 -0.23796809 0.73162055
-8.7192059 -0.19712365 0.73334372
-8.6906404 -0.19703192 0.724437
-8.6871576 -0.19700491 0.72335136
-8.6789932 -0.19709921 0.72080505
-8.6541595 -0.19728231 0.71306038
-8.5885792 -0.21912831 0.69247842
-8.5317478 -0.25841057 0.67451859
-8.5129938 -0.29576296 0.66844344
-8.521636 -0.33569586 0.67089546
-8.56429 -0.41622591 0.68370616
-8.5862398 -0.61647391 0.68933308
-8.5793352 -0.65666252 0.68693566
-8.6311836 -0.81683582 0.70212901
-8.6316147 -0.84183091 0.70211172
-8.6332188 -0.89670902 0.70227838
-8.6330299 -0.93670565 0.7019763
-8.6309757 -0.97682494 0.70109177
-8.6305971 -1.0568213 0.70048726
-8.6368828 -1.0974078 0.70220065
-8.645524 -1.1373413 0.70465231
-10.575194 0.029688269 1.3134533
-10.493431 0.22939172 1.2891722
-10.479077 0.30973962 1.2851849
-10.477248 0.38972017 1.2851008
-10.480749 0.42974281 1.2864357
-10.475833 0.62979627 1.2861192
-10.597231 0.82943141 1.325187
-10.600176 0.98961747 1.3270791
-10.6103 1.0694032 1.3307209
-10.272236 1.3740335 1.2271587
-10.143133 1.3772855 1.186922
-10.031727 1.3881648 1.1522497
-9.9945507 1.3834591 1.1406288
-9.9652901 1.3790929 1.1314781
-9.9308996 1.3810577 1.1207665
-9.8663044 1.3739333 1.1005814
-9.8194103 1.3744395 1.0859618
-9.7176781 1.3701079 1.0542136
-9.6062241 1.3709891 1.0194656
-9.588562 1.3708603 1.0139576
-9.5318966 1.3665762 0.99626231
-9.4558105 1.3777151 0.97260499
-9.3788424 1.3982823 0.94872975
-9.2765713 1.3980985 0.91683865
-9.2082424 1.378731 0.89541507
-9.1621685 1.3589599 0.88092804
-9.1143551 1.3597412 0.86602354
-9.0224285 1.3676999 0.83740747
-8.9764347 1.3654273 0.82305217
-8.958786 1.3677981 0.8175633
-8.9393082 1.3707218 0.81150758
-8.8826771 1.3739381 0.79386866
-8.8366718 1.3691664 0.77949429
-8.8278418 1.3691015 0.77674055
-8.7535391 1.3696899 0.75357509
-8.6704063 1.3702126 0.72765601
-8.5742226 1.3630681 0.69762075
-8.5510025 1.3632514 0.69038141
-8.4669905 1.371551 0.66423547
-8.4210329 1.3767793 0.6499368
-8.2548161 1.3878236 0.59817457
-8.244154 1.3883107 0.59485304
-8.1609974 1.3838341 0.56889606
-8.106102 1.3664982 0.55167341
-8.060133 1.3692281 0.53735578
-7.9575095 1.370173 0.5053618
-7.9398375 1.3675435 0.4998354
-7.8637285 1.373683 0.47614047
-7.9468732 1.3756602 0.50207853
-8.0123672 1.3800089 0.52252746
-8.0760212 1.3824084 0.54239035
-8.159214 1.3943858 0.5684042
-8.2531261 1.4183748 0.59783351
-8.2991066 1.4181449 0.61216974
-8.3469439 1.422364 0.62711167
-8.364603 1.4224942 0.63261914
-8.3840694 1.4170704 0.63865614
-8.4759731 1.4041133 0.66723442
-8.6509981 1.388134 0.72171319
-8.6686592 1.3882639 0.72722101
-8.6969786 1.3879054 0.73604929
-10.491113 -1.345041 1.2788773
-10.511164 -1.1104786 1.2865556
-10.578169 -0.91046447 1.3086649
-10.582565 -0.87054187 1.3102784
-10.582753 -0.83054334 1.3105804
-10.585166 -0.67053837 1.3123055
-10.584251 -0.630548 1.3122634
-10.584327 -0.59051466 1.3125303
-10.584517 -0.55051643 1.3128326
-10.587776 -0.41053838 1.3147002
-10.590543 -0.35052395 1.3159276
-10.587515 -0.31040782 1.3152276
-10.590276 -0.2905302 1.3162092
-10.588905 -0.21068794 1.316267
-10.591605 -0.13070887 1.3175954
-10.694601 -1.3313813 1.3424114
-10.687411 -1.3719966 1.3399228
-10.674731 -1.410955 1.335732
-10.402027 -1.6695361 1.2491261
-10.364876 -1.6692436 1.2375432
-10.464254 -1.4295604 1.2699884
-2.9712274 1.4203424 -1.0491456
-2.928525 1.4152694 -1.0624918
-2.8897038 1.4079008 -1.0746417
-2.8317535 1.3990967 -1.0927652
-2.813771 1.3983161 -1.0983772
-2.7781825 1.3958006 -1.1094897
-2.7394338 1.3910336 -1.1216012
-2.7220907 1.3857629 -1.1270411
-2.4723876 1.221653 -1.2059008
-2.3937685 1.1818664 -1.2306575
-2.3121297 1.1020799 -1.2565989
-2.3099046 1.0620973 -1.2575359
-2.3115311 1.0220857 -1.257272
-2.2458944 0.8222996 -1.2789533
-2.2481916 0.78229523 -1.2784802
-2.2592931 0.74222708 -1.2752621
-2.2724829 0.62219089 -1.2718792
-2.2708051 0.57720411 -1.2726759
-2.307344 0.46212453 -1.261982
-2.502336 0.20663655 -1.2027333
-2.5069647 0.18162699 -1.201442
-2.4929345 0.021661818 -1.2067895
-2.4649775 -0.12577093 -1.2164032
-2.4556558 -0.17824799 -1.219629
-2.4556074 -0.2582466 -1.2201304
-2.4602041 -0.33825558 -1.2191836
-2.554291 -0.49169481 -1.1907784
-2.5569959 -0.69169039 -1.1911509
-2.5641956 -0.81168729 -1.1896354
-2.5667479 -0.93168491 -1.1895691
-2.5644991 -0.97168475 -1.1905135
-2.5759068 -1.1716871 -1.1881723
-2.5660939 -1.2116966 -1.1914754
-2.5580597 -1.2516818 -1.1942238
-2.5563586 -1.2917073 -1.1949975
-2.5564566 -1.2916887 -1.1949669
-2.666641 -1.2516983 -1.1603663
-2.7868893 -1.2516775 -1.1228706
-2.8380804 -1.2444172 -1.1068641
-2.9162488 -1.2446806 -1.0824914
-2.9971552 -1.2449403 -1.0572648
-3.2192421 -1.2057946 -0.98777628
-3.2977443 -1.1660354 -0.96305609
-3.3164339 -1.0861053 -0.95674241
-3.3167636 -0.92616123 -0.95566714
-3.8154607 -0.80783707 -0.79944503
-4.062808 -1.068481 -0.72390229
-4.0259399 -1.6484175 -0.73892426
-4.0122833 -1.6483459 -0.7431823
-4.0029769 -1.6483552 -0.74608421
-10.624279 0.98848504 1.3345878
-10.613428 0.94897479 1.3309641
-10.607341 0.82894015 1.3283364
-10.614044 0.78856826 1.3301809
-10.606583 0.66894817 1.3271272
-10.604948 0.62904471 1.326375
-10.60438 0.50904965 1.3254683
-10.775354 0.14796264 1.3765861
-10.747292 0.085827589 1.3674575
-10.599756 -0.17117631 1.319891
-10.598555 -0.21104038 1.3192741
-10.604193 -0.31134641 1.3204223
-10.598904 -0.35116994 1.3185308
-10.601303 -0.43132353 1.3187917
-10.601114 -0.47132152 1.3184896
-10.600548 -0.59131593 1.3175834
-10.600357 -0.63131458 1.3172809
-10.591719 -0.79097611 1.3136166
-10.700436 -1.0313623 1.3460549
-10.706208 -1.1318774 1.3472439
-10.701698 -1.1519086 1.3457159
-5.8282619 -0.63693172 -0.17077836
-5.7845616 -0.63981038 -0.18442249
-5.7364316 -0.63919729 -0.19942659
-5.690515 -0.64157945 -0.21375865
-5.6446018 -0.64146203 -0.22807454
-5.4147716 -0.75587147 -0.30043522
-5.9537125 1.4050725 -0.11924601
-6.097147 1.3772559 -0.074689567
-6.5694432 1.3706083 0.072540462
-6.632957 1.3705451 0.092344731
-6.6897144 1.3702021 0.11004066
-6.6262083 1.3752654 0.090269178
-6.5978308 1.3754363 0.081421435
-6.5802631 1.3753839 0.075943291
-8.6561375 -0.85742825 0.70966339
-8.6462812 -0.9773491 0.70586109
-5.2021065 -0.76750845 -0.36681885
-4.9602447 -1.13167 -0.44444966
-4.8788891 -1.0912852 -0.46957231
-4.4984984 -1.0499628 -0.58793366
-4.4427309 -1.0498049 -0.605322
-4.2114735 -1.076514 -0.6775946
-10.63272 1.2685428 1.3389226
-10.636565 1.2285212 1.3398784
-10.640982 1.1486127 1.3407699
-10.634779 1.1085529 1.3385922
-10.631165 1.0685658 1.3372217
-10.626331 1.028604 1.335472
-10.60649 1.3488929 1.3312323
-10.625839 1.3184701 1.3370806
-10.627657 1.3085907 1.3375872
-4.6098475 -0.76532704 -0.55148244
-4.6929374 -0.77058524 -0.52560562
-4.8700724 -0.73126012 -0.47013259
-4.9444222 -0.72152632 -0.44688976
-5.0099826 -0.73430127 -0.42652455
-5.1173859 -0.75432593 -0.39315605
-5.1761389 -0.76231617 -0.37488437
-5.274806 -0.76002306 -0.34410429
-5.331686 -0.75556034 -0.32634094
-5.2550998 -0.76467842 -0.35027736
-4.5639133 -0.77020282 -0.56583536
-4.5267444 -0.7700693 -0.57742447
-4.4524183 -0.76230365 -0.60055339
-4.3409157 -0.75940412 -0.63530433
-4.1593742 -0.72907192 -0.69172776
-4.1200294 -0.76377052 -0.70420718
-3.8247766 -0.79037136 -0.79643404
-3.4252384 -0.56642443 -0.91965568
-3.3955472 -0.38633853 -0.92781913
-3.3955991 -0.34633929 -0.92755973
-3.400054 -0.28633982 -0.92580581
-3.4010556 -0.2608974 -0.92533886
-3.3874018 0.019136786 -0.92789376
-3.4334013 0.13351539 -0.91285491
-3.3946528 0.29910943 -0.92393064
-3.4197533 0.45356959 -0.91516483
-3.3836195 0.61914325 -0.92542529
-3.3850389 0.65369928 -0.92477262
-3.3882124 0.69362819 -0.92354035
-3.3932912 0.7391181 -0.92168009
-3.3933723 0.81911629 -0.92116857
-3.3443401 0.89378142 -0.93600368
-3.3050594 1.0539186 -0.9472785
-3.2543533 1.4195619 -0.96086657
-3.2285123 1.4196436 -0.96892381
-3.1678987 1.4248023 -0.98779285
-3.0919807 1.4147506 -1.0115266
-3.0657308 1.4148102 -1.0197114
-3.0171673 1.4201951 -1.0348216
-5.9134283 1.4227228 -0.13169992
-0.29968214 -1.0110075 -1.8969632
-0.35179281 -1.052145 -1.8809643
-0.44720793 -1.0511796 -1.8512062
-0.53665209 -1.0720997 -1.8234432
-0.74193621 -0.8620351 -1.7581547
-0.81616688 -0.79201931 -1.7345825
-0.72160912 -0.57206321 -1.7627302
-0.71208477 -0.45206678 -1.7649704
-0.71397066 -0.37381822 -1.7639067
-0.70380783 -0.36455369 -1.7670193
-0.66753292 -0.3562113 -1.7782798
-0.62072802 -0.3570646 -1.7928796
-0.56376123 -0.35209644 -1.8106126
-0.53845453 -0.35582852 -1.8185264
-0.42167997 -0.35363799 -1.8549255
-0.33864069 -0.35855126 -1.8808484
-0.23829794 -0.3833791 -1.9122882
-0.3429985 -0.39106005 -1.8796873
-0.42858887 -0.39117199 -1.8529993
-0.65462542 -0.81210977 -1.7850763
-10.353259 1.5109849 1.2532557
-10.492287 1.5501974 1.2968456
-10.597694 1.356328 1.3285348
-6.0229311 -0.61032301 -0.10991523
-5.8566957 -0.63720161 -0.16191393
-7.0221539 1.3716586 0.21371019
-7.0681043 1.3740411 0.22805282
-7.1160851 1.3786719 0.24304223
-7.1336532 1.3787253 0.24852055
-7.1816196 1.3733575 0.26344481
-7.2451377 1.3757942 0.28326568
-7.1708198 1.3810821 0.26012409
-7.1037045 1.401037 0.23931772
-7.030324 1.4414239 0.21668196
-7.0266075 1.4413962 0.2155228
-7.0193443 1.44139 0.213258
-6.9040103 1.4393101 0.17728212
-6.8472009 1.4046531 0.15935725
-9.0489655 1.3778934 0.84574449
-8.9658461 1.3809154 0.81984448
-8.891531 1.3790026 0.79666018
-9.2325563 -1.1014602 0.88791764
-9.2801924 -1.1016762 0.90277004
-9.359993 -1.1020472 0.92765105
-3.7817616 1.4172046 -0.79642558
-3.8189063 1.3995724 -0.78495026
-3.8543866 1.3952677 -0.77391315
-3.8631611 1.3952301 -0.77117729
-3.9550369 1.3924367 -0.74254572
-3.992203 1.3923275 -0.73095739
-4.0506687 1.3937821 -0.71271777
-4.0594282 1.3937888 -0.70998633
-4.0878372 1.3936489 -0.7011289
-4.1036997 1.3945005 -0.69617736
-4.1425252 1.3935323 -0.68407691
-4.1512842 1.3935401 -0.68134564
-4.1780281 1.3942835 -0.67300189
-4.2256212 1.3932741 -0.6581676
-4.2895265 1.3964555 -0.63822138
-4.3266883 1.393847 -0.62664962
-4.3458891 1.3953829 -0.62065303
-4.4486418 1.3999743 -0.58858502
-4.4945726 1.4023492 -0.57424855
-4.5033321 1.4023573 -0.57151705
-4.5229816 1.4022079 -0.565391
-4.5951986 1.4096076 -0.54282737
-4.6127181 1.4096251 -0.53736448
-4.6236072 1.4094675 -0.53397
-4.6607761 1.4093337 -0.52238083
-4.7002673 1.4091916 -0.51006764
-4.7722812 1.4089336 -0.48761395
-4.8001566 1.4088335 -0.47892255
-4.8116384 1.4088027 -0.47534245
-4.8925519 1.413543 -0.45008337
-4.9581213 1.4082677 -0.4296698
-5.0084896 1.4083161 -0.41396368
-5.0176477 1.4082925 -0.41110814
-5.0505853 1.4081879 -0.40083838
-5.0883017 1.4080553 -0.3890785
-5.1680937 1.3927939 -0.36429071
-5.205255 1.3876617 -0.35273424
-5.2816033 1.3851709 -0.3289426
-5.3383484 1.3748307 -0.31131139
-5.364706 1.3799105 -0.30306178
-3.8796368 1.4176576 -0.76590359
-3.887702 1.4176331 -0.76338875
-3.9742198 1.406714 -0.73647732
-4.048543 1.3964477 -0.71336448
-4.11199 1.3963392 -0.69358116
-4.1491585 1.3962066 -0.68199223
-4.1863298 1.3985736 -0.67038727
-4.2059789 1.3984237 -0.6642611
-4.2606697 1.4008064 -0.64719307
-4.2694297 1.400815 -0.64446145
-4.3371363 1.4003737 -0.62335205
-4.4552751 1.4026487 -0.58650041
-4.5012059 1.405025 -0.57216394
-4.5383773 1.4073915 -0.5605588
-4.5667925 1.41225 -0.55166894
-4.606101 1.4194491 -0.53936809
-4.7548075 1.443917 -0.49284989
-4.8611407 1.4485745 -0.459665
-4.8778152 1.4485283 -0.45446581
-5.0762801 1.4255426 -0.39272073
-5.1134443 1.4229107 -0.38114816
-5.1615038 1.4226182 -0.36616421
-5.1721992 1.4228511 -0.36282766
-5.2465143 1.4150631 -0.33970237
-5.2552981 1.4150908 -0.33696321
-5.3734937 1.3824379 -0.30030623
-6.9106669 1.3720901 0.17894912
-6.9937716 1.3693287 0.20484591
-6.827549 1.3673513 0.15300262
-6.7991738 1.3700218 0.144171
-6.7836394 1.3722174 0.13934046
-7.7257833 1.3743694 0.43313101
-7.7629466 1.3765767 0.44473258
-7.7894249 1.3742707 0.45297489
-7.7346029 1.3719347 0.43586621
-7.6798029 1.374598 0.41879484
-7.6093397 1.3702147 0.39679649
-7.6054773 1.3701863 0.39559183
-7.5632238 1.3706536 0.38241932
-7.5311747 1.3707721 0.37242654
-7.4921684 1.3666191 0.3602384
-7.4391994 1.3687301 0.34373465
-7.3937845 1.3727181 0.32959774
-7.3302636 1.3677824 0.30976078
-7.2714887 1.375874 0.29148284
-7.3194628 1.3755059 0.30643973
-7.6779709 1.3751514 0.41822699
-7.6036811 1.3782375 0.39508078
-7.5775766 1.3772492 0.38693491
-7.5316343 1.3798671 0.37262514
-7.4417696 1.3798494 0.34460369
-9.7530327 1.3778663 1.0652848
-9.7901955 1.3800726 1.0768865
-9.8459244 1.3796334 1.0942609
-9.8645096 1.3819861 1.1000705
-9.9035149 1.3861399 1.1122584
-9.9202614 1.3865461 1.1174827
-9.930006 1.3863335 1.12052
-9.9388361 1.3863978 1.1232737
-10.04058 1.3932297 1.1550407
-10.077766 1.4004364 1.1666801
-9.1604424 1.3820114 0.88053
-9.2250834 1.3991349 0.90079033
-9.2436943 1.4064882 0.90663826
-9.3180914 1.4258993 0.92995453
-9.392416 1.4303133 0.95315719
-9.4382915 1.4075842 0.9673239
-9.5672522 1.3743343 1.0073339
-9.6150761 1.3760531 1.0222566
-9.6787186 1.3759549 1.0421009
0 0 0 1 0 0 0 1 0 0 0 1 0 0 0 0 0 501 1 0 0
