ply
format ascii 1.0
comment PCL generated
element vertex 514
property float x
property float y
property float z
element camera 1
property float view_px
property float view_py
property float view_pz
property float x_axisx
property float x_axisy
property float x_axisz
property float y_axisx
property float y_axisy
property float y_axisz
property float z_axisx
property float z_axisy
property float z_axisz
property float focal
property float scalex
property float scaley
property float centerx
property float centery
property int viewportx
property int viewporty
property float k1
property float k2
end_header
-10.904722 1.3510121 0.57468915
-10.858027 1.3763099 0.55173373
-10.699802 1.432518 0.47379494
-10.684698 1.4325144 0.46632648
-10.511423 1.5012188 0.38101149
-10.489544 1.5137815 0.37025976
-10.4316 1.5343273 0.341717
-10.351681 1.5449355 0.30225706
-10.304731 1.5102369 0.27885962
-10.085692 1.3799376 0.16986954
-10.033014 1.380574 0.14382565
-9.9950171 1.3778636 0.12502372
-9.9394121 1.3811698 0.097547174
-9.7802076 1.4400597 0.019137979
-9.6635704 1.4159794 -0.038660645
-9.5835562 1.4040892 -0.078286529
-9.4235172 1.377811 -0.15755653
-9.3630857 1.3805956 -0.18742239
-9.2637033 1.4040294 -0.23643887
-9.1018486 1.3945601 -0.31651843
-9.0491829 1.3976965 -0.34254277
-9.0296745 1.4005215 -0.35217381
-9.0092125 1.4005018 -0.36229157
-8.9509411 1.4062626 -0.39107347
-8.9259548 1.4064534 -0.40342724
-8.9177828 1.4065735 -0.40746737
-8.742054 1.4480131 -0.49413872
-8.6183949 1.4692459 -0.55517101
-8.4993916 1.4901619 -0.61390209
-8.2972231 1.3813455 -0.71443772
-8.2835817 1.3813322 -0.72118306
-8.2581882 1.3819957 -0.73373568
-8.1627188 1.3869019 -0.78091484
-8.1100397 1.387538 -0.80695879
-8.07687 1.3853505 -0.82337129
-8.0300694 1.3856487 -0.84651047
-8.0183048 1.3838248 -0.85233676
-8.0436897 1.3806618 -0.83980191
-8.0846138 1.3807025 -0.81956655
-8.1450567 1.3804181 -0.78968191
-8.178216 1.380106 -0.77328789
-8.2504025 1.376644 -0.73761344
-8.3848753 1.3635879 -0.67119145
-8.4112253 1.3657695 -0.65815091
-8.5107136 1.3673331 -0.60895038
-8.5488167 1.3688389 -0.59010255
-8.5778971 1.3692117 -0.5757215
-8.6365099 1.3610811 -0.54678297
-8.7232924 1.3604774 -0.50387621
-8.8441029 1.3424079 -0.44423604
-8.9240866 1.3467982 -0.40466511
-9.0041647 1.3736866 -0.36492872
-9.0704937 1.375563 -0.33212209
-9.0900221 1.3777375 -0.32245469
-9.2080421 1.368633 -0.26414704
-9.2616644 1.3683407 -0.2376349
-9.3552895 1.3727444 -0.19131887
-9.4429932 1.3674862 -0.14798117
-9.4897823 1.3646879 -0.12486053
-9.5424938 1.3715507 -0.098761439
-9.5815287 1.3709013 -0.079463601
-9.6224632 1.3734417 -0.059210062
-9.6419821 1.3731157 -0.049560547
-9.6946392 1.3674791 -0.023553967
-9.8409185 1.3662453 0.048767924
-9.93748 1.3704801 0.096535683
-9.9540615 1.3703234 0.10473311
-10.003799 1.3698574 0.12932432
-10.03887 1.3752356 0.14669335
-10.097435 1.37676 0.17565882
-10.146103 1.3721519 0.19969881
-10.17153 1.378989 0.21230662
-10.271019 1.3805537 0.26150799
-10.337327 1.3774302 0.29427791
-10.444592 1.3818463 0.34733868
-10.530355 1.363399 0.38964748
-10.596653 1.3577758 0.42239904
-10.832384 1.1508427 0.53786778
-10.917253 0.91070122 0.57856727
-10.910458 0.83067656 0.57478642
-10.911496 0.7908088 0.57508969
-10.911457 0.75070286 0.57485914
-10.90873 0.71070158 0.57330012
-10.902354 0.67061055 0.56993699
-10.902014 0.59061372 0.56934714
-10.893043 0.51041669 0.56448936
-10.896152 0.47052804 0.56581664
-10.903234 0.39060402 0.56889844
-10.899616 0.31049567 0.56668735
-10.905832 0.23072058 0.56934142
-10.90308 0.15046364 0.56755781
-10.897558 0.11037394 0.5646162
-10.900156 -0.04950881 0.56505942
-10.897743 -0.12948573 0.56344509
-10.895501 -0.16946495 0.5621264
-10.895161 -0.24946135 0.56153679
-10.894905 -0.30946046 0.56109476
-10.892577 -0.36943597 0.55962801
-10.887056 -0.40952653 0.55668688
-10.888872 -0.46954501 0.5572691
-10.889633 -0.54960436 0.5572238
-10.888362 -0.58954066 0.55638528
-10.888191 -0.62953824 0.55609059
-10.84778 -0.82845014 0.5350616
-10.820498 -0.90819424 0.52115178
-10.812586 -1.0664687 0.51640725
-10.818623 -1.1090255 0.51916838
-10.846497 -1.3335781 0.53176808
-10.87137 -1.4567373 0.54341888
-10.879147 -1.4538848 0.54727888
-10.898416 -1.388783 0.55714941
-10.987253 -1.2519767 0.6017952
-11.014027 -1.1497993 0.6155715
-11.020931 -1.1297934 0.61909127
-11.007631 -1.0498102 0.61293578
-10.902437 -0.7888934 0.56229544
-10.901139 -0.74881035 0.56186461
-10.906528 -0.62889689 0.56516075
-10.905964 -0.58885533 0.56509233
-10.908547 -0.46887994 0.56700134
-10.910875 -0.40890086 0.56846786
-10.915564 -0.30890185 0.57131267
-10.944204 -0.2097804 0.58599544
-10.97373 -0.090058327 0.6012249
-10.97526 0.2699272 0.60387659
-10.994949 0.30959964 0.61382031
-10.986895 0.50975555 0.61089134
-10.973593 0.58973801 0.60473514
-10.953811 0.71055174 0.59558988
-10.977644 0.8299033 0.60800266
-10.91691 1.030695 0.5790298
-10.927876 1.1509373 0.58508396
-10.922287 1.2710341 0.58295321
-10.920266 1.3110077 0.58216429
-10.918237 1.3210275 0.58121371
-0.99189425 1.1867435 -4.3276067
-1.0248775 1.3465228 -4.3104568
-1.0667672 1.386337 -4.2895346
-1.0927453 1.3962209 -4.276638
-1.159162 1.401082 -4.2437725
-1.6646433 1.3498328 -3.9941051
-1.758111 1.3845133 -3.9477069
-1.7923908 1.3843793 -3.930758
-1.8073778 1.3843356 -3.9233477
-1.8515759 1.3841929 -3.9014947
-1.8847818 1.3791227 -3.8851027
-1.8983054 1.376534 -3.8784294
-2.0040908 1.3739338 -3.8261373
-2.044663 1.3786637 -3.8060513
-2.0778704 1.3760945 -3.7896452
-2.1898186 1.3786041 -3.7342789
-2.2512748 1.3780437 -3.7038946
-2.2968068 1.3756945 -3.6813936
-2.3570607 1.3754447 -3.6516023
-2.5411079 1.4626241 -3.5601406
-2.5588579 1.4625068 -3.5513644
-2.6694725 1.4847231 -3.4965539
-2.7370861 1.4517746 -3.4632955
-2.9319389 1.3794451 -3.3673306
-2.965111 1.3818418 -3.3509159
-3.0477035 1.3778521 -3.3100989
-3.2195721 1.3547685 -3.2252393
-3.2527628 1.3621407 -3.2087893
-3.3112183 1.3404461 -3.1799998
-3.3649535 1.3178914 -3.1535492
-3.2788544 1.3380109 -3.1960151
-3.1853914 1.3383305 -3.2422266
-3.1471965 1.3399708 -3.2611036
-3.0992897 1.3409508 -3.2847862
-2.9560113 1.3688751 -3.3554835
-2.9394128 1.3689098 -3.3636904
-2.9301653 1.3687453 -3.368264
-2.9073749 1.3685007 -3.379534
-2.9013774 1.368449 -3.3824997
-2.8594732 1.3691404 -3.4032159
-2.824739 1.3699973 -3.4203858
-2.8188009 1.3698699 -3.4233227
-2.7899699 1.3692257 -3.4375815
-2.7720175 1.3725889 -3.4464405
-2.6146219 1.3820338 -3.5242155
-2.4898915 1.3401654 -3.5861092
-2.3508999 1.3728352 -3.6546621
-2.3041687 1.3729951 -3.6777678
-2.243912 1.3682439 -3.7075868
-1.9541717 1.0241667 -3.8526609
-1.9583135 0.94415987 -3.8510342
-1.9562283 0.86416465 -3.8524864
-1.9562192 0.78416586 -3.8529119
-1.9479022 0.6641857 -3.8576558
-1.9499631 0.54418427 -3.8572686
-1.9344244 0.50415623 -3.8651624
-1.9105082 0.37676895 -3.8776584
-1.9383826 0.22408628 -3.8646796
-1.9831228 0.14411974 -3.8429782
-1.9819632 0.10409984 -3.8437624
-1.9851904 0.064116448 -3.8423772
-1.9819489 -0.015898108 -3.8444011
-1.9851742 -0.0558815 -3.8430166
-1.9633999 -0.17589396 -3.8544149
-1.9613872 -0.27591497 -3.8559365
-1.9768324 -0.38836497 -3.8488915
-1.9830532 -0.43587774 -3.8460655
-1.9809737 -0.47587258 -3.8473043
-2.2436476 -0.82672745 -3.7192712
-2.2820759 -0.83686858 -3.7003236
-2.4366963 -1.1572516 -3.6255574
-2.210439 -0.82915658 -3.7357039
-1.8117738 -1.1155663 -3.9343331
-1.8267527 -1.1956081 -3.9273479
-2.0203619 -1.3960633 -3.8326724
-1.9969969 -1.3959827 -3.8442249
-1.7971478 -1.3804085 -3.9429591
-1.6059923 -1.3947411 -4.0375519
-1.4970751 -1.3544698 -4.0911942
-1.0321074 -1.2333701 -4.3204618
-0.99389315 -1.2333894 -4.3393574
-0.992208 -1.1933792 -4.3399801
-1.0400496 -1.0333974 -4.3154821
-1.0051689 -0.87331957 -4.3318863
-1.0051837 -0.75332099 -4.3312473
-1.0400643 -0.91339928 -4.3148432
-1.5616102 -0.91475493 -4.0569706
-1.5428939 -0.5947023 -4.0645399
-1.5512094 -0.47472084 -4.0597963
-1.5174809 -0.35462189 -4.0758419
-0.99763536 -0.27327871 -4.3324528
-0.99678516 -0.31327254 -4.3330841
-0.99847078 -0.35328281 -4.3324609
-0.9984684 -0.37327576 -4.3325672
-1.0001464 -0.47329134 -4.3322639
-8.023818 -1.686718 -0.86577326
-8.0371962 -1.6864901 -0.8591572
-8.0472183 -1.6868672 -0.85420352
-8.1076622 -1.6871526 -0.82431883
-7.9475698 -1.7259312 -0.9036808
-7.9318542 -1.7259252 -0.91145146
-7.8739963 -1.6853812 -0.93984622
-7.851316 -1.6576669 -0.95091462
-6.6870489 -0.77590865 -1.5219491
-6.7338243 -0.76860338 -1.4987824
-6.8334489 -0.72155768 -1.449275
-6.8402276 -0.72907883 -1.4459629
-6.8769374 -0.76925558 -1.428023
-7.1601181 -0.93048793 -1.288852
-7.1829324 -0.93059283 -1.277572
-7.0487647 -1.4099164 -1.3464347
-6.8259273 -1.2489214 -1.45577
-6.6276155 -1.208075 -1.5536109
-6.4803886 -1.2474217 -1.6266147
-6.3358207 -1.2067802 -1.6978831
-6.100893 -1.325757 -1.8146701
-5.9113703 -1.2049267 -1.9077442
-5.7481322 -1.1642258 -1.9882436
-5.6783662 -1.1639128 -2.022738
-5.5747724 -1.1410389 -2.0738399
-5.5008478 -1.1432576 -2.1104038
-5.449584 -1.1379104 -2.1357234
-5.4209046 -1.1379118 -2.1499038
-5.3756618 -1.1376307 -2.1722729
-5.3349257 -1.137501 -2.1924143
-5.2851372 -1.1397727 -2.2170444
-5.2519474 -1.1421208 -2.2334676
-5.2247863 -1.1445351 -2.2469101
-5.1378431 -1.1616015 -2.2899892
-5.1537466 -1.1216178 -2.2819152
-5.159976 -1.1166456 -2.2788091
-5.2761297 -1.1196766 -2.2213922
-5.2927189 -1.1172516 -2.213177
-5.3258905 -1.1274018 -2.1968284
-5.4013019 -1.1353045 -2.1595829
-5.506546 -1.1231887 -2.1074805
-5.5823507 -1.1210158 -2.0699873
-5.6743546 -1.1239927 -2.0245113
-5.6879349 -1.1240363 -2.017797
-5.761869 -1.1143155 -1.9811887
-5.8417807 -1.1421609 -1.9418226
-5.8689313 -1.1472476 -1.9284247
-5.9063354 -1.164911 -1.910023
-6.1947641 -1.1461966 -1.76731
-6.2143779 -1.1413038 -1.7575862
-6.2943468 -1.1291497 -1.7179815
-6.3471489 -1.1219106 -1.6918349
-6.5601287 -0.92036575 -1.5854657
-6.6069503 -0.8805601 -1.5621048
-6.6579652 -0.80827445 -1.5365001
-8.9528313 -1.1339657 -0.40350997
-8.9640722 -1.0140891 -0.39732087
-8.9590092 -1.0015931 -0.39975846
-8.9522438 -0.98910183 -0.40303814
-8.9258623 -0.99878234 -0.41613364
-8.7727709 -0.99505669 -0.49181056
-8.6928205 -0.99194616 -0.53132582
-8.5997295 -0.9713493 -0.57724667
-8.5797329 -0.98352391 -0.58719778
-8.5609627 -1.0108485 -0.59662271
-8.5539589 -1.0507026 -0.60029566
-8.6791868 -1.2116051 -0.53922307
-8.7278643 -1.1719024 -0.51494563
-1.5626121 0.3852253 -4.0496321
-1.5024633 0.025442421 -4.0812664
-1.5574784 -0.12973356 -4.0548811
-1.5553923 -0.2147274 -4.0563602
-3.0224249 -1.1248317 -3.3357713
-3.1023777 -1.1226778 -3.296227
-3.2351 -1.1382816 -3.2306843
-3.3618326 -1.126322 -3.1679578
-3.4417856 -1.1241684 -3.1284137
-3.4885511 -1.124362 -3.1052914
-3.5413399 -1.1271229 -3.0792041
-3.5745285 -1.1247737 -3.0627816
-3.6544828 -1.1226194 -3.0232365
-3.6680441 -1.1351621 -3.0165973
-3.6722586 -1.1551757 -3.0146186
-3.640826 -1.1775751 -3.0302784
-3.5443153 -1.1546552 -3.077878
-3.3814259 -1.1364312 -3.1583233
-3.348242 -1.13378 -3.1747169
-3.2682786 -1.1434333 -3.2143059
-3.1883175 -1.1505878 -3.2538807
-3.1185479 -1.1527734 -3.2883902
-3.0419996 -1.147439 -3.3262115
-2.9298611 -1.1537189 -3.3816919
-2.8891745 -1.1586158 -3.4018352
-2.8600636 -1.1585572 -3.4162288
-2.8286788 -1.1586215 -3.4317474
-2.8992882 -1.1361594 -3.3967161
-2.9460158 -1.1312263 -3.3735857
-4.4188747 1.3596168 -2.6322145
-4.4460592 1.3594377 -2.6187739
-4.5711737 1.3515704 -2.556952
-4.6110988 1.3488088 -2.5372257
-4.6315403 1.3512658 -2.5271053
-4.6979227 1.368511 -2.4941916
-4.7658815 1.3680642 -2.4605913
-4.8186455 1.3628988 -2.4345293
-4.8790059 1.3600935 -2.4046986
-4.9377704 1.3599799 -2.375643
-4.9709511 1.3598536 -2.3592372
-4.9845424 1.3597643 -2.3525176
-5.0237226 1.3621886 -2.333132
-5.1172609 1.3567562 -2.2869101
-5.167026 1.3490638 -2.2623444
-5.1971946 1.3414128 -2.2474675
-5.2605577 1.3386321 -2.2161522
-5.3405271 1.3507875 -2.1765468
-5.4400806 1.3604062 -2.1272719
-5.4536791 1.3653176 -2.120522
-5.6239791 1.3845899 -2.0362153
-5.6995473 1.3743382 -1.9989042
-5.8610764 1.3934585 -1.9189349
-5.927444 1.3982041 -1.8860942
-5.9802198 1.4030397 -1.8599737
-5.9726229 1.4031811 -1.8637292
-5.9394464 1.4058073 -1.8801198
-5.8594909 1.4036508 -1.9196653
-5.8415017 1.4034967 -1.928561
-5.794733 1.4062133 -1.9516715
-5.7283659 1.4014674 -1.9845121
-5.6815906 1.3991827 -2.0076523
-5.6076374 1.4020779 -2.0442033
-5.5276709 1.3924226 -2.0837939
-5.4944839 1.3875489 -2.1002288
-5.470521 1.3851787 -2.1120901
-5.3677468 1.3781085 -2.1629441
-5.3315601 1.3757112 -2.1808496
-5.2622061 1.3759394 -2.2151406
-5.221426 1.3737061 -2.235316
-5.1912403 1.3738611 -2.2502408
-5.1716514 1.3738983 -2.2599266
-5.0916986 1.3742427 -2.2994576
-5.0721073 1.3717794 -2.3091574
-5.0253353 1.3719956 -2.332283
-4.998148 1.369674 -2.3457379
-4.9725637 1.3696616 -2.3583884
-4.958972 1.3697501 -2.3651085
-4.9453797 1.3698401 -2.3718286
-4.8442659 1.3904128 -2.4217165
-4.8110886 1.3930399 -2.438107
-4.7175345 1.3859723 -2.4844027
-4.6195793 1.3761618 -2.5328884
-4.5863924 1.3712883 -2.5493236
-4.5184288 1.3692356 -2.5829389
-4.4988437 1.3717735 -2.5926096
-4.3992901 1.3621545 -2.6418848
-4.3645163 1.3674736 -2.6590509
-4.35852 1.3674219 -2.6620159
-4.2981596 1.3702285 -2.6918468
-4.2649817 1.3728552 -2.7082376
-4.2062144 1.3704687 -2.737308
-4.1654415 1.3732367 -2.7574537
-4.0267067 1.3611925 -2.8261151
-3.9135618 1.3516638 -2.8821101
-3.8667893 1.3518801 -2.9052358
-3.8064315 1.3571849 -2.9350519
-3.7596557 1.3549023 -2.9581923
-3.7460604 1.3524916 -2.9649272
-3.7068708 1.3425674 -2.9843569
-3.7536461 1.3448505 -2.9612169
-3.8124113 1.3447368 -2.9321609
-3.8983502 1.3369453 -2.889709
-3.9587121 1.3341393 -2.8598776
-4.0054803 1.3314234 -2.8367672
-4.0658484 1.3336177 -2.8069065
-4.0914435 1.341132 -2.7942114
-4.1866093 1.3580058 -2.7470675
-4.2529802 1.3652518 -2.7142119
-4.2997522 1.3650361 -2.6910865
-4.3449254 1.365011 -2.6687508
-4.4112792 1.3597569 -2.6359694
-7.1931009 1.3977988 -1.2602882
-7.226285 1.4001715 -1.2438679
-7.2926412 1.3974175 -1.2110722
-7.3318248 1.4023426 -1.1916717
-7.4041729 1.394639 -1.1559397
-7.5171447 1.3896197 -1.1001067
-7.530787 1.3896334 -1.0933611
-7.5912614 1.3937738 -1.0634375
-7.5972576 1.393826 -1.0604722
-7.638031 1.3910584 -1.0403265
-7.6516237 1.390968 -1.0336061
-7.6924019 1.3932005 -1.0134314
-7.776556 1.3899647 -0.97183812
-7.7043381 1.3859273 -1.0075676
-7.65165 1.3840632 -1.0336293
-7.5989733 1.3847009 -1.0596721
-7.5580368 1.3821604 -1.0799266
-7.4992995 1.381515 -1.108973
-7.4253497 1.3869095 -1.1455094
-7.4057622 1.3869476 -1.1551942
-7.3258152 1.3922905 -1.1946962
-7.2518458 1.3826861 -1.2313211
-7.1803312 1.3778822 -1.2667069
-6.9824219 0.85891652 -1.3672956
-6.9839115 0.69890738 -1.3674015
-6.9838076 0.61890966 -1.3678739
-6.9961462 0.53886288 -1.3621944
-6.9860439 0.37889713 -1.3680314
-6.9748435 0.25897169 -1.3742008
-6.9772739 0.37893736 -1.3723676
-6.909698 0.53921592 -1.404937
-6.8987064 0.57928777 -1.410161
-6.8758764 0.69934547 -1.4208175
-6.8707952 0.7118789 -1.4232639
-6.9042063 0.8892473 -1.4058099
-6.6725798 1.3776278 -1.5177679
-6.6469913 1.3751138 -1.5304333
-6.6198111 1.3777925 -1.5438586
-6.5845613 1.3804282 -1.5612741
-6.5662956 1.3806443 -1.5703045
-6.540761 1.3807213 -1.5829296
-6.5396371 1.3807108 -1.5834856
-6.4778738 1.3807983 -1.6140242
-6.4471164 1.3809727 -1.6292312
-6.3859525 1.3813739 -1.659472
-6.3753595 1.3814895 -1.6647091
-6.3399792 1.3814952 -1.6822028
-6.3135924 1.3790765 -1.6952626
-6.2608204 1.3767421 -1.7213682
-6.1928177 1.3820971 -1.7549642
-6.1341124 1.3898007 -1.7839507
-6.0541625 1.3926451 -1.8234673
-6.040575 1.3952343 -1.8301721
-6.0133963 1.4004128 -1.8435833
-6.052577 1.4028375 -1.8241975
-6.1205292 1.3973913 -1.7906269
-6.1808848 1.3895848 -1.7608252
-6.2064691 1.3895996 -1.7481747
-6.2456493 1.3920232 -1.7287891
-6.27284 1.3968453 -1.7153192
-6.2788358 1.3968967 -1.7123543
-6.4442959 1.4210756 -1.6304148
-6.4463692 1.4210682 -1.6293898
-6.4642086 1.4209512 -1.6205697
-6.4880691 1.4208331 -1.6087724
-6.4993625 1.4208283 -1.6031883
-6.5152283 1.420707 -1.5953438
-6.6002326 1.3853302 -1.5534996
-6.6350303 1.3803464 -1.53632
-6.6921754 1.3825896 -1.5080526
-6.725358 1.3849628 -1.4916329
-6.7822676 1.3795891 -1.463522
-6.8018064 1.3794603 -1.4538615
-6.8230948 1.3794115 -1.4433358
-6.8347864 1.3793578 -1.4375551
-6.8435826 1.3794582 -1.4332051
-6.8656678 1.3793137 -1.4222858
-6.8767629 1.3793327 -1.4167998
-6.9320359 1.3840604 -1.3894451
-6.9924026 1.3862543 -1.3595848
-7.0315804 1.3861785 -1.3402138
-7.0663619 1.3883588 -1.3230044
-7.1251283 1.3882451 -1.2939477
-1.2305765 0.78591835 -4.2116995
-0.99603796 0.5067274 -4.3291368
-1.1489558 0.86615694 -4.2516346
-1.1455841 0.9486779 -4.2528667
-1.6832652 0.86480141 -3.9874504
-1.6969733 1.0647743 -3.9796197
-1.6646376 1.3048337 -3.9943447
-2.5031087 -1.1948903 -3.5929177
-2.5219176 -1.1976755 -3.5836325
-2.50927 -1.1897807 -3.5898442
-2.4699032 -1.1723201 -3.6092176
-0.9989624 -0.71330804 -4.3341131
-1.0018225 -0.59330052 -4.332067
-1.0009875 -0.51329607 -4.3320589
-0.99482584 -0.59330159 -4.3355265
-2.4428566 -1.1671402 -3.6225636
-7.9305801 1.3840834 -0.89571136
-7.883821 1.3943818 -0.91877735
-7.8311338 1.3925182 -0.94483858
-7.8174906 1.3925045 -0.95158434
-7.7979736 1.3928299 -0.96123296
-7.8388562 1.3828704 -0.94107097
0 0 0 1 0 0 0 1 0 0 0 1 0 0 0 0 0 514 1 0 0
