ply
format ascii 1.0
comment PCL generated
element vertex 460
property float x
property float y
property float z
element camera 1
property float view_px
property float view_py
property float view_pz
property float x_axisx
property float x_axisy
property float x_axisz
property float y_axisx
property float y_axisy
property float y_axisz
property float z_axisx
property float z_axisy
property float z_axisz
property float focal
property float scalex
property float scaley
property float centerx
property float centery
property int viewportx
property int viewporty
property float k1
property float k2
end_header
-10.734999 1.375463 0.87097007
-10.784791 1.3491745 0.88720649
-10.789567 1.3344139 0.88864523
-10.793842 1.3090956 0.88981587
-10.802887 1.2696991 0.89242965
-10.808056 1.2323132 0.89377886
-10.808046 1.2298136 0.89375156
-10.810202 1.1897955 0.8940776
-10.812127 1.149501 0.8943246
-10.805119 1.069778 0.89123052
-10.795321 0.9496634 0.88682133
-10.796727 0.82909715 0.88611835
-10.792306 0.74970114 0.88388449
-10.791933 0.7094264 0.88337034
-10.794321 0.66968793 0.88377601
-10.814064 0.46924135 0.88837212
-10.812226 0.34894994 0.88659734
-10.794443 0.18915355 0.87915832
-10.796311 0.069143653 0.87861401
-10.787292 -0.010209739 0.87485772
-10.78919 -0.090362251 0.87470955
-10.7887 -0.13077569 0.87415546
-10.784422 -0.17017537 0.87235659
-10.784138 -0.25016767 0.87148684
-10.788056 -0.31076187 0.87219733
-10.785633 -0.41045207 0.8704285
-10.785328 -0.43073082 0.87013096
-10.782834 -0.55042088 0.86814469
-10.781958 -0.63042712 0.86707896
-10.879555 -0.83055818 0.89746302
-10.891539 -1.0113746 0.89967924
-10.891253 -1.0913666 0.89880902
-10.891102 -1.1338631 0.8983472
-10.878271 -1.190526 0.89354819
-10.872887 -1.2131337 0.89154583
-10.831541 -1.4292693 0.87575728
-10.754028 -1.4703892 0.84968668
-10.670271 -1.428237 0.82235473
-10.688378 -1.1200981 0.83133882
-10.657667 -1.0696498 0.82165617
-10.627235 -0.98899424 0.81235904
-10.625811 -0.93814373 0.81238014
-10.612179 -0.82830751 0.80892986
-10.616858 -0.8058517 0.81069714
-10.769825 -0.58918107 0.86346012
-10.776688 -0.46980923 0.86689013
-10.768401 -0.40889597 0.86473626
-10.768471 -0.38890022 0.86495334
-10.683735 -0.16870767 0.83902329
-10.683877 -0.12871164 0.83945781
-10.680501 -0.048246801 0.83911973
-10.694592 0.23145187 0.84649795
-10.685718 0.25681031 0.84380454
-10.692577 0.31146574 0.84660643
-10.695019 0.35144162 0.84780246
-10.688175 0.43121755 0.84630936
-10.709108 0.63114142 0.8551802
-10.714491 0.65374839 0.8571822
-10.779727 0.83093178 0.88050574
-10.786303 0.87030888 0.88306516
-10.789118 0.95056057 0.8847757
-10.798387 1.0707319 0.88901013
-10.504887 1.3797548 0.79479867
-10.477521 1.3777817 0.78571612
-10.439812 1.3769997 0.77321917
-10.413374 1.3761404 0.7644549
-10.3936 1.3771359 0.75791568
-10.320038 1.3777993 0.73355788
-10.219126 1.3814881 0.70017177
-10.154052 1.3787336 0.6785925
-10.136123 1.3794544 0.67266148
-10.016331 1.3752534 0.6329456
-9.9974756 1.3748629 0.62669712
-9.9337921 1.3737773 0.60559481
-9.8880463 1.37447 0.59045047
-9.8597736 1.376384 0.58110505
-9.831955 1.376353 0.57189113
-9.7498894 1.3779329 0.54472643
-9.840929 1.378493 0.574884
-9.8692093 1.3790791 0.58425635
-9.9055386 1.3806901 0.596304
-9.9432468 1.3814722 0.60880071
-9.9894485 1.3788359 0.62407702
-10.072031 1.392812 0.6515637
-10.107878 1.3888683 0.66339821
-10.190879 1.3909004 0.69090778
-10.201226 1.3897091 0.694323
-10.227652 1.3880703 0.70305926
-10.468202 1.4722996 0.78354567
-10.493432 1.472003 0.79189914
-10.55303 1.4712555 0.81163067
-10.561106 1.4712186 0.81430501
-8.7655563 -0.65338969 0.19902527
-8.7195692 -0.65547562 0.18377429
-8.7306871 -0.69585311 0.1870653
-8.7808352 -0.81629908 0.2025066
-8.787447 -0.89635408 0.2039203
-8.7899218 -0.97581124 0.20396996
-8.7941465 -1.0161265 0.20497829
-8.8001671 -1.0961936 0.20619637
-8.798315 -1.1361581 0.20519525
-8.8062277 -1.1748247 0.20744115
-8.8095055 -1.285969 0.20744962
-9.1037655 -1.2886198 0.30488247
-9.1511002 -1.297364 0.3204748
-9.1551437 -1.2582433 0.32219344
-9.1575871 -1.2182671 0.32338995
-9.1532745 -1.1382331 0.32273769
-9.1565485 -1.0986513 0.32420558
-9.1650543 -1.0583439 0.32741344
-9.162899 -1.0183262 0.32708776
-9.1584454 -0.97828925 0.32600045
-9.1607609 -0.90859437 0.32744294
-9.1656532 -0.85850108 0.32954913
-9.2288761 -0.69837844 0.35204041
-9.2266293 -0.68335891 0.35144192
-9.2126932 -0.65851557 0.34706718
-9.2088013 -0.6551398 0.34581077
-9.1890278 -0.65414321 0.33927155
-9.1710997 -0.65342104 0.33334076
-9.1163979 -0.64986849 0.31525797
-9.0154867 -0.64617991 0.28187203
-8.9495049 -0.64504683 0.26002985
-8.9136658 -0.63860309 0.24822259
-8.8117733 -0.65102613 0.21435559
-4.941823 1.478493 -1.0467271
-4.9786196 1.4783461 -1.0345414
-5.0060458 1.4706078 -1.0255328
-5.0529089 1.4535718 -1.010177
-5.0897064 1.4409266 -0.9981122
-5.2087774 1.4150637 -0.95892668
-5.274044 1.4179529 -0.93728256
-5.3195205 1.4173821 -0.92222625
-5.3872252 1.4159937 -0.89981604
-5.4024868 1.4171818 -0.89474976
-5.4608173 1.4256287 -0.87534893
-5.512877 1.4117433 -0.85824132
-5.5403023 1.4040049 -0.84923315
-5.7068191 1.4161103 -0.79396552
-5.9438066 1.4156785 -0.71547961
-5.9759426 1.4230883 -0.70476443
-6.0287237 1.4377104 -0.6871416
-6.125452 1.4473736 -0.65501148
-6.2956791 1.386781 -0.59921986
-6.323103 1.3865424 -0.59013939
-6.363369 1.3849022 -0.57681924
-6.3994322 1.3864089 -0.56486052
-6.4636383 1.3808883 -0.5436489
-6.4181938 1.3817236 -0.5586921
-6.3438702 1.3712757 -0.58340931
-6.3043575 1.3738577 -0.59647071
-6.2428665 1.3694781 -0.61687905
-6.2334847 1.3693197 -0.61998773
-6.1966929 1.377002 -0.63209873
-6.1231098 1.3923638 -0.65632051
-6.0587234 1.4076805 -0.67749679
-5.9270172 1.3927264 -0.72126281
-5.8797836 1.3757824 -0.73707068
-5.8568907 1.3742898 -0.74466723
-5.8173208 1.3711851 -0.75780296
-5.801331 1.3691564 -0.76311845
-5.761086 1.3706276 -0.77643329
-5.7062359 1.3711061 -0.79459488
-5.6600666 1.3736608 -0.80986142
-5.6314716 1.3763878 -0.81930566
-5.5711823 1.3725882 -0.83931023
-5.5401301 1.3763775 -0.84955788
-5.5018582 1.3771462 -0.86222619
-5.4017944 1.4066651 -0.89508116
-5.3649964 1.4093117 -0.90724289
-5.3504291 1.4111741 -0.91204953
-5.3101482 1.4147898 -0.92535555
-5.2275243 1.4077493 -0.95278871
-5.1170869 1.3779341 -0.98965454
-5.0890188 1.3779123 -0.99895096
-5.0645227 1.3781803 -1.0070614
-5.0152502 1.3780768 -1.0233815
-4.9598823 1.3781656 -1.0417184
-4.7758975 1.3938968 -1.1025014
-4.720356 1.3863583 -1.12097
-4.6099644 1.3942976 -1.1574545
-4.5832329 1.3950529 -1.1663005
-4.5363717 1.3920909 -1.1818497
-4.4440327 1.3896971 -1.2124555
-4.3704381 1.3899896 -1.2368271
-4.3062181 1.3903751 -1.2580931
-4.2506762 1.390337 -1.2764888
-4.2239447 1.3910933 -1.2853349
-4.195827 1.3908155 -1.2946503
-4.150351 1.3913851 -1.3097064
-4.0948095 1.3888475 -1.3281264
-4.0392666 1.4013071 -1.3464015
-4.0673847 1.3990846 -1.33711
-4.1597242 1.3964781 -1.3065525
-4.2333174 1.3961854 -1.2821815
-4.2787943 1.3956152 -1.2671251
-4.3069105 1.3958924 -1.2578104
-4.3805041 1.3981001 -1.2334146
-4.425981 1.3975291 -1.2183583
-4.500268 1.4027524 -1.193704
-4.5919118 1.4021289 -1.1633576
-4.6380811 1.4045756 -1.1480427
-4.7023029 1.4041898 -1.1267761
-4.7859616 1.4195051 -1.09892
-4.8227577 1.4318585 -1.0866134
-4.8887568 1.4585748 -1.0644956
-0.44316816 -0.52791059 -2.5561275
-0.43525887 -0.4863646 -2.5583444
-0.41914749 -0.48633575 -2.5636799
-0.36671448 -0.48337936 -2.5810173
-0.40290642 -0.50164318 -2.5692074
-0.35342693 1.3811944 -2.5673437
-0.32566261 1.3734064 -2.5766149
-0.36518621 1.3768961 -2.5634906
-0.37458563 1.3769637 -2.5603771
-0.383986 1.3770298 -2.5572631
-0.41137552 1.3768404 -2.5481935
-0.4395752 1.3745413 -2.5388761
-0.4822135 1.3782361 -2.5247185
-0.51925659 1.3761202 -2.5124702
-0.57733297 1.381484 -2.4931834
-0.60472107 1.3862925 -2.484066
-0.6517148 1.3916285 -2.4684498
-0.77147436 1.4138262 -2.4285705
-1.0102205 1.377835 -2.3498468
-1.0384197 1.3780354 -2.3405054
-1.0752087 1.3779137 -2.3283219
-1.0376101 1.3801444 -2.3407531
-0.93684959 -0.9675194 -2.3968818
-1.0909443 -1.2480586 -2.3485653
-1.1311741 -1.2481372 -2.335242
-1.1242189 -1.2306333 -2.3373759
-1.1566825 -0.80770254 -2.3225241
-1.1696434 -0.76753068 -2.3178422
-1.0222855 -0.76793861 -2.3666511
-0.86514378 -0.76795828 -2.4186964
-0.82833624 -0.77043045 -2.4309111
-0.74539089 -0.76549888 -2.4583347
-0.62558508 -0.74553812 -2.4978206
-0.67367935 -0.76846969 -2.4821141
-7.640101 1.3796697 -0.15401709
-7.6957383 1.3797302 -0.13558951
-7.7608032 1.3799839 -0.1140376
-7.8070045 1.3773494 -0.098761261
-7.8428597 1.3759047 -0.086900026
-7.8975797 1.3773515 -0.068762869
-7.9173517 1.3763548 -0.06222403
-7.84377 1.3720171 -0.086636215
-7.7777867 1.3731496 -0.10847887
-7.7692862 1.374068 -0.11128533
-7.7042217 1.3738129 -0.13283715
-7.6212378 1.3767793 -0.16029269
-7.5570908 1.3751376 -0.18155402
-7.4835253 1.3758006 -0.20591241
-7.4405251 1.3831072 -0.22008327
-7.421762 1.3852921 -0.2262764
-7.4859715 1.3872712 -0.20499107
-7.5602908 1.3852203 -0.18039638
-7.6064653 1.3826953 -0.16512784
-0.3933835 1.3795969 -2.5541255
-0.4268651 1.3806109 -2.5430267
-0.46389818 1.3834945 -2.5307336
-0.67594242 1.5110497 -2.4592683
-0.74244595 1.4607308 -2.4377298
-2.7375166 -1.2806282 -1.8035374
-2.5653853 -1.1679264 -1.8594546
-2.6499259 -0.96800125 -1.8295169
-2.6520271 -0.9005059 -1.8281667
-2.6517231 -0.79801071 -1.8272738
-2.61427 -0.58299291 -1.837594
-2.5333829 -0.48803437 -1.8634634
-2.4290605 -0.37352383 -1.8969047
-2.4657941 -0.25365204 -1.8835766
-2.4432125 -0.093627989 -1.8895044
-2.4473176 -0.076100647 -1.887975
-2.4566603 0.046461225 -1.8836925
-2.4382186 0.14651811 -1.8888307
-2.4524822 0.18642503 -1.8837197
-2.4612756 0.2264865 -1.880419
-2.4749341 0.30638713 -1.8751209
-2.4723959 0.3862935 -1.8751869
-2.474822 0.54637539 -1.8728316
-2.525877 0.58616036 -1.8555365
-2.6488655 0.66588926 -1.8140299
-2.7759163 0.74562418 -1.771178
-2.7847276 0.74568748 -1.768259
-2.8056073 0.74578136 -1.7613428
-2.8089471 0.74564445 -1.7602379
-2.7356195 0.7057243 -1.7849109
-2.5965381 0.54589528 -1.8325238
-2.5984304 0.26592177 -1.8346112
-2.6405437 0.18584108 -1.8214395
-2.6405632 0.14584321 -1.8218207
-2.6360564 -0.05413264 -1.8252518
-2.5478013 -0.29402834 -1.8568072
-2.6487389 -0.56801951 -1.8260329
-2.6530213 -0.64799547 -1.8253896
-2.6552396 -0.80796385 -1.8262057
-2.6634936 -0.88801515 -1.8242478
-2.6528077 -0.96799457 -1.8285623
-6.523324 -1.2902881 -0.54977405
-6.5327473 -1.3298144 -0.54703629
-6.51335 -1.3737508 -0.55388647
-6.3569708 -1.3305677 -0.60526061
-6.1524711 -1.2490268 -0.67220044
-6.1455736 -1.2464832 -0.67446023
-5.6663156 -1.3280562 -0.8339808
-5.3071194 -0.94695926 -0.94925213
-5.1689429 -0.98899853 -0.99542367
-5.0667334 -0.96836638 -1.0290754
-5.0585546 -0.92848909 -1.0313976
-5.0447626 -0.88842881 -1.0355773
-4.9946604 -0.76765573 -1.0510004
-5.0221124 -0.72796738 -1.0415235
-5.0658216 -0.68817198 -1.0266612
-5.1047688 -0.67103601 -1.0135961
-5.1415691 -0.67120683 -1.0014094
-5.2242212 -0.66927361 -0.97401619
-5.3209763 -0.68953931 -0.9421674
-5.535038 -0.69034958 -0.87127829
-5.5373368 -0.69036007 -0.87051702
-5.740675 -0.74020481 -0.80365479
-5.8504472 -0.74144244 -0.76731026
-5.9334073 -0.73414576 -0.73976314
-6.0163612 -0.75684679 -0.71250892
-6.0424957 -0.7686342 -0.70396757
-6.1186485 -0.79357934 -0.6789875
-6.3539081 -0.72899711 -0.60044378
-6.4230685 -0.71666718 -0.57741821
-6.4598808 -0.71189845 -0.56517988
-6.579587 -0.75238073 -0.5259257
-6.6993413 -0.75286448 -0.48626781
-6.699296 -0.7903626 -0.48664632
-6.6873646 -0.81108105 -0.49079889
-6.6618996 -0.83118486 -0.49942771
-4.1287098 -1.6446851 -1.3463041
-4.1555214 -1.6457208 -1.3374342
-4.1423855 -1.6455585 -1.3417832
-9.0500488 1.3706152 0.31286883
-9.0594759 1.370811 0.31599295
-9.0953398 1.3718669 0.32788134
-9.1415596 1.3742305 0.34321213
-9.1972237 1.3817893 0.36172128
-9.242506 1.3805414 0.3767069
-9.3954659 1.4005628 0.42756087
-9.4634151 1.4385486 0.45043391
-9.5765266 1.4380903 0.48789185
-9.5949755 1.4379935 0.49400133
-9.6018133 1.4378619 0.49626487
-9.09624 1.3654807 0.32811755
-9.0406036 1.3654213 0.3096903
-9.0217476 1.3650298 0.30344152
-8.993475 1.3669435 0.29409599
-8.8980618 1.3642044 0.26246858
-8.8736811 1.3627421 0.25437975
-8.8651819 1.3636603 0.25157368
-8.7633343 1.363736 0.21784246
-8.6802969 1.3517048 0.19022405
-8.5605392 1.3575025 0.15061635
-8.4964285 1.3658595 0.12946403
-8.4785089 1.3690808 0.12356043
-8.3125954 1.3900144 0.068812728
-8.2116318 1.378705 0.035263956
-8.1759911 1.3690616 0.02336663
-8.1580238 1.3683473 0.017408967
-8.0541191 1.3712215 -0.016976476
-7.9805632 1.3743849 -0.041307449
-7.9635534 1.3737185 -0.046947569
-1.277153 1.3720416 -2.2614951
-1.2035713 1.3722876 -2.2858629
-1.1479807 1.3772752 -2.3042262
-1.1120005 1.375291 -2.3161621
-7.3755889 1.3928142 -0.24149594
-7.2565627 1.4165128 -0.28068763
-7.1916246 1.4162211 -0.30219796
-7.1728621 1.4184065 -0.30839092
-7.1642127 1.4190608 -0.31124923
-7.1266875 1.4209304 -0.32365939
-7.0736141 1.4041386 -0.34140009
-6.9520822 1.3844967 -0.38184166
-7.0069089 1.3813184 -0.36371398
-7.0444345 1.3869483 -0.35123092
-7.2121415 1.4040663 -0.29552048
-7.3301401 1.381152 -0.25666159
-9.6197853 1.3849226 0.50170392
-9.5352345 1.3987445 0.47383469
-9.4591389 1.3991494 0.44863564
-9.3348732 1.3652704 0.40715063
-9.306591 1.3646839 0.39777792
-9.2066154 1.3719864 0.36473674
-9.1330233 1.3651487 0.34029698
-6.6858687 1.381422 -0.47004122
-6.7004437 1.3826704 -0.46520197
-6.6396937 1.3839467 -0.48530993
-6.6174774 1.3828716 -0.49267828
-6.6569929 1.3801373 -0.47961736
-6.6757565 1.3804529 -0.47339988
-6.786871 1.3832207 -0.4365719
-6.8323178 1.3848848 -0.42150378
-6.9427013 1.384339 -0.38495016
-6.8416977 1.382542 -0.41841996
-6.78614 1.3799083 -0.43684614
-3.5140462 1.3852479 -1.5205096
-3.5508428 1.3876011 -1.5082998
-3.6157577 1.3952315 -1.486726
-3.6706054 1.4022528 -1.4684925
-3.6987236 1.4025314 -1.459177
-3.8460169 1.422457 -1.4102004
-3.8558013 1.4224263 -1.4069601
-3.8876512 1.422039 -1.3964152
-3.8920786 1.421891 -1.3949504
-3.9569938 1.4120239 -1.3735461
-3.9743519 1.4086745 -1.3678296
-4.00247 1.4039526 -1.3585627
-3.5334833 1.410948 -1.513823
-3.4873135 1.4060024 -1.5291622
-3.4224014 1.3858718 -1.5508564
-9.6659689 1.3772881 0.51692575
-9.6848059 1.372678 0.52311999
-9.7216072 1.3773468 0.5353536
-8.2573328 1.4949454 0.051527143
-8.3223457 1.4802008 0.072916329
-8.3770552 1.4791474 0.091025889
-8.4872866 1.445657 0.12720984
-8.6902313 1.3649547 0.1936428
-8.7548599 1.3721523 0.21511757
-8.7916431 1.3718213 0.22729683
-8.9029179 1.3719399 0.26415193
-8.9482183 1.3756921 0.27919191
-6.5285783 1.3836796 -0.52211392
-6.5806808 1.3830168 -0.50486392
-6.5900531 1.38311 -0.50175899
-6.5661044 1.3843088 -0.50967908
-6.7740369 1.3823777 -0.44083065
-1.1855779 1.3825438 -2.291723
-1.2591586 1.3772991 -2.2674038
-1.2959509 1.3746768 -2.2552438
-1.3421397 1.3746207 -2.2399466
-1.3977284 1.3746321 -2.2215357
-1.44311 1.3741846 -2.2065096
-1.5252824 1.3711151 -2.1793237
-1.6270628 1.3660717 -2.145663
-1.5440831 1.3662504 -2.1731441
-1.5166912 1.3689404 -2.1821902
-1.4517035 1.3688618 -2.2037148
-1.3687243 1.3690403 -2.2311959
-8.0730095 1.3816112 -0.010619164
-7.9541345 1.3760233 -0.050044775
-3.9421539 1.4213026 -1.3783711
-3.9384212 1.4219664 -1.379601
-3.9007559 1.4314661 -1.3919836
-3.8740253 1.4322222 -1.4008293
-3.8004308 1.4450157 -1.4250798
-3.7259719 1.4221628 -1.4499621
-3.7174666 1.4202156 -1.4527979
-3.6619265 1.4051778 -1.4713385
-1.1487856 1.3851668 -2.3038831
-1.6364617 1.3661393 -2.1425495
-1.7280335 1.3656356 -2.1122258
-1.7006407 1.3708264 -2.121248
0 0 0 1 0 0 0 1 0 0 0 1 0 0 0 0 0 460 1 0 0
