ply
format ascii 1.0
comment PCL generated
element vertex 292
property float x
property float y
property float z
element camera 1
property float view_px
property float view_py
property float view_pz
property float x_axisx
property float x_axisy
property float x_axisz
property float y_axisx
property float y_axisy
property float y_axisz
property float z_axisx
property float z_axisy
property float z_axisz
property float focal
property float scalex
property float scaley
property float centerx
property float centery
property int viewportx
property int viewporty
property float k1
property float k2
end_header
-7.1419683 1.6704335 5.5372343
-7.1258678 1.5485322 5.7323828
-7.1223035 1.3314579 5.690927
-7.124928 1.3314297 5.6502504
-7.1326571 1.3302563 5.5299859
-7.1380439 1.3391044 5.450469
-7.1406455 1.3411524 5.4110732
-7.1458297 1.3434199 5.3317618
-7.1510563 1.3454423 5.2516904
-7.1558585 1.332473 5.1715107
-7.1588635 1.3176203 5.1183372
-7.1636486 1.3328836 5.0510054
-7.1688042 1.3324065 4.9709144
-7.1712551 1.3285425 4.9312248
-7.1737576 1.3253493 4.8910308
-7.1765518 1.3330621 4.8511696
-7.1743321 1.3462496 4.8914342
-7.1702156 1.3493074 4.956574
-7.1668673 1.3555862 5.0112514
-7.1576414 1.3657875 5.1587257
-7.1517954 1.3692636 5.2508492
-7.1436248 1.6297896 5.4934649
-7.1430931 1.670239 5.5197206
-7.655158 1.3430589 -2.5593982
-7.65662 1.3037028 -2.599576
-7.6558256 1.1842756 -2.6404593
-7.6436968 0.98150992 -2.5428526
-7.6379137 0.82273179 -2.5239773
-7.6345272 0.70248735 -2.5250645
-7.6329184 0.66267359 -2.5178728
-7.6259937 0.4228501 -2.5174034
-7.6271806 0.26455167 -2.6062911
-7.6187449 0.142802 -2.5298204
-7.6134334 -0.016811609 -2.5186231
-7.608747 -0.17778999 -2.5177171
-7.6041451 -0.64537317 -2.6546714
-7.6030116 -0.68560833 -2.655026
-7.6026564 -0.69823104 -2.6551497
-7.5822029 -0.96524531 -2.4571886
-7.5810728 -1.0052142 -2.45748
-7.57621 -1.2462578 -2.4895017
-7.5713205 -1.3502769 -2.4600756
-7.5686221 -1.4462688 -2.4610221
-7.5634804 -1.4449196 -2.3807616
-7.5608959 -1.4452777 -2.3408782
-7.5562167 -1.4288402 -2.261065
-7.5463457 -1.4482083 -2.1167555
-7.5374079 -1.4488053 -1.9785461
-7.5324407 -1.4510822 -1.9026098
-7.5362492 -1.3166559 -1.9017372
-7.5379243 -1.2118499 -1.8810155
-7.539216 -1.1718667 -1.8832181
-7.5445867 -0.9289816 -1.8582501
-7.5427985 -0.810525 -1.7777855
-7.5473199 -0.65058357 -1.7766035
-7.54845 -0.61061603 -1.7763109
-7.5490842 -0.58826667 -1.7761793
-7.555552 -0.45064968 -1.8150923
-7.5601707 -0.38076353 -1.8555226
-7.5689435 -0.15907758 -1.8927045
-7.5633078 0.10270971 -1.6887994
-7.5804567 0.33845147 -1.8494902
-7.5835109 0.49810112 -1.8257029
-7.5844893 0.57899308 -1.8048303
-7.5873861 0.69884568 -1.7963347
-7.5880289 0.7387625 -1.7885132
-7.5933194 0.9771204 -1.7643192
-7.595582 1.0576012 -1.7635245
-7.5765376 1.3876069 -1.3214903
-7.6060424 1.3366907 -1.8012857
-7.6105766 1.2979287 -1.8888013
-7.6230817 1.3039368 -2.0798616
-7.6293788 1.3445821 -2.1593235
-7.6319661 1.3450565 -2.199193
-7.6345601 1.34399 -2.2398627
-7.6371293 1.3452575 -2.2790978
-7.6397347 1.3431098 -2.3204243
-7.6474395 1.3445665 -2.4391448
-7.6482363 1.3439003 -2.4517834
-7.6500001 1.3432007 -2.4794195
-7.6504812 1.3430462 -2.4869478
-7.6525741 1.3427886 -2.5194843
-7.3540192 1.3737059 2.1197848
-7.3275909 1.3240364 2.5071108
-7.3274279 1.3239142 2.5095828
-7.3206077 1.3560059 2.6295445
-7.318068 1.356524 2.6691179
-7.3154306 1.3547678 2.7091973
-7.3120661 1.3473305 2.7580097
-7.3069243 1.3495471 2.8386631
-7.3068748 1.349643 2.8394685
-7.3018169 1.3499377 2.9179611
-7.2966113 1.3505194 2.9988718
-7.2941074 1.353694 3.0390768
-7.2922001 1.3532716 3.0684412
-7.2895479 1.350608 3.1083417
-7.2863479 1.3513975 3.1582754
-7.2817903 1.3492022 3.2279112
-7.2792797 1.3515347 3.2678421
-7.2786169 1.35256 3.2785683
-7.2760916 1.3531401 3.3179517
-7.2734461 1.3513174 3.3581243
-7.2715654 1.3528497 3.3879461
-7.2683606 1.3543026 3.4382448
-7.265708 1.3516152 3.4781451
-7.2606573 1.3527737 3.5569105
-7.2579975 1.3492217 3.5965359
-7.2524843 1.3529396 3.6836078
-7.2509723 1.3531127 3.7071095
-7.2484474 1.3545372 3.7468619
-7.2451243 1.3526011 3.7974815
-7.2449145 1.3541145 3.8014081
-7.2387333 1.3765793 3.9071794
-7.2361941 1.3770981 3.9467528
-7.2335711 1.3762479 3.98701
-7.2303271 1.3747207 4.0365868
-7.228394 1.375008 4.0666642
-7.2257423 1.3723441 4.106566
-7.2225256 1.3733842 4.1568642
-7.2305779 1.3955488 4.0419784
-7.2309027 1.3957875 4.0370564
-7.2310619 1.3955835 4.034493
-7.2383018 1.3935206 3.9214106
-7.2386255 1.3936532 3.916455
-7.2468729 1.4124658 3.797061
-7.2489576 1.3950037 3.7569823
-7.2511158 1.3803649 3.7170219
-7.2643571 1.3912077 3.5167043
-7.2726054 1.4101272 3.3973455
-7.2774148 1.3980148 3.3174348
-7.2827201 1.4033887 3.2376356
-7.2851677 1.3994464 3.197962
-7.2904654 1.4039561 3.1178896
-7.2934804 1.396698 3.0679479
-7.2974319 1.3770421 2.9979687
-7.3079996 1.3660754 2.8293612
-7.3188205 1.3842281 2.6698008
-7.3285789 1.3649628 2.5100303
-7.3304238 1.3588634 2.4787366
-7.3543096 1.3845634 2.1201222
-7.3569126 1.3873469 2.0810301
-7.3575945 1.3883119 2.0708978
-7.3595366 1.3865757 2.0400352
-7.362771 1.3895513 1.991245
-7.3655648 1.3972116 1.9513731
-7.3724217 1.4068 1.8494091
-7.3729062 1.4068358 1.8419251
-7.3743033 1.4068439 1.8202789
-7.3750296 1.4068913 1.809051
-7.377234 1.4012949 1.7724068
-7.3809104 1.3951647 1.7127123
-7.3822017 1.3952677 1.6927538
-7.3849511 1.3982372 1.6514814
-7.3874216 1.3971202 1.6127105
-7.3900571 1.3969767 1.5718129
-7.3953047 1.400714 1.4921746
-7.3979006 1.4017873 1.4524364
-7.4024906 1.3833654 1.3731167
-7.4050179 1.3821291 1.3334138
-7.4077897 1.3859906 1.2921903
-7.4127645 1.3827455 1.2136673
-7.4155002 1.385241 1.1724006
-7.4180551 1.3870959 1.1336412
-7.4206924 1.3887435 1.0935137
-7.4232869 1.3884597 1.0531884
-7.4283996 1.3889728 0.97420895
-7.4310527 1.3916768 0.9343102
-7.436131 1.3885337 0.8542335
-7.4387684 1.3901813 0.81410635
-7.4437799 1.3838854 0.73365372
-7.4463339 1.3854164 0.69476748
-7.4489279 1.3833106 0.65364301
-7.4513526 1.3775727 0.61352015
-7.4564509 1.3787432 0.53505498
-7.4769678 1.3753901 0.21569723
-7.4823132 1.3811841 0.13545871
-7.4848561 1.3810029 0.095985115
-7.4874225 1.3801532 0.055841267
-7.4901137 1.3827851 0.015317261
-7.4925804 1.3777339 -0.025149226
-7.4897304 1.3686404 0.014957249
-7.484766 1.3747363 0.094584197
-7.48207 1.3715768 0.13494879
-7.4794912 1.3712217 0.17474291
-7.4769244 1.3719618 0.21483794
-7.4562078 1.3691375 0.53454471
-7.4536409 1.3699871 0.57468927
-7.4484696 1.3667948 0.65339023
-7.4457927 1.3647611 0.69395965
-7.4427514 1.3695389 0.74320281
-7.4407935 1.3686769 0.77315414
-7.4360075 1.3815733 0.85304499
-7.4306922 1.3764042 0.93309569
-7.4279838 1.3722596 0.97320658
-7.4254413 1.3724405 1.0126798
-7.420464 1.3789842 1.0927045
-7.4177651 1.3743219 1.1324427
-7.4101253 1.3774137 1.2521882
-7.407331 1.3697522 1.2920611
-7.4053245 1.3671297 1.3219826
-7.3765163 0.92569375 1.571701
-7.3717089 1.385612 1.8510227
-7.3691177 1.3871324 1.8918374
-7.364502 1.3811886 1.9607048
-7.3572817 1.3765044 2.0704823
-7.3566151 1.3756249 2.0804172
-7.5715194 1.3950198 -1.2404444
-7.5561447 1.5324175 -0.94105476
-7.5548429 1.5316002 -0.92124718
-7.5359688 1.4108927 -0.68259078
-7.5332417 1.4054902 -0.64274794
-7.5252938 1.398275 -0.5228284
-7.5215507 1.4000261 -0.4640525
-7.5183229 1.3997686 -0.41415811
-7.5134025 1.3882599 -0.34304982
-7.515914 1.3859668 -0.38298219
-7.5186048 1.3868897 -0.42426372
-7.523838 1.3897204 -0.50408107
-7.5250869 1.389119 -0.52369803
-7.5288334 1.3852673 -0.58345896
-7.5312195 1.3790348 -0.62319738
-7.5324283 1.3776954 -0.64252311
-7.5377512 1.3806403 -0.72367972
-7.5402904 1.3801218 -0.76325268
-7.5429425 1.3827868 -0.80315429
-7.5457072 1.3886352 -0.84338361
-7.5507121 1.3859928 -0.92210215
-7.5715628 1.3930154 -1.2420061
-7.5741711 1.3929596 -1.282443
-7.3230796 -0.77928478 1.640218
-7.3262787 -1.0326369 1.4778225
-7.3565831 -1.1430891 0.95911908
-7.325768 -1.0510316 1.4775407
-7.3188901 -1.1122308 1.5568399
-7.3072743 -1.0626605 1.7588823
-7.3032079 -1.0690217 1.8190458
-7.2995558 -1.0609336 1.8792355
-7.2967367 -1.0295515 1.9368863
-7.2961035 -1.0121357 1.9544532
-7.2979755 -0.94012791 1.9575174
-7.2999358 -0.81960887 1.9808257
-7.3010798 -0.73942047 1.9988182
-7.3046227 -0.70031577 1.9613416
-7.3067856 -0.67569929 1.9387999
-7.3106427 -0.67635626 1.8787451
-7.3189425 -0.65335876 1.7604046
-7.3204818 -0.68865985 1.7208316
-7.3226318 -0.74339265 1.6631441
-7.2005215 1.3618449 4.4926329
-7.2028732 1.3527383 4.4521437
-7.2002292 1.3509374 4.4923005
-7.1374359 -0.79614717 4.5088758
-7.1348529 -0.79639393 4.5487914
-7.1287909 -0.78384012 4.6482954
-7.127667 -0.78358978 4.6658225
-7.114336 -0.88497442 4.8271995
-7.1127748 -0.92206138 4.834868
-7.1110005 -0.96209389 4.8445296
-7.1098723 -1.002063 4.8442121
-7.1091919 -1.0440242 4.8360624
-7.1094503 -1.0569131 4.826314
-7.1152391 -0.9435001 4.7871442
-7.1348181 -0.79685539 4.5491209
-7.2079129 -0.70363408 3.4581838
-7.2029638 -0.67056423 3.5495884
-7.2011948 -0.67022818 3.5771515
-7.1986108 -0.670636 3.6169972
-7.1960182 -0.67186576 3.6566188
-7.1955328 -0.67202085 3.664068
-7.1775494 -0.77427918 3.8971429
-7.1749687 -0.77443451 3.937058
-7.1699715 -0.77496189 4.0142393
-7.169807 -0.77474374 4.0168891
-7.1672258 -0.7748993 4.0568061
-7.1698008 -0.78177112 4.0138516
-7.1710916 -0.78168863 3.9938946
-7.1723676 -0.78251296 3.973758
-7.1748643 -0.77996415 3.9362133
-7.1750197 -0.77984744 3.933857
-7.1794658 -0.78205651 3.8639894
-7.1810789 -0.78195161 3.839041
-7.1922703 -1.0762272 3.5345912
-7.1983538 -1.1436801 3.4102967
-7.2134986 -1.0575225 3.2140293
-7.2222228 -1.0227845 3.0943425
-7.222435 -1.0152891 3.0943868
-7.2162781 -0.77776176 3.2955668
-7.2148385 -0.73750144 3.335808
-7.2125893 -0.71980101 3.3785341
-7.4402599 -1.6589222 -0.5670231
-7.4384542 -1.6570377 -0.53820461
-7.4411964 -1.6568696 -0.58061594
0 0 0 1 0 0 0 1 0 0 0 1 0 0 0 0 0 292 1 0 0
