ply
format ascii 1.0
comment PCL generated
element vertex 336
property float x
property float y
property float z
element camera 1
property float view_px
property float view_py
property float view_pz
property float x_axisx
property float x_axisy
property float x_axisz
property float y_axisx
property float y_axisy
property float y_axisz
property float z_axisx
property float z_axisy
property float z_axisz
property float focal
property float scalex
property float scaley
property float centerx
property float centery
property int viewportx
property int viewporty
property float k1
property float k2
end_header
-11.492641 -0.3781926 -4.8362441
-11.4965 -0.45775312 -4.8300328
-11.271719 -0.56986594 -4.8386288
-10.997999 -0.83794361 -4.8393059
-10.959701 -0.8655284 -4.8401394
-10.945032 -0.8772828 -4.8403697
-10.803198 -1.0469439 -4.8384323
-10.76557 -1.0907996 -4.8380046
-10.725527 -1.1055332 -4.8399258
-10.645966 -1.097717 -4.8465028
-10.486529 -1.1044548 -4.858016
-10.187757 -1.1871873 -4.8743739
-10.144289 -1.2350897 -4.8740849
-10.106448 -1.2399879 -4.8765721
-10.009167 -1.2246032 -4.8850479
-9.9072533 -1.2411991 -4.8914928
-9.7857704 -1.2352799 -4.9010878
-9.6683054 -1.2371802 -4.9097981
-9.5886812 -1.2341821 -4.9160218
-9.5050783 -1.2208769 -4.9233117
-9.4610758 -1.2227525 -4.9264884
-9.4247704 -1.2119043 -4.9300313
-9.310401 -1.1975702 -4.9397168
-9.2721052 -1.0978142 -4.950026
-8.7115583 -1.1487877 -4.9884744
-8.5911045 -1.2102098 -4.9929805
-8.5811462 -1.2101461 -4.9937358
-8.5516539 -1.2104545 -4.9959354
-8.5363369 -1.2098589 -4.9971337
-8.4658337 -1.1815459 -5.0045538
-8.3863258 -1.1710854 -5.0113235
-8.3129005 -1.1686227 -5.0170403
-8.2269249 -1.1750393 -5.0230417
-8.1910725 -1.1850911 -5.0249953
-8.0602102 -1.2505958 -5.0299821
-8.0073166 -1.2356608 -5.0350795
-7.9298344 -1.2006661 -5.0435224
-7.8689046 -1.1428919 -5.0524135
-7.7445307 -0.58688647 -5.1031623
-7.5321217 -0.58069557 -5.1196294
-7.3016896 -0.74003804 -5.1251364
-7.2585154 -0.75506556 -5.1272717
-7.2153416 -0.77009314 -5.1294069
-7.1944122 -0.76843691 -5.1311073
-7.1734829 -0.76678061 -5.1328077
-7.1525536 -0.76512438 -5.1345081
-7.0947599 -0.60878628 -5.1504974
-6.9486423 -0.38010323 -5.1785264
-6.5673456 -0.33665702 -5.2104931
-6.4633064 -0.38401389 -5.2148094
-6.3245187 -0.45153952 -5.220243
-6.1763725 -0.91686082 -5.1967788
-6.3415394 -1.0538125 -5.1741409
-6.3363371 -1.0941339 -5.1715322
-6.133635 -1.1080304 -5.1857734
-6.0957179 -1.118354 -5.1878624
-6.0021453 -1.1320369 -5.1938953
-5.8837175 -1.0885226 -5.206058
-5.7418942 -1.0827572 -5.2171745
-5.7024941 -1.0882779 -5.2197328
-5.4236298 -1.0828694 -5.2411499
-5.382956 -1.0851429 -5.2440457
-5.3021741 -1.0938501 -5.2494855
-5.259901 -1.0714175 -5.2543402
-5.2283411 -1.0406375 -5.2590089
-5.0623341 -0.80581027 -5.2889943
-4.6962366 -0.85448611 -5.3129601
-4.3385296 -0.98988491 -5.3298397
-4.29774 -1.0579965 -5.3278451
-4.0757732 -1.1037698 -5.3411655
-4.0571709 -1.1055911 -5.342432
-4.0334687 -1.1036572 -5.3443618
-3.8992808 -1.0792962 -5.356287
-3.8196476 -1.0790842 -5.3623037
-3.7775102 -1.0756462 -5.3657351
-3.7001331 -1.0837351 -5.3709641
-3.6153994 -1.1116408 -5.3752728
-3.5754845 -1.118988 -5.3777337
-3.5028474 -1.1262879 -5.3826642
-3.4208608 -1.1252283 -5.3889213
-3.3833654 -1.1284544 -5.3915067
-3.239984 -1.0651186 -5.4070249
-3.188395 -1.0516775 -5.4119129
-3.0614357 -1.0265342 -5.4233513
-2.8850224 -1.056646 -5.4344044
-2.8690758 -1.0623884 -5.4351788
-2.8465247 -1.0722253 -5.4361463
-2.8219473 -1.0706178 -5.438118
-2.8035574 -1.0703423 -5.4395242
-2.723748 -1.0774372 -5.4450107
-2.6040506 -1.0868375 -5.453331
-2.5672421 -1.0933313 -5.4556217
-2.4211454 -1.0967989 -5.466373
-2.2879591 -1.1144373 -5.4750972
-2.2004681 -1.1098189 -5.4820337
-2.1380291 -1.1219611 -5.4858356
-2.0467763 -1.1497766 -5.4906421
-1.9669342 -1.1593561 -5.4959459
-1.8812184 -1.1611841 -5.5022693
-1.8041368 -1.1768107 -5.5069151
-1.6428289 -1.2000862 -5.5173388
-1.6075101 -1.2124008 -5.519084
-1.5644436 -1.2179708 -5.5219145
-1.4525418 -1.2514571 -5.5278554
-1.3334146 -1.2873448 -5.5341616
-1.2242508 -1.3232774 -5.5397143
-1.1943598 -1.323143 -5.5419765
-1.046659 -1.3084173 -5.554203
-0.92809963 -1.3279816 -5.5616813
-0.80832338 -1.3653358 -5.5679274
-0.75651073 -1.3278348 -5.5746226
-0.62598991 -1.2841665 -5.587708
-0.52429295 -1.2833403 -5.5954332
-0.40004349 -1.256613 -5.6067853
-0.36346388 -1.2531124 -5.6098022
-0.28216982 -1.2475901 -5.6163397
-0.20409918 -1.2459497 -5.622345
-0.12451172 -1.2286999 -5.6296258
-0.043235302 -1.2206924 -5.6363468
0.00030517578 -1.1378533 -5.6457925
0.00045394897 -1.0720446 -5.650701
0.0010504723 -1.0557407 -5.6519589
0.033936024 -0.88858581 -5.6668763
0.057121754 -0.76615447 -5.6777349
0.049093246 -0.68661475 -5.6830487
0.042453289 -0.60926825 -5.6883044
0.04315567 -0.54992026 -5.6927738
0.041991234 -0.38341269 -5.7050772
0.042409897 -0.32714677 -5.7092957
0.043107033 -0.31064388 -5.7105765
0.042846203 -0.27336612 -5.7133307
0.0025229454 -0.20619282 -5.715291
-0.038322926 -0.064463884 -5.7227602
-0.038700104 0.033055365 -5.7299886
-0.039278984 0.072221458 -5.7328596
-0.04115963 0.10880096 -5.7354403
-0.068535805 0.44599155 -5.7584701
0.026025295 0.68934762 -5.7837057
0.065576077 0.72935325 -5.7896633
0.10604095 0.85235596 -5.8018661
0.10553932 0.93248153 -5.8077908
0.10473299 0.97141612 -5.8106275
-0.16961384 1.2442667 -5.8102584
-0.18260288 1.2938473 -5.8129692
-0.21056223 1.3458955 -5.8147354
-0.2522068 1.3599612 -5.812644
-0.29539204 1.3734347 -5.8103924
-0.37706661 1.3947036 -5.80582
-0.4308877 1.4067705 -5.8026624
-0.5105319 1.4014531 -5.7962646
-0.53986025 1.4028662 -5.7941599
-0.59189653 1.4076891 -5.7905974
-0.67313004 1.403988 -5.7842007
-0.71142864 1.4046818 -5.7813659
-0.75134945 1.4094759 -5.7787142
-0.80693531 1.4199324 -5.7753038
-0.83122396 1.4215487 -5.7735939
-0.90846062 1.4262843 -5.7681255
-0.9134903 1.4261576 -5.7677374
-0.98628235 1.4191476 -5.7617302
-1.0445423 1.4222385 -5.7575698
-1.3122139 1.4185579 -5.7371249
-1.3250494 1.4176654 -5.7360911
-1.4212279 1.4138988 -5.7285633
-1.4360785 1.4140431 -5.7274547
-1.5129642 1.3811997 -5.7192168
-1.5531969 1.3725247 -5.7155395
-1.6323647 1.3682551 -5.7092557
-1.7103214 1.3538686 -5.7023106
-1.7916532 1.3576204 -5.6964607
-1.831409 1.3499932 -5.6928973
-1.9079742 1.3488963 -5.6870461
-2.0274076 1.3384361 -5.6772671
-2.1518047 1.34773 -5.6685848
-2.2662516 1.3380183 -5.6592374
-2.307981 1.3388317 -5.6561532
-2.3509803 1.3394053 -5.652956
-2.3786292 1.3368994 -5.6506858
-2.4690549 1.3447188 -5.6444535
-2.5057986 1.3462806 -5.6418009
-2.5504196 1.3509549 -5.6387858
-2.5855742 1.3509005 -5.6361327
-2.6685274 1.3587527 -5.630466
-2.748204 1.3559197 -5.6242509
-2.7864704 1.3541292 -5.6212339
-2.8690948 1.3371383 -5.6137433
-2.9105055 1.3360958 -5.6105452
-2.94715 1.3302047 -5.6073451
-2.9813619 1.3224252 -5.604188
-3.1073577 1.3176228 -5.594336
-3.1378951 1.3242463 -5.5925279
-3.1826553 1.3193198 -5.588788
-3.3021834 1.3244026 -5.5801592
-3.4215982 1.3170626 -5.5706139
-3.4614937 1.3245543 -5.5681653
-3.5511057 1.3246398 -5.5614185
-3.6252296 1.3305389 -5.5562716
-3.7798114 1.3580167 -5.5466676
-3.8657928 1.3560379 -5.540041
-3.8815365 1.3548164 -5.5387635
-3.9041362 1.3432275 -5.5361981
-3.9835413 1.3159724 -5.5281863
-4.1050882 1.3028525 -5.5180502
-4.3042493 1.3055267 -5.5032411
-4.423686 1.3006712 -5.4938793
-4.5829735 1.2983383 -5.4817023
-4.7047029 1.3050956 -5.473032
-4.7422838 1.29849 -5.4697084
-4.8241401 1.3002399 -5.4636703
-4.9015713 1.2961571 -5.457531
-4.9413533 1.2912257 -5.4541664
-5.063015 1.2905289 -5.4449463
-5.1847444 1.297286 -5.436276
-5.3041592 1.2899461 -5.4267311
-5.3440542 1.2974377 -5.4242821
-5.4876442 1.2578233 -5.4105134
-5.6493645 1.2939438 -5.4010148
-5.7280102 1.2950102 -5.3951674
-5.7737093 1.2933934 -5.3916035
-5.8077989 1.2943418 -5.3891048
-5.9436092 1.3321528 -5.3816843
-5.968658 1.3419467 -5.3805256
-6.1275949 1.3161392 -5.3666282
-6.2071404 1.3082067 -5.3600435
-6.2867246 1.3027598 -5.353641
-6.3265171 1.3000364 -5.3504395
-6.4481583 1.3036957 -5.3415451
-6.6072879 1.2903163 -5.328558
-6.6869993 1.2846767 -5.3221316
-6.7665339 1.2843939 -5.3161168
-6.8070002 1.2831923 -5.3129778
-6.9267468 1.2820933 -5.3038726
-7.0473828 1.2796451 -5.2945995
-7.206706 1.2786939 -5.2825222
-7.2465372 1.2784561 -5.2795033
-7.2861748 1.2657901 -5.2755737
-7.4864111 1.2756799 -5.2612205
-7.7004786 1.2726349 -5.2448621
-7.7403498 1.2748768 -5.2420244
-7.8062015 1.2720426 -5.2368507
-7.9792337 1.2252331 -5.2203283
-8.0588989 1.224745 -5.2142887
-8.1384382 1.2244464 -5.2082725
-8.1790209 1.2230654 -5.2051115
-8.338726 1.2215207 -5.1929617
-8.5787163 1.259262 -5.1776853
-8.6585054 1.2585845 -5.1716218
-8.7381716 1.2580962 -5.1655822
-8.8187113 1.2562819 -5.1593781
-8.8581686 1.2566062 -5.1564288
-8.8982506 1.2559831 -5.1533618
-9.0582066 1.2540596 -5.1411648
-9.2180748 1.254811 -5.1291733
-9.2977009 1.2518371 -5.1229515
-9.3377838 1.251214 -5.1198845
-9.441474 1.2111782 -5.1090918
-9.5759459 1.2128406 -5.099082
-9.7758198 1.2079973 -5.0836592
-9.8569813 1.245957 -5.080368
-9.8969383 1.2455235 -5.0773249
-10.021665 1.2443817 -5.0678406
-10.175521 1.2034724 -5.0532022
-10.215603 1.2028494 -5.0501351
-10.337368 1.1972218 -5.0405407
-10.535763 1.1564251 -5.0225539
-10.577213 1.1576611 -5.0195222
-10.59788 1.1565074 -5.017879
-10.855823 1.1501058 -4.9979649
-10.981187 1.2294531 -4.9944224
-11.022703 1.1864339 -4.9880924
-11.047035 1.1468006 -4.9833097
-11.060212 0.98766261 -4.9704742
-11.13979 0.79559469 -4.9501843
-11.218147 0.58513135 -4.9286175
-11.296431 0.42532447 -4.9108257
-11.335878 0.26409075 -4.8958545
-11.377351 0.10345341 -4.880775
-11.374386 0.063825637 -4.8780494
-11.378663 -0.016640607 -4.8717389
-11.380592 -0.056420837 -4.8686333
-11.453552 -0.29789302 -4.8451657
-0.11193514 -0.06923762 -5.7168574
-0.12174082 0.016678255 -5.7225122
-0.12113094 0.053253189 -5.7252798
-0.12758732 0.12787993 -5.7303467
-0.13896513 0.21870881 -5.736249
-0.14212227 0.2504099 -5.7383699
-0.16254139 0.4674091 -5.7529798
-0.16405201 0.58605891 -5.7616954
-0.19877625 0.92618924 -5.7843904
-0.1969533 0.98562664 -5.7889509
-0.20233727 1.0253761 -5.791503
-0.58410788 1.322565 -5.7848496
-0.78285599 1.2819442 -5.7668495
-0.94275522 1.2878615 -5.7552404
-1.2597136 0.99658144 -5.7096791
-1.2452416 0.75562882 -5.6928387
-1.2342248 0.67617482 -5.6877561
-1.2769847 0.47054067 -5.6692309
-1.2764573 0.43079188 -5.6663127
-1.252666 0.3166613 -5.6596122
-1.2663517 0.23208053 -5.6522865
-1.2658257 0.19233175 -5.6493683
-1.2620521 0.091198511 -5.6421266
-1.2684631 0.011664659 -5.635725
-1.2649112 -0.067824453 -5.6300774
-1.265491 -0.12089795 -5.6260839
-1.268301 -0.18709727 -5.6209459
-1.2677708 -0.22684735 -5.6180277
-1.2691998 -0.30635887 -5.6120028
-1.2502213 -0.51835459 -5.5976572
-1.2731018 -0.60129207 -5.5897608
-1.2764916 -0.7205649 -5.5806293
-1.2744379 -0.75697857 -5.5780745
-1.285367 -0.87131625 -5.5687423
-1.2818565 -0.89942473 -5.566915
-1.2809076 -0.94848686 -5.5633354
-0.99832916 -1.2385318 -5.5630455
-0.9584403 -1.2408372 -5.5658798
-0.84039927 -1.2436364 -5.5745668
-0.72083473 -1.2430992 -5.5836167
-0.67948961 -1.2370993 -5.5871792
-0.63973475 -1.2294672 -5.5907431
-0.60223055 -1.229324 -5.5935798
-0.51580954 -1.2306005 -5.599997
-0.44516182 -1.2286437 -5.6054668
-0.3999095 -1.2217557 -5.6093893
-0.085036755 -0.94227815 -5.6539154
-0.098290443 -0.82793659 -5.6614256
-0.092262268 -0.74523628 -5.6680341
-0.095587254 -0.62594265 -5.676661
-0.08457756 -0.54325145 -5.6836443
-0.087014675 -0.4271459 -5.692101
-0.090061665 -0.34761533 -5.6977897
-0.097812653 -0.30783856 -5.7001657
-0.10728598 -0.14558472 -5.7115264
0 0 0 1 0 0 0 1 0 0 0 1 0 0 0 0 0 336 1 0 0
