ply
format ascii 1.0
comment PCL generated
element vertex 551
property float x
property float y
property float z
element camera 1
property float view_px
property float view_py
property float view_pz
property float x_axisx
property float x_axisy
property float x_axisz
property float y_axisx
property float y_axisy
property float y_axisz
property float z_axisx
property float z_axisy
property float z_axisz
property float focal
property float scalex
property float scaley
property float centerx
property float centery
property int viewportx
property int viewporty
property float k1
property float k2
end_header
0.16289854 -1.1075476 -0.83639193
0.12142801 -1.1209221 -0.82350552
0.056513786 -1.1283938 -0.80536377
-0.025264263 -1.1336416 -0.78313684
-0.084088802 -1.1269668 -0.76872385
-0.40396261 -1.0630655 -0.69451058
-0.4501462 -1.065236 -0.68207765
-0.51499224 -1.0508156 -0.66725385
-0.63119173 -1.0443088 -0.63777626
-0.69396448 -1.057888 -0.61927509
-0.73994303 -1.0649526 -0.60615814
-0.88258743 -1.0597947 -0.56954539
-0.96635199 -1.0657723 -0.54668772
-1.0040355 -1.0671325 -0.53660506
-1.0795054 -1.0674057 -0.51678151
-1.1715646 -1.079088 -0.49088979
-1.3033538 -1.1294024 -0.44876021
-1.3531783 -1.1592522 -0.43120039
-1.4111247 -1.1601855 -0.41587067
-1.5170658 -1.1435281 -0.39061213
-1.592638 -1.1413543 -0.3711307
-1.7603719 -1.1484156 -0.32609946
-1.7898631 -1.1416241 -0.31939298
-1.9658916 -1.1543897 -0.27132761
-2.0414639 -1.1522161 -0.25184613
-2.0792501 -1.151129 -0.24210536
-2.1087415 -1.1443378 -0.23539877
-2.2764752 -1.1513989 -0.19036764
-2.3981283 -1.1538427 -0.15811127
-2.4819951 -1.1573733 -0.13559568
-2.5575671 -1.1551994 -0.11611426
-2.6331394 -1.1530256 -0.096632779
-2.7023487 -1.1571271 -0.0778732
-2.725301 -1.1622607 -0.071083069
-2.7484608 -1.1613877 -0.065143973
-2.800873 -1.1600869 -0.051601619
-2.8995841 -1.1570884 -0.026179314
-2.9373646 -1.1560136 -0.016438186
-3.0801563 -1.1463794 0.019538373
-3.1345999 -1.1559749 0.0352557
-3.247942 -1.1527505 0.064479172
-3.352953 -1.1441911 0.090714604
-3.4413018 -1.1249613 0.11097395
-3.5389767 -1.1220272 0.13613436
-3.5768559 -1.118502 0.14553198
-3.8804436 -1.1207492 0.22544785
-3.901562 -1.1090039 0.22921288
-4.0021539 -1.0777098 0.25086287
-4.0693841 -1.0702251 0.26735711
-4.1070666 -1.0716007 0.27744186
-4.1824312 -1.0743518 0.2976113
-4.2288389 -1.0712612 0.30930984
-4.2579927 -1.0722022 0.31709364
-4.3714333 -1.0665275 0.34597349
-4.4934025 -1.0612874 0.37715444
-4.560534 -1.056253 0.39399219
-4.6821094 -1.0608141 0.42654735
-4.5523014 -1.0484674 0.39066061
-4.5147176 -1.0446415 0.38023233
-4.4096084 -1.0556513 0.35434049
-4.4009814 -1.0576673 0.35238305
-4.3630037 -1.0636426 0.3433291
-7.1657233 -0.3288171 0.96721298
-7.0314765 -0.3238025 0.93126798
-6.9184537 -0.335583 0.90341806
-6.9068484 -0.33440673 0.90019876
-6.853981 -0.32295287 0.88461447
-6.7872539 -0.33319771 0.86866808
-6.4959874 -0.11633334 0.75962949
-6.3409147 0.077235565 0.68980199
-6.2987471 0.08097522 0.67818522
-6.2434578 0.054888979 0.66762507
-6.0846596 0.041581094 0.62800664
-5.7691188 0.019915298 0.54856229
-5.7447953 0.0021428019 0.54486567
-5.6014934 -0.35858026 0.5616802
-5.5033937 -0.3954784 0.54152822
-5.1655111 -0.30056232 0.43865371
-5.1272097 -0.23998798 0.41948271
-5.0962515 -0.14588998 0.39718321
-5.0600462 -0.10775931 0.38194492
-5.022069 -0.11373476 0.37289098
-4.5561504 -0.37244946 0.28976333
-4.4391489 -0.32054868 0.25127077
-4.4097972 -0.32450831 0.24417405
-4.3169827 -0.33068955 0.22077703
-4.2933693 -0.33136132 0.21468878
-4.1620827 -0.30478773 0.17626977
-4.0572686 -0.30844653 0.14934725
-4.0143366 -0.30586612 0.13770479
-3.7123685 0.015700683 0.010077745
-3.7019715 0.028319716 0.0054501593
-3.5031962 0.085209131 -0.055228978
-3.4736772 0.10598099 -0.066097885
-3.4446213 0.10937241 -0.074225277
-3.4085989 0.11219651 -0.084093273
-3.387166 0.095915049 -0.087256968
-3.1403396 -0.02301643 -0.13402736
-2.9321666 -0.31056112 -0.14524829
-2.9021261 -0.33167315 -0.14994001
-2.4444721 -0.11964908 -0.30186284
-2.4286575 -0.10299513 -0.30851859
-2.3854887 -0.11800277 -0.31757182
-2.2561119 -0.12473272 -0.35046989
-2.3272705 -0.3754853 -0.29401797
-2.2520337 -0.65139139 -0.27214777
-1.9492004 -1.0277244 -0.29479694
-1.7977488 -1.0394133 -0.33273369
-1.676096 -1.0369695 -0.36499
-1.571032 -1.0459347 -0.39117807
-1.4788706 -1.0366997 -0.41672778
-1.432585 -1.0369762 -0.42881864
-1.2683337 -1.0644183 -0.46773583
-1.1680822 -1.0445846 -0.49700373
-1.1596851 -1.0413272 -0.49969584
-1.0005531 -1.0326293 -0.54271907
-0.70646763 -0.77193737 -0.65910327
-0.71041584 -0.3718496 -0.7183795
-0.84538937 -0.15497954 -0.71569192
-0.7942605 -0.017588817 -0.74980497
-0.78296423 -0.0056931302 -0.75455916
-0.77477217 0.0024583787 -0.75793529
-0.65178967 0.059303626 -0.79874086
-0.56816673 0.13827455 -0.83256483
-0.54641962 0.16070089 -0.84164572
-0.29250002 0.29241091 -0.92805839
-0.30959558 0.63160551 -0.97470903
-0.33300734 0.6706053 -0.9744513
-0.30703878 0.68537867 -0.98348522
-0.23374224 0.73958695 -1.0108695
-0.22550964 0.74737251 -1.014201
-0.3869853 1.3104218 -1.0567514
-0.42466784 1.3090461 -1.0466666
-0.73773193 1.3200734 -0.96626794
-0.82621002 1.3405443 -0.94616175
-0.86389256 1.3391837 -0.93607914
-1.1986086 1.3959419 -0.85689867
-1.3247118 1.4105265 -0.82604277
-1.3706887 1.4034283 -0.81292129
-1.4628475 1.3941252 -0.78736198
-1.5210569 1.4025956 -0.77338088
-1.5679121 1.4031211 -0.76117826
-1.6320534 1.4057862 -0.74476707
-1.7929816 1.3704894 -0.69726348
-1.8980465 1.3794854 -0.67107975
-1.9818091 1.3734733 -0.64821744
-2.0196979 1.3770062 -0.6388185
-2.1806796 1.4123144 -0.60194409
-2.3683329 1.4301944 -0.55545139
-2.39624 1.4421272 -0.5499351
-2.4257326 1.448951 -0.5432331
-2.4876227 1.4276472 -0.52379888
-2.6985283 1.4508162 -0.47200847
-2.7445049 1.4437178 -0.45888692
-2.8745613 1.4100379 -0.41971916
-2.9761994 1.4231356 -0.39505202
-3.1640201 1.4015559 -0.34256703
-3.1934698 1.4079658 -0.33581382
-3.2101321 1.3972955 -0.3298378
-3.2184634 1.3919603 -0.3268497
-3.2351258 1.3812898 -0.32087356
-3.433075 1.310631 -0.25833529
-3.5845919 1.3247316 -0.22074491
-3.7227311 1.3070498 -0.1818701
-3.8277421 1.3156092 -0.1556347
-3.9035006 1.3226595 -0.13683951
-4.0250754 1.3180984 -0.10428447
-4.1716442 1.2975317 -0.062765241
-4.2294602 1.2833977 -0.045479745
-4.3213887 1.2675259 -0.018990636
-4.417675 1.2716194 0.0056309998
-4.5014691 1.2659833 0.028444946
-4.585362 1.2627977 0.050915331
-4.6200185 1.2658733 0.05953595
-4.7071338 1.2631372 0.082783312
-4.8302841 1.2977816 0.10984132
-4.8684587 1.3086578 0.1182082
-4.9720349 1.3080828 0.14544445
-4.9777989 1.3075503 0.1470356
-5.0988278 1.3043125 0.17924806
-5.1788392 1.3070202 0.19981264
-5.3424034 1.2988282 0.24392138
-5.3739157 1.3013017 0.25180858
-5.4958167 1.3010067 0.28380603
-5.5483127 1.2923529 0.29887086
-5.6550455 1.2943614 0.32654509
-5.7391663 1.2906282 0.34915778
-5.8146129 1.2950577 0.36826634
-5.9153237 1.2830551 0.39647418
-6.0206347 1.2910293 0.42287648
-6.0492878 1.2928417 0.43011385
-6.2927508 1.2849104 0.49512649
-6.0290833 1.2779725 0.42705932
-5.9164224 1.2823404 0.39686993
-5.8321881 1.2836266 0.37459633
-5.7654161 1.2710346 0.3589921
-5.7189617 1.275759 0.34610325
-5.5770826 1.2660789 0.31037271
-5.5395288 1.2675351 0.30030954
-5.4267545 1.2694558 0.27045935
-5.4126296 1.2690842 0.26681286
-5.377317 1.268155 0.25769675
-5.2674127 1.2736539 0.22805953
-5.1911445 1.2763847 0.20765625
-5.1455121 1.2739489 0.19606221
-5.0694709 1.2784956 0.17544474
-4.9938107 1.2738956 0.15630591
-4.8250408 1.2557634 0.11480087
0.20770836 1.3601093 -1.2201241
0.2127552 1.3229918 -1.2158517
0.22100306 1.1223098 -1.1877618
0.20358419 0.89113116 -1.148347
0.20494223 0.87073803 -1.1456288
0.20279837 0.85199296 -1.1422411
0.20575666 0.77072358 -1.1307656
0.20641041 0.73998034 -1.1263026
0.20372677 0.60856664 -1.1057893
0.19982862 0.58596277 -1.1013601
0.19697142 0.564026 -1.0973042
0.2005167 0.4758136 -1.0849359
0.21170235 0.41008887 -1.0779604
0.21318007 0.37333378 -1.072807
0.22118902 0.24718797 -1.0558906
0.19709253 0.095199868 -1.0266628
0.1866622 0.022986576 -1.013043
0.18302631 -0.0047085285 -1.0079151
0.15658426 -0.19721237 -0.97196519
0.15012121 -0.32254648 -0.95137763
0.10517073 -0.36670488 -0.93293846
0.090643406 -0.7251761 -0.87509286
0.13181496 -0.84478295 -0.86785471
0.13251686 -0.92487264 -0.85596561
0.19370985 -1.0845293 -0.8479383
-10.541739 1.3504335 1.5990034
-10.533041 1.3513172 1.5965902
-10.491001 1.3338325 1.5882063
-10.33684 1.2965275 1.5534207
-10.023987 1.2741004 1.4747958
-9.9974251 1.2838198 1.4663682
-9.9417801 1.2806684 1.4522574
-9.884387 1.28074 1.4372028
-9.7428551 1.2807361 1.4001046
-9.6021652 1.30916 1.3589418
-9.5200338 1.3105886 1.3371983
-9.4824657 1.3120093 1.3271365
-9.4546232 1.3045847 1.3209577
-9.3226748 1.3062482 1.2861204
-9.284996 1.3052218 1.2763985
-9.2096367 1.3031687 1.2569549
-9.0965996 1.300089 1.2277895
-9.041543 1.312884 1.2114291
-9.0151834 1.3111291 1.2047842
-9.0081186 1.3109368 1.2029613
-8.9745979 1.2978017 1.196155
-8.8789387 1.2809006 1.1736283
-8.7311459 1.3054641 1.1311857
-8.6467142 1.3017561 1.1096132
-8.5424204 1.2929893 1.0835971
-8.4959974 1.2976499 1.0707259
-8.3655825 1.3083919 1.0349221
-8.261179 1.2971778 1.0092461
-8.1854906 1.2877828 0.99082267
-8.1101322 1.2857296 0.97137904
-8.0725632 1.2871504 0.9613173
-8.0635996 1.2879429 0.95884812
-8.1539621 1.2597414 0.98678547
-8.220356 1.2625868 1.00376
-8.2668896 1.2603737 1.0162909
-8.3887806 1.2602135 1.0482656
-8.4265699 1.2636874 1.0576472
-8.5018177 1.2632931 1.0774307
-8.5771761 1.2653463 1.0968742
-8.6816902 1.2790078 1.1222103
-8.7832794 1.2639993 1.1511017
-8.829813 1.2617862 1.1636326
-8.9429607 1.2673131 1.192458
-9.0094643 1.272606 1.2090924
-9.0558872 1.2679454 1.2219634
-9.1399899 1.2643114 1.2445562
-9.2618809 1.2641512 1.2765307
-9.4131489 1.2804941 1.3137177
-9.4797611 1.2882342 1.3300118
-9.6184807 1.2620159 1.3703256
-9.6559391 1.2581478 1.3807273
-9.7311878 1.2577536 1.400511
-9.7401524 1.2569612 1.4029802
-9.7776108 1.253093 1.4133821
-9.8996124 1.2553802 1.4450164
-9.947854 1.2558774 1.4575869
-10.032047 1.2546306 1.4798437
-10.334096 1.2750225 1.5559434
-10.434929 1.2451812 1.5868722
-10.603951 1.2177012 1.6353194
-10.630186 1.2029488 1.64442
-10.760693 0.93548691 1.7189472
-10.60462 0.60918295 1.7272257
-10.594139 0.57576525 1.729516
-10.611272 0.54826486 1.7381523
-10.581312 0.21484715 1.78056
-10.526549 0.04769513 1.7914028
-10.518055 0.035528004 1.7910106
-10.510097 0.019801676 1.7912951
-10.210013 -0.33190632 1.7656547
-10.191212 -0.33725959 1.7615334
-10.103 -0.46190944 1.7572013
-10.082833 -0.49178684 1.7564191
-9.7687149 -0.69324899 1.7044512
-9.7224102 -0.70307529 1.6937947
-9.6371231 -0.70986676 1.6724632
-9.1320391 -0.51506931 1.5107045
-9.198082 -0.31179118 1.4973726
-9.265295 -0.1866897 1.4961324
-9.2643776 -0.15494251 1.491106
-9.2623539 -0.14766556 1.4894788
-9.255393 0.053624362 1.4573108
-9.2273941 0.13330472 1.4379603
-9.1925774 0.1707159 1.4231944
-9.1521654 0.17147735 1.4124868
-9.065918 0.17173529 1.3898406
-9.0665035 0.13264698 1.3958864
-9.0935783 0.0551759 1.4146618
-8.9099979 -0.30283201 1.4205091
-8.921669 -0.35581642 1.4315553
-8.9773693 -0.62467742 1.4866849
-8.9796324 -0.66967845 1.4940619
-8.9808426 -0.78658581 1.5120023
-8.7041454 -1.0926633 1.4856136
-8.570694 -1.1131026 1.4537139
-8.3848963 -1.096773 1.4025507
-8.3384752 -1.0920788 1.3896749
-8.28016 -1.1153599 1.3778987
-8.2404289 -1.1382039 1.370928
-7.8726072 -1.2087884 1.2851541
-7.6256456 -1.1316507 1.2087917
-7.5212083 -1.091573 1.175375
-7.4934106 -1.0913006 1.1680474
-7.4186049 -1.0811281 1.1469057
-7.3899989 -1.0805546 1.1393211
-7.3612828 -1.0824279 1.1320763
-7.3147511 -1.0801697 1.119539
-7.2595878 -1.0697287 1.1035054
-7.1757083 -1.0611609 1.0802271
-7.1290655 -1.0613497 1.0680296
-7.0452971 -1.050335 1.0444117
-7.007618 -1.0513661 1.0346905
-6.9705954 -1.0503087 1.0248268
-6.6525807 -0.76550639 0.89853555
-6.6588554 -0.67640615 0.88674891
-6.8179121 -0.45156974 0.8945483
-6.8949285 -0.4128046 0.90889227
-7.1327882 -0.38103911 0.96645212
-7.2172203 -0.3773725 0.98803097
-7.2261829 -0.37821472 0.9905073
-10.980343 0.06843403 1.9072257
-11.03356 -0.044311322 1.9381711
-11.01766 -0.083848551 1.9399636
-10.956837 -0.35029697 1.9641861
-10.947418 -0.38444412 1.9668647
-10.857594 -0.45765084 1.954355
-10.789602 -0.51946342 1.9458508
-10.750099 -0.57565653 1.9439673
-10.704874 -0.7426151 1.9572809
-10.714399 -0.85417616 1.9765949
-10.712077 -0.90556359 1.9837326
-10.698254 -1.0463192 2.0013273
-10.644676 -1.0868826 1.9933981
-10.632901 -1.0872033 1.99036
-10.322738 -1.1575176 1.9196588
-10.200848 -1.1573228 1.8876792
-10.1635 -1.1510079 1.8769377
-10.116968 -1.1487607 1.8644019
-10.079399 -1.1473399 1.8543401
-10.013903 -1.1480465 1.8372785
-9.9664726 -1.1479713 1.8248347
-9.9198303 -1.1481712 1.8126388
-9.8923435 -1.1405106 1.8042791
-9.8084641 -1.1319484 1.7810018
-9.73283 -1.1401182 1.7624079
-9.5992393 -1.1816387 1.7336498
-9.4321165 -1.1324219 1.6824242
-9.3947678 -1.1261069 1.6716825
-9.3572006 -1.124686 1.6616209
-9.3108883 -1.1175449 1.6484051
-9.1976318 -1.1255172 1.6199195
-9.0757399 -1.1253226 1.5879399
-9.0205755 -1.1149081 1.57191
-8.90765 -1.1155396 1.5424048
-8.8145847 -1.1110452 1.5173329
-8.7479696 -1.1188178 1.5010432
-8.5971432 -1.1253694 1.4624959
-8.5215635 -1.1323158 1.443732
-8.2693682 -1.2670197 1.3979321
-8.2161531 -1.3641802 1.3986297
-8.2110071 -1.3784493 1.3994317
-8.1893768 -1.4227273 1.4004366
-8.0742388 -1.4722992 1.3777289
-7.9981451 -1.4159249 1.3492851
-7.986124 -1.4080595 1.3449483
-7.8041124 -1.2581605 1.2746425
-7.4578032 -1.2527623 1.1830535
-7.3351812 -1.325358 1.161855
-7.1545448 -1.3034122 1.1111979
-6.994143 -1.2866253 1.0666225
-6.9467125 -1.2952546 1.0554909
-6.9399796 -1.2881073 1.0526485
-6.6440001 -1.168576 0.95704693
-6.6063204 -1.1696069 0.94732577
-6.5397043 -1.1774049 0.93103963
-6.4932828 -1.1726999 0.91816235
-6.431922 -1.1637909 0.90073526
-6.310688 -1.1615065 0.86861289
-6.0814986 -1.0834887 0.79677635
-6.0182219 -1.0944577 0.7818436
-5.8617954 -1.1502619 0.74925297
-5.7713466 -1.1625779 0.72740102
-5.627604 -1.2115878 0.69711083
-5.5899248 -1.2126187 0.68738967
-5.5405626 -1.1858294 0.67041242
-5.3017125 -1.1634778 0.60443509
-5.2263536 -1.1655399 0.58499277
-5.1163001 -1.1025672 0.54665244
-5.0471354 -1.0848792 0.52585644
-4.9089909 -1.0494647 0.48430714
-4.7872186 -1.0498042 0.45243916
-5.0294304 -0.63485157 0.45337629
-5.6452694 -0.58710426 0.60760367
-5.1483779 -0.72692192 0.49843419
-5.3056908 -1.0753903 0.59219921
-5.3427067 -1.0890406 0.60395956
-3.2101672 1.2739815 -0.3112396
-3.1200259 1.2811685 -0.33595103
-3.0505159 1.2701168 -0.35250515
-3.0045023 1.2768276 -0.365578
-2.8758435 1.2811872 -0.3999595
-2.826596 1.2806995 -0.41279483
-2.7695851 1.2781643 -0.42735648
-2.72367 1.2873255 -0.44077289
-2.6214907 1.2965312 -0.46894407
-2.5459187 1.2943591 -0.48842573
-2.3490038 1.3020065 -0.54119426
-2.2733285 1.2973875 -0.56033415
-2.1894634 1.3009528 -0.58285451
-2.1638625 1.3010383 -0.58957803
-2.1432807 1.3031574 -0.59529233
-1.9830198 1.2849766 -0.63455963
-1.9608178 1.2832501 -0.64011896
-1.9466479 1.2828428 -0.64377189
-1.9074478 1.2828043 -0.65404129
-1.8613682 1.2874559 -0.666821
-1.7692094 1.2967589 -0.69238019
-1.6642473 1.2902097 -0.71890581
-1.6374495 1.2840397 -0.72500002
-1.5216024 1.2850212 -0.75551414
-1.4671266 1.2929635 -0.77099073
-1.3914516 1.2883446 -0.7901305
-1.3568788 1.2875537 -0.79907358
-1.2435203 1.2842954 -0.82829618
-1.1943307 1.2910985 -0.84221542
-1.1187587 1.2889262 -0.86169708
-1.0810752 1.2902869 -0.8717798
-1.0056067 1.2905614 -0.89160323
-0.92174053 1.2941269 -0.91412389
-0.883955 1.2930408 -0.9238646
-0.79189873 1.3047906 -0.9497658
-4.5516701 -0.37431824 0.28887066
-4.4068437 -0.39801857 0.25448108
-4.2739811 -0.36863571 0.21522561
-4.1012058 -0.42455232 0.17836651
-3.8633394 -0.77571619 0.16895249
-3.8962951 -0.89470816 0.19552836
-4.119854 -1.0545204 0.27821892
-4.2035494 -1.0626067 0.30137637
-11.022608 0.49229917 1.8544091
-11.007162 0.68634236 1.8211095
-11.026849 0.75724661 1.8155813
-11.042246 0.94870043 1.7907566
-11.042588 0.96863401 1.7878414
-11.040406 0.98215771 1.7852309
-11.022754 1.0598855 1.7688867
-11.016664 1.1558321 1.7528268
-10.869623 1.2412505 1.701408
-10.863824 1.2418398 1.6997989
-10.581594 1.3180954 1.6143254
-10.572998 1.3262753 1.6108388
-3.3154736 1.289892 -0.28603488
-3.4203863 1.2960012 -0.25945586
-3.5252988 1.3021103 -0.2328769
-3.596503 1.2842947 -0.21152711
-3.6341853 1.2829193 -0.20144236
-3.6803956 1.2811092 -0.18905675
-3.7560558 1.285709 -0.16991794
-3.9154117 1.2822227 -0.12762171
-3.9828386 1.2946081 -0.11181456
-4.0960827 1.2953821 -0.082247496
-4.1966381 1.2815261 -0.05380106
-4.2791519 1.2440358 -0.026520818
-4.4008255 1.2419249 0.0056907237
-4.438508 1.2405494 0.015775472
-4.5517516 1.2413234 0.045342505
-4.5895329 1.2423983 0.055083722
-4.6188836 1.2463578 0.06218037
-4.7039113 1.2626877 0.082006335
-7.7882881 1.260222 0.89086181
-7.6750307 1.2522476 0.86237657
-7.6565428 1.2518152 0.85759568
-7.5346527 1.2520101 0.82561612
-7.3751941 1.2536256 0.78357494
-7.2909822 1.2548467 0.76131713
-7.1981392 1.264235 0.73556554
-7.2734976 1.2662872 0.75500929
-7.3488555 1.2683396 0.77445292
-7.424324 1.2728388 0.79355663
-7.5007858 1.2889777 0.81116617
-7.6038656 1.281243 0.83935165
-7.6314211 1.2831304 0.84629005
-7.7733936 1.2929237 0.88202786
-7.8197064 1.2858158 0.895239
-7.895175 1.2903162 0.91434258
-7.9329643 1.2937902 0.92372429
-7.9419279 1.2929977 0.92619342
-8.0083218 1.2958432 0.94316781
-3.225064 -0.46824536 -0.044703245
-3.2094369 -1.0476638 0.038544804
-3.3689895 -1.0462495 0.080153912
-3.415791 -1.0333575 0.090478182
-3.4009533 -0.46350253 0.00068622828
-7.1137066 1.2605619 0.71398765
-7.0560551 1.251963 0.70017219
-7.0096335 1.2566572 0.68729639
-7.0378923 1.2574269 0.69458771
-6.9248557 1.2543484 0.66542232
-6.8589177 1.2525526 0.64840919
-6.8214598 1.2564206 0.63800752
-6.8791108 1.2650193 0.65182298
-6.9097252 1.2658532 0.65972197
-6.972065 1.2580781 0.67723465
-7.8260775 1.2636957 0.90024352
-7.8928022 1.2738832 0.91619778
-7.9595261 1.2840707 0.93215191
-0.093454361 1.3417537 -1.1384156
-0.29212284 1.4439238 -1.1017418
-0.32942152 1.4101758 -1.0868777
-0.39987135 1.3299525 -1.0563179
-6.740963 1.2526919 0.61746955
-6.7016444 1.2527382 0.6071564
-6.6907158 1.2598886 0.60321391
-6.7371378 1.2551945 0.6160897
0.065802574 1.3476906 -1.1810553
0.0062041283 1.3421988 -1.1646054
0.11568165 1.3466878 -1.1939785
0.17032194 1.3513827 -1.2090087
0 0 0 1 0 0 0 1 0 0 0 1 0 0 0 0 0 551 1 0 0
