ply
format ascii 1.0
comment PCL generated
element vertex 546
property float x
property float y
property float z
element camera 1
property float view_px
property float view_py
property float view_pz
property float x_axisx
property float x_axisy
property float x_axisz
property float y_axisx
property float y_axisy
property float y_axisz
property float z_axisx
property float z_axisy
property float z_axisz
property float focal
property float scalex
property float scaley
property float centerx
property float centery
property int viewportx
property int viewporty
property float k1
property float k2
end_header
-1.4090848 -1.1956576 -5.828558
-1.5098109 -1.2017093 -5.758965
-1.563808 -1.1893311 -5.7187009
-1.6449981 -1.1732067 -5.6586308
-1.6997714 -1.1705997 -5.6196709
-1.7267699 -1.1644106 -5.5995388
-1.7805734 -1.1495897 -5.558949
-1.9768949 -1.1387379 -5.4190216
-1.681726 -1.0132837 -5.6025705
-1.6550388 -1.0094081 -5.6205788
-1.6229143 -1.0069996 -5.6426835
-1.5319772 -0.99830693 -5.7049022
-1.3518291 -0.82076687 -5.7978163
-1.3254361 -0.62827569 -5.7799211
-1.3097939 -0.5152238 -5.7695098
-1.3008723 -0.40285408 -5.7545085
-1.2420702 -0.12416204 -5.7430592
-1.1895952 0.064753778 -5.7441578
-1.1886673 0.10442575 -5.7373013
-1.185564 0.14351085 -5.7320833
-1.1895251 0.20631304 -5.7174158
-1.1858439 0.25272936 -5.7112164
-1.1694384 0.28627667 -5.7163882
-1.0765643 0.40868106 -5.7584462
-1.0340528 0.52805853 -5.765708
-0.9979043 0.60922599 -5.775733
-0.95539284 0.72860366 -5.7829947
-0.87238216 0.92797893 -5.8035583
-0.82492304 1.1657884 -5.7918806
-1.1191897 1.3981985 -5.5412364
-1.2032871 1.3776939 -5.4860568
-1.3133712 1.3552605 -5.4129925
-1.3689194 1.3481053 -5.3753362
-1.4938073 1.3265163 -5.2917151
-1.5885506 1.3309052 -5.2243481
-1.6896639 1.3199657 -5.1554079
-1.7964549 1.3390626 -5.0767961
-1.6581659 1.3496217 -5.171916
-1.6016493 1.3689917 -5.2079406
-1.5180588 1.3971176 -5.261322
-1.4991794 1.397032 -5.2745967
-1.3695173 1.421321 -5.3610597
-1.2756739 1.4630914 -5.4190583
-1.1099524 1.4377649 -5.540235
-1.0952086 1.4413943 -5.5499024
-1.0783334 1.4442344 -5.5612164
-1.012609 1.4572031 -5.604919
-0.99501133 1.454967 -5.6177011
-0.90543079 1.4429921 -5.6828785
-0.54717588 1.2979543 -5.9619246
-0.51726961 1.3008313 -5.9823828
-0.48954487 1.3043005 -6.0011964
-0.4318552 1.2706679 -6.0480762
-0.40734625 1.2350476 -6.0720301
-0.44793129 1.0752193 -6.0737767
-0.4992528 0.79841799 -6.0901213
-0.78359509 0.44036269 -5.9581976
-0.77784538 0.250258 -5.9982147
-0.78056622 0.22922543 -6.0002847
-0.82603216 0.030804567 -6.0059075
-0.93482065 -0.13276121 -5.9604635
-0.98556566 -0.36968032 -5.9696651
-1.0642443 -0.57021624 -5.9523635
-1.1429229 -0.77075207 -5.9350619
-1.2406826 -0.90735155 -5.8922591
-1.2780786 -1.0181243 -5.8869615
-1.3623562 -1.1772276 -5.8578868
-8.681262 -1.3080639 -0.7427026
-8.5420008 -1.2702034 -0.83333826
-8.5228252 -1.2580563 -0.84450597
-8.4027729 -1.2063698 -0.91903484
-8.1706924 -1.2478474 -1.0898707
-8.1076317 -1.2540525 -1.1353315
-8.0191374 -1.2061212 -1.1884084
-7.7744365 -1.1013622 -1.340431
-7.6926517 -1.1001221 -1.3976326
-7.6471548 -1.0989505 -1.4293625
-7.5983443 -1.1048989 -1.4647671
-7.5842953 -1.1075959 -1.475144
-7.5534315 -1.1109589 -1.4974556
-7.5083199 -1.1145781 -1.5298218
-7.494308 -1.1174551 -1.5402064
-7.4536796 -1.1120569 -1.5677173
-7.4073768 -1.1010317 -1.5981485
-7.2963099 -1.0740229 -1.6710373
-7.2422652 -1.0788239 -1.7099004
-7.2149453 -1.0775632 -1.7288483
-7.1501813 -1.0615795 -1.771306
-7.1044741 -1.0578766 -1.8027045
-6.8085437 -1.1275549 -2.0237186
-7.0900488 -0.85319078 -1.7740964
-6.8997231 -0.40999934 -1.8238813
-6.6082802 -0.37960446 -2.0228045
-6.58077 -0.37588722 -2.0414209
-6.557703 -0.37085277 -2.0566676
-6.3005314 -0.6557917 -2.2912018
-6.3038774 -0.69479096 -2.2962332
-6.3061118 -0.73411947 -2.3021071
-6.3898029 -0.94842201 -2.283891
-6.6322551 -1.0671051 -2.1360826
-6.6379156 -1.066911 -2.1320705
-6.6894598 -1.0603794 -2.0946357
-6.775754 -1.1154052 -2.0444469
-3.4647684 -1.0528464 -4.3578572
-3.4996409 -1.0430716 -4.3315167
-3.5725434 -1.0451193 -4.2807059
-3.6170981 -1.0363734 -4.2477608
-3.671571 -1.0473173 -4.2115765
-3.7117016 -1.0523087 -4.1843386
-3.7566862 -1.0564244 -4.1535254
-3.813251 -1.0475949 -4.1121297
-3.9085028 -1.042122 -4.0442004
-3.954082 -1.0455862 -4.0128465
-4.0374861 -1.0584307 -3.9567041
-4.2688942 -0.70890337 -3.7280388
-4.2434044 -0.59326476 -3.7240543
-4.2315102 -0.54958194 -3.7241402
-4.2252407 -0.42574528 -3.7051058
-4.1431661 -0.23895979 -3.7273946
-4.1154227 -0.19550398 -3.7386539
-4.0063734 -0.049879026 -3.7876766
-4.012567 -0.030646814 -3.7796872
-4.0362225 -0.0051024146 -3.7582397
-4.039484 -0.0030938461 -3.7555692
-4.0710955 0.0046724975 -3.7318993
-4.186161 -0.026952798 -3.6570759
-4.3140688 -0.0045045838 -3.563
-4.3475051 0.0058128834 -3.5375652
-4.4765768 0.070741825 -3.4346323
-4.5531263 0.12493899 -3.3706155
-4.5798903 0.13095748 -3.3506804
-4.6187015 0.098337777 -3.3295975
-4.6685934 0.014776103 -3.3103743
-4.7188187 -0.035024412 -3.2845271
-4.7464247 -0.058143828 -3.269515
-5.0560236 -0.2199069 -3.0827041
-5.1012964 -0.21143234 -3.0493059
-5.3724346 -0.22038737 -2.8605847
-5.5699301 -0.29088205 -2.7352288
-5.8129182 -0.2573379 -2.5582337
-6.0042815 -0.0028424636 -2.3756771
-6.016573 0.012361094 -2.3641675
-6.0380192 0.041213535 -2.3436458
-6.0668526 0.034920499 -2.3245873
-6.3258753 -0.0084236972 -2.1508832
-6.3989439 -0.00051012263 -2.0980709
-6.4266629 -0.0066648014 -2.0797689
-6.4410453 -0.015835732 -2.0714042
-6.4587255 -0.049101409 -2.0652835
-6.8682833 -0.33034065 -1.8308849
-6.9633512 -0.32676378 -1.7634431
-6.981143 -0.32188398 -1.7500247
-6.9889269 -0.31974903 -1.7441543
-7.0195737 -0.31978017 -1.7226374
-7.0273132 -0.32082123 -1.717399
-7.0546417 -0.33424535 -1.7007475
-7.0883126 -0.3508442 -1.6802425
-7.3138247 -0.62013185 -1.5728341
-7.4084945 -0.68153822 -1.5179707
-7.5069628 -0.92670745 -1.4952183
-7.7406769 -1.0658606 -1.3574209
-7.7718668 -1.0694571 -1.3361974
-7.8716664 -1.0680224 -1.2658381
-7.9165592 -1.0618726 -1.2331468
-8.0624123 -1.0691102 -1.1320865
-8.1079092 -1.0702816 -1.1003563
-8.1631708 -1.080057 -1.0633972
-8.2264328 -1.0762923 -1.0182567
-8.2355938 -1.0775745 -1.0120659
-8.2725344 -1.0847853 -0.98748797
-8.3451586 -1.0847435 -0.93647712
-8.3730917 -1.0932916 -0.91847801
-8.4953938 -1.1458502 -0.84253448
-8.5861864 -1.145753 -0.77875412
-8.6998444 -1.1344752 -0.69679916
-8.7208166 -1.1274828 -0.68074787
-8.8605061 -1.141094 -0.58522201
-8.9289246 -1.1187533 -0.53294492
-8.9548922 -1.1027178 -0.51167333
-9.1029282 -0.86170328 -0.36209571
-9.1053066 -0.74616545 -0.33855891
-9.1139183 -0.60967338 -0.30667889
-9.1071815 -0.50740314 -0.29205477
-9.0579405 -0.38498896 -0.30346799
-9.06182 -0.30826938 -0.28622317
-9.1317205 -0.28106701 -0.23198533
-9.1855736 -0.2663945 -0.19138801
-9.3154993 -0.12186474 -0.072789788
-9.3361025 -0.11006559 -0.056087613
-9.3701754 -0.083289057 -0.027091265
-9.3945284 -0.062458698 -0.0060459375
-9.4036903 -0.056376439 0.0015397072
-9.413208 -0.055354279 0.0084166527
-9.4493418 -0.052803218 0.034276128
-9.5037985 -0.052816555 0.072517395
-9.5676651 -0.05637338 0.11669683
-9.6265993 -0.1098977 0.1479553
-9.6788063 -0.15776053 0.17556119
-9.9098511 -0.24139112 0.32199228
-10.00381 -0.29434782 0.37795532
-9.9859114 -0.33916697 0.3569032
-9.9747744 -0.38274708 0.34083354
-9.9195232 -0.42249864 0.29450858
-9.8985367 -0.43575966 0.27725971
-9.7025414 -0.79661435 0.071321487
-10.034689 -1.0609006 0.25456393
-10.080984 -1.071907 0.28499353
-10.10892 -1.0804398 0.30299747
-10.132065 -1.0858827 0.31822121
-10.192327 -1.1011555 0.35765254
-10.248198 -1.1182209 0.39365995
-10.284912 -1.1230478 0.41852987
-10.357746 -1.1254983 0.46921623
-10.413218 -1.1376815 0.5058676
-10.386081 -1.1389136 0.4865762
-10.339786 -1.1279072 0.45614707
-3.588161 -1.0881501 -4.2778821
-3.6135685 -1.0873513 -4.2598877
-3.7595353 -1.0826344 -4.1564846
-3.812459 -1.0752983 -4.117929
-3.9915352 -1.1275421 -4.0020542
-4.0236359 -1.1143287 -3.9770098
-4.1383266 -1.066388 -3.8873916
-4.2205009 -1.0645808 -3.8293395
-4.3041105 -1.0798674 -3.7735152
-4.4106555 -1.0574882 -3.6944549
-4.4663267 -1.0668653 -3.6571326
-4.5463686 -1.0556705 -3.5988019
-4.6275182 -1.0416533 -3.5391588
-5.0328951 -0.99918997 -3.2464328
-5.2384176 -1.0768714 -3.1167998
-5.4753437 -1.1642967 -2.9669566
-5.518589 -1.1581551 -2.9354236
-5.5659113 -1.1611935 -2.9027653
-5.6461153 -1.1759633 -2.8492343
-5.7917032 -1.1802945 -2.7478101
-5.9078341 -1.1333715 -2.6573727
-6.0743065 -1.0890212 -2.5320683
-6.1377816 -1.0870755 -2.4871225
-6.2385044 -1.0978332 -2.4184227
-6.2660146 -1.1015505 -2.3998063
-6.3941741 -1.1657228 -2.3219471
-6.4371123 -1.1907983 -2.2965384
-6.5257459 -1.1801451 -2.232276
-6.7816086 -1.1836537 -2.053252
-2.730432 -0.32576379 -4.7359629
-2.7357945 -0.30934635 -4.7290897
-2.7861228 -0.27954024 -4.6881037
-2.7615037 -0.37087393 -4.7226791
-2.7558084 -0.36732131 -4.7260065
-10.642735 1.3615438 1.1400529
-10.60778 1.3662484 1.1163963
-10.446026 1.3250268 0.99499667
-10.167462 1.2897102 0.79268253
-10.414024 1.2739025 0.96284664
-10.534348 1.2457986 1.0420288
-10.653983 1.2249284 1.1220971
-10.907255 0.85568172 1.2300829
-10.846659 0.62469769 1.1438109
-10.760052 0.55891657 1.0705391
-10.759957 0.49866241 1.0590693
-10.763775 0.326711 1.0292069
-10.758681 0.30565435 1.0216445
-10.755929 0.22153819 1.0037917
-10.689553 0.072831534 0.92903316
-10.686476 0.027156405 0.91822755
-10.722345 -0.071583383 0.9247309
-10.730463 -0.24028882 0.89850295
-10.730716 -0.27805194 0.89153326
-10.7285 -0.355023 0.8754102
-10.76298 -0.42964375 0.8855015
-10.767827 -0.6693095 0.84354699
-10.75659 -0.71231985 0.82751501
-10.767333 -0.74650925 0.82858932
-10.784296 -0.78739548 0.83276379
-10.805784 -0.86977386 0.83226454
-10.838736 -0.91188103 0.84743583
-10.985159 -0.77316171 0.97652066
-10.996572 -0.76005238 0.98701704
-11.005812 -0.72038925 1.0010124
-11.016279 -0.59863818 1.0314058
-10.968576 -0.34843171 1.0452594
-10.975831 -0.29144636 1.0611385
-10.987236 -0.24349061 1.0782236
-10.945288 -0.14008315 1.0683354
-10.916886 0.061628304 1.0865649
-10.862886 0.25782126 1.0857729
-10.859697 0.29687971 1.0909258
-10.958803 0.60478777 1.2188002
-10.998026 0.62624723 1.2504076
-11.002299 0.62796009 1.2537326
-11.0478 0.64127505 1.2882072
-11.060896 0.65395862 1.2998041
-11.093165 0.84285474 1.3582169
-11.107971 0.92537183 1.3842324
-11.107025 0.97134328 1.3922681
-11.105558 1.0101733 1.3985873
-11.113478 1.093604 1.4199382
-11.115852 1.1270951 1.427945
-11.115454 1.1319774 1.428589
-11.082474 1.167778 1.4122027
-11.066577 1.1747162 1.402352
-11.039625 1.1710479 1.3827296
-10.832691 1.2107097 1.2449096
-10.797981 1.2394618 1.2259756
-10.727644 1.2947066 1.1870345
-2.5169301 -1.078236 -5.0283136
-2.7277842 -1.0864023 -4.8817797
-2.793849 -1.0754775 -4.8333158
-2.8297615 -1.0752314 -4.8080482
-2.8543453 -1.0716081 -4.7900977
-2.9477367 -1.0745382 -4.7250652
-2.9802978 -1.0788956 -4.703023
-3.020726 -1.0796903 -4.6747813
-3.0937147 -1.0848427 -4.6244974
-3.0745902 -1.0658027 -4.634325
-2.9419401 -1.0554622 -4.7255259
-2.8836222 -1.0523311 -4.7658887
-2.8593922 -1.054487 -4.7833133
-2.8118033 -1.0708481 -4.8198304
-2.7072344 -1.072291 -4.8935409
-5.3423905 -1.0398839 -3.0367811
-5.3249545 -1.0447714 -3.0499513
-5.2064724 -1.0392596 -3.1321158
-5.1140056 -0.47639698 -3.0905275
-5.3508749 -0.4538241 -2.9199057
-5.5262237 -0.71599156 -2.8463788
-5.5468559 1.2718698 -2.4556689
-5.5635033 1.2490168 -2.448303
-5.47229 1.2539155 -2.5114331
-5.3903322 1.2576998 -2.5682747
-5.3717461 1.2625484 -2.58041
-5.2893891 1.2712135 -2.6366079
-5.2298999 1.2631135 -2.6799192
-5.1901174 1.2625843 -2.7079577
-5.1569982 1.2651548 -2.7307305
-5.1172915 1.265075 -2.758631
-5.0561571 1.27311 -2.8000438
-4.9931431 1.2716595 -2.8445721
-4.9038324 1.2565886 -2.9101458
-4.8031974 1.2621019 -2.9797766
-4.7754641 1.265574 -2.9985962
-4.6849222 1.2651539 -3.0622621
-4.619977 1.2707063 -3.1068206
-4.557169 1.266814 -3.1516666
-4.4380722 1.2796334 -3.2328801
-4.3473248 1.2816552 -3.2962277
-4.2895546 1.2841789 -3.3363214
-4.1918383 1.2867875 -3.4044521
-4.0931339 1.285298 -3.4740524
-4.0485811 1.2765415 -3.5069985
-4.0036178 1.2726687 -3.5393083
-3.9630768 1.2825373 -3.5659118
-3.8754539 1.2792124 -3.628077
-3.8199871 1.2861569 -3.6657164
-3.7464695 1.2955236 -3.7155738
-3.665405 1.2964956 -3.77232
-3.592298 1.3009785 -3.8228135
-3.4466994 1.3026191 -3.9247546
-3.4019415 1.2963045 -3.9573822
-3.3383121 1.3021796 -4.0009561
-3.2910073 1.3101933 -4.032661
-3.2826397 1.3115659 -4.0382776
-3.1725268 1.3156872 -4.1148281
-3.1091025 1.3191205 -4.15872
-3.0290642 1.3078831 -4.2170563
-2.9143655 1.2618623 -4.3063173
-2.8590744 1.2661707 -4.3443317
-2.7957144 1.2627484 -4.3894758
-2.6370282 1.2796537 -4.4977193
-2.5816741 1.2843659 -4.5357018
-2.5538998 1.2879434 -4.5545301
-2.4977708 1.3024276 -4.5912075
-2.386868 1.3142949 -4.6668468
-2.3589001 1.3203155 -4.6853485
-2.4210949 1.3309821 -4.6396513
-2.5505638 1.309136 -4.5528622
-2.6164122 1.3150424 -4.5054998
-2.6617889 1.3135936 -4.473907
-2.7066875 1.3187081 -4.4414077
-2.7310815 1.3159851 -4.4247913
-2.8702099 1.3371111 -4.3230853
-2.9021561 1.3437778 -4.2993884
-2.9408147 1.3430324 -4.2723804
-2.9603415 1.342415 -4.2587838
-3.0233555 1.3438653 -4.2142553
-3.0788224 1.336921 -4.1766162
-3.1515191 1.3373215 -4.1254869
-3.2874346 1.3367308 -4.0301476
-3.4055054 1.3361206 -3.9473438
-3.4784071 1.3340793 -3.8965325
-3.5237808 1.3330685 -3.8648586
-3.5786321 1.3334497 -3.8262653
-3.633894 1.3289472 -3.7883079
-3.6517391 1.3289665 -3.7757719
-3.7151635 1.3255333 -3.7318797
-3.80509 1.333279 -3.6672602
-3.8315005 1.32514 -3.6502528
-3.9626286 1.3037282 -3.562216
-4.0628538 1.3030986 -3.4919488
-4.1256623 1.3069909 -3.4471025
-4.1713252 1.3185118 -3.412854
-4.2324076 1.3269652 -3.3683567
-4.3053007 1.3226565 -3.3179808
-4.3288898 1.3177841 -3.3023367
-4.4365549 1.3029759 -3.229528
-4.4633436 1.3054633 -3.2102442
-4.5248365 1.3090329 -3.1663828
-4.5885501 1.3181316 -3.119916
-4.6006908 1.3209565 -3.1108546
-4.6210957 1.3210591 -3.0965054
-4.6786819 1.3234353 -3.055614
-4.7517891 1.3189523 -3.0051208
-4.8356047 1.3012103 -2.949616
-4.9710259 1.2905294 -2.8565333
-5.0161943 1.2919604 -2.8245413
-5.0540209 1.2825547 -2.7997565
-5.109283 1.278052 -2.7617991
-5.1718864 1.2843862 -2.716635
-5.2252197 1.2799109 -2.6800268
-5.2903671 1.2788923 -2.6344678
-5.3531594 1.2673972 -2.5925453
-5.3806782 1.2636954 -2.57392
-5.4352407 1.2637918 -2.5355833
-6.9951563 1.2898417 -1.4351506
-6.8697309 1.2680311 -1.5273626
-6.7414713 1.2828707 -1.6146286
-6.6845207 1.312211 -1.6490711
-6.5594282 1.2879978 -1.7415038
-6.4582896 1.3040135 -1.8095007
-6.439702 1.3089118 -1.8216274
-6.3591933 1.293142 -1.8811519
-6.2866969 1.2932858 -1.9320377
-6.205267 1.2868237 -1.9904479
-6.1691484 1.2873511 -2.0157135
-6.2147975 1.2806492 -1.9849232
-6.2331848 1.2782409 -1.972466
-6.3523912 1.2621399 -1.8917966
-6.433836 1.2673885 -1.8336058
-6.4794569 1.2620075 -1.8025854
-6.5159597 1.2623926 -1.7768773
-6.644021 1.2499939 -1.6892884
-6.7530365 1.2498542 -1.6127553
-6.8078723 1.2448837 -1.5751855
-6.9073644 1.2508734 -1.5041804
-6.9444046 1.2410383 -1.4800291
-6.9721193 1.2348919 -1.4617286
-7.0172343 1.2384915 -1.429364
-7.1877747 1.2639021 -1.3047873
-7.2428083 1.2564907 -1.2675405
-7.3528757 1.241668 -1.1930472
-7.6076593 1.0780813 -1.0450771
-7.669292 1.0530076 -1.006539
-7.7145896 1.0542072 -0.97450024
-7.7940063 1.0823163 -0.91340733
-7.8961763 1.165244 -0.82596028
-7.913538 1.1749765 -0.81192565
-8.0878248 1.2503887 -0.67525411
-8.1406784 1.2424821 -0.63963282
-8.1972904 1.2579412 -0.59694898
-8.3062401 1.2579875 -0.52042699
-8.4255676 1.2420893 -0.43963385
-8.467535 1.2423797 -0.41010571
-8.5724325 1.2225406 -0.34019268
-8.6905642 1.2212898 -0.25746799
-8.8084965 1.2224801 -0.17442095
-8.9615498 1.2382528 -0.06394887
-9.0042286 1.2437286 -0.03294003
-9.0695066 1.2503846 0.014163375
-9.1694775 1.2491663 0.084140897
-9.1966152 1.2503984 0.1034323
-9.3227253 1.2626184 0.19431067
-9.3857841 1.2686681 0.23974049
-9.4033451 1.2759593 0.25345337
-9.5400085 1.2770814 0.34964192
-9.6036873 1.26864 0.39276445
-9.6938829 1.2759219 0.4574858
-9.7381821 1.2893279 0.49113357
-9.6286345 1.2966052 0.41557753
-9.6008987 1.3026967 0.39725173
-9.545826 1.3099971 0.35995686
-9.4919443 1.302771 0.32074916
-9.4409027 1.3023762 0.28482854
-9.3594036 1.3136301 0.22972286
-9.2732487 1.3124433 0.16899359
-9.2235107 1.3100312 0.13360715
-9.1116161 1.2905233 0.05133307
-9.0389814 1.2905328 0.00032484531
-8.9753246 1.2918067 -0.044138908
-8.9109478 1.274105 -0.092700601
-8.8312531 1.277178 -0.14808691
-8.713521 1.2735465 -0.23145533
-8.6867828 1.2674319 -0.25139058
-8.6688232 1.265023 -0.26445937
-8.5498934 1.2760389 -0.3458966
-8.4485254 1.294346 -0.41362131
-8.3852682 1.2907375 -0.45872867
-8.2773113 1.2786057 -0.53684056
-8.2442389 1.2805351 -0.55970168
-8.2341366 1.2791725 -0.56705415
-8.2092686 1.2779665 -0.58474708
-8.1506014 1.2737095 -0.62675369
-8.0959282 1.2761275 -0.66469252
-8.050231 1.2798103 -0.69608736
-7.9319005 1.2835025 -0.7784903
-7.8592663 1.2835118 -0.82949847
-7.8231459 1.2811356 -0.85531473
-7.7680731 1.2884361 -0.89260989
-7.73034 1.2924552 -0.91834849
-7.7028232 1.2961608 -0.93697178
-7.6501417 1.2872459 -0.97565645
-7.6115046 1.2878648 -1.0026736
-7.5947976 1.2840966 -1.0151197
-7.4946489 1.287908 -1.0847309
-7.4220171 1.2880138 -1.1357191
-7.3862276 1.2807251 -1.1622329
-7.231441 1.2870665 -1.2697368
-7.1859303 1.2883482 -1.3014557
-7.0955029 1.2835895 -1.3658621
-7.0226731 1.286136 -1.4165272
-8.8784227 -1.3390316 -0.61010087
-9.0012808 -1.3070168 -0.51776087
-9.1381588 -1.2743092 -0.41544354
-9.1579218 -1.2526739 -0.39746952
-9.3227701 -1.1597694 -0.26411617
-9.4818335 -1.1072497 -0.14246917
-9.5460539 -1.1158665 -0.098998666
-9.5735846 -1.119534 -0.080358386
-9.6366453 -1.1133291 -0.034897566
-9.6635714 -1.1096748 -0.015296459
-9.6997061 -1.107124 0.010563374
-9.7826996 -1.1230069 0.065842152
-9.8459625 -1.1192423 0.11098278
-9.8947973 -1.1265538 0.14389539
-9.9736462 -1.1265349 0.19927323
-10.058426 -1.1290461 0.2583369
-10.13106 -1.1290556 0.30934489
-10.14902 -1.1266469 0.32241404
-10.221456 -1.124215 0.37374437
-10.257575 -1.1218387 0.39956033
-10.148614 1.2845497 0.77846897
-10.113563 1.2896506 0.75481832
-10.048933 1.295844 0.71060169
-10.008644 1.3022181 0.68351376
-10.025744 1.301301 0.69535005
-10.089975 1.3106318 0.74222386
0 0 0 1 0 0 0 1 0 0 0 1 0 0 0 0 0 546 1 0 0
