ply
format ascii 1.0
comment PCL generated
element vertex 542
property float x
property float y
property float z
element camera 1
property float view_px
property float view_py
property float view_pz
property float x_axisx
property float x_axisy
property float x_axisz
property float y_axisx
property float y_axisy
property float y_axisz
property float z_axisx
property float z_axisy
property float z_axisz
property float focal
property float scalex
property float scaley
property float centerx
property float centery
property int viewportx
property int viewporty
property float k1
property float k2
end_header
0.030883789 1.4043238 -1.8996917
0.15261221 1.3928037 -1.9335686
0.16438484 1.3656079 -1.9320487
0.42765474 0.97998178 -1.938984
0.41835833 0.97359264 -1.9350601
0.040116787 1.2866112 -1.8807753
-0.046038151 1.3226379 -1.8619242
-0.17716646 1.3382225 -1.8260151
-0.29667711 1.3097285 -1.7854357
-0.34292555 1.3000171 -1.769974
-0.41708803 1.2982273 -1.7477149
-0.47441196 1.3052852 -1.7320619
-0.73538971 1.3496299 -1.6630449
-0.77273893 1.3535964 -1.6527301
-0.84690332 1.3518363 -1.6304759
-0.90276051 1.3422267 -1.6121916
-1.0048862 1.348798 -1.5832012
-1.1346402 1.3325818 -1.5418506
-1.2089376 1.3332449 -1.5200025
-1.2833695 1.3363315 -1.4985605
-1.3297048 1.3286633 -1.4834489
-1.4414864 1.3357164 -1.4516919
-1.5558085 1.3888115 -1.4276503
-1.6602759 1.4127293 -1.4011574
-1.7067456 1.4074843 -1.3864517
-1.8743169 1.4287766 -1.340816
-2.0766294 1.3817213 -1.2723385
-2.1604488 1.3804429 -1.2473179
-2.2441339 1.3767414 -1.2218913
-2.402251 1.3761262 -1.1750226
-2.4487209 1.3708814 -1.1603168
-2.58833 1.3838423 -1.1214175
-2.6347995 1.3785975 -1.1067119
-2.6980629 1.3675648 -1.085976
-2.7369933 1.3613199 -1.0733157
-2.7710464 1.3601515 -1.0630313
-2.8747914 1.354528 -1.0313195
-3.0480266 1.3631471 -0.98167849
-3.0736024 1.3574286 -0.97306395
-3.1445274 1.3535777 -0.95138311
-3.4011638 1.29677 -0.86504865
-3.5692389 1.3022599 -0.81635797
-3.6392646 1.3099886 -0.79707247
-3.6813827 1.316568 -0.78582793
-3.7654848 1.3205266 -0.76168668
-3.9051323 1.3083847 -0.71815985
-3.9887197 1.3026333 -0.69238514
-4.1003485 1.3072312 -0.66022176
-4.2400198 1.3221785 -0.62166935
-4.3146729 1.3030095 -0.59606928
-4.4161048 1.2970039 -0.56497121
-4.4764509 1.3072253 -0.54900628
-4.5649438 1.3031346 -0.5220865
-4.611321 1.2958503 -0.50703311
-4.7159796 1.3069333 -0.4781234
-4.751121 1.3132253 -0.46888909
-4.8299313 1.3082408 -0.44466802
-4.8714037 1.2992964 -0.43075982
-4.9640298 1.2823008 -0.40024468
-5.0310631 1.2784324 -0.3797113
-5.1032476 1.2749332 -0.35772273
-5.1509552 1.2798673 -0.34452277
-5.2253752 1.2829326 -0.32308042
-5.2992597 1.2900338 -0.30253845
-5.3547983 1.2996999 -0.287893
-5.3844576 1.308015 -0.28065184
-5.4215388 1.3094785 -0.26995587
-5.4685054 1.3066059 -0.25553957
-5.5239844 1.3063776 -0.23909226
-5.592392 1.2997007 -0.21763617
-5.7004495 1.3037802 -0.18643355
-5.8217225 1.3062586 -0.15102851
-5.8684015 1.2985383 -0.1358057
-5.9153681 1.2956659 -0.1213894
-5.9524498 1.2971294 -0.11069343
-6.0167289 1.3043928 -0.093021609
-6.1375713 1.2995999 -0.056406878
-6.3055234 1.2943583 -0.0057790577
-6.3428926 1.3006693 0.0041105822
-6.4733319 1.2866927 0.045251973
-6.5380421 1.3012273 0.061714038
-6.6590281 1.2988582 0.097925574
-6.9063177 1.3837992 0.15542968
-6.9804811 1.3867265 0.17682162
-7.0122957 1.3741813 0.1885362
-7.3104935 1.2768686 0.29460922
-7.357316 1.2715722 0.30942872
-7.4317675 1.2793471 0.33001441
-7.4997563 1.2880743 0.34851405
-7.6077223 1.2982724 0.37856451
-7.7224827 1.2995168 0.41227052
-7.8063679 1.2957417 0.43776977
-7.8805628 1.2987479 0.45915651
-7.788651 1.2806758 0.43530136
-7.6369452 1.2779926 0.39093506
-7.5931911 1.2750945 0.37852973
-7.5288277 1.2677302 0.36085156
-7.3397164 1.2565888 0.30697978
-7.1816483 1.2574943 0.26007214
-7.0432057 1.2473037 0.22100839
-6.9497042 1.2603202 0.1909661
-6.8755407 1.257393 0.16957405
-6.838459 1.2559294 0.15887809
-6.7074451 1.260211 0.11934951
-6.6803913 1.256835 0.11197059
-6.5224671 1.2601644 0.064659767
-6.4314346 1.2613732 0.037518919
-6.3911653 1.2595983 0.025937561
-6.3167143 1.2518234 0.0053520128
-6.2425508 1.2488964 -0.016040072
-6.1393089 1.2686728 -0.05020573
-6.01861 1.2758894 -0.087223731
-5.9541874 1.2662022 -0.10449228
-5.8605423 1.276795 -0.13413125
-5.7591815 1.2680681 -0.16249907
-5.6477923 1.2612535 -0.19418392
-5.5736289 1.2583263 -0.21557596
-5.4897251 1.262159 -0.2410914
-5.4430456 1.2698791 -0.25631419
-5.3861952 1.2770879 -0.27445072
-5.3287697 1.2746016 -0.29097438
-5.2531362 1.2613375 -0.31090024
-5.1733017 1.2591226 -0.33410019
-5.0880237 1.2613089 -0.35971907
-5.037291 1.2635183 -0.37512708
-4.889462 1.2270724 -0.41213831
-4.767117 1.2248071 -0.44789949
-4.6609745 1.2214702 -0.47867253
-4.61905 1.2332417 -0.49323425
-4.5728016 1.2429532 -0.50869608
-4.4950171 1.2639716 -0.53556216
-4.4163384 1.2747697 -0.56081337
-4.3607931 1.2908704 -0.580199
-4.2120829 1.2871672 -0.62349206
-4.1004539 1.2825693 -0.65565556
-4.0540762 1.2898535 -0.67070889
-3.9423184 1.282828 -0.70246404
-3.8120961 1.2910084 -0.74247545
-3.7002099 1.2815554 -0.77382213
-3.6630001 1.2800227 -0.78454334
-3.6095877 1.2795618 -0.80025268
-3.578898 1.276064 -0.80868459
-3.541431 1.2696763 -0.81858897
-3.4671402 1.2690387 -0.84043962
-3.3922062 1.2562631 -0.86024851
-3.234328 1.2613769 -0.90787381
-3.1494777 1.2699423 -0.93453944
-3.1072686 1.2724156 -0.94747555
-3.0475309 1.2662377 -0.96400404
-2.9694779 1.2688564 -0.98756599
-2.9264767 1.2656015 -0.99968302
-2.8446953 1.2694026 -1.024565
-2.8350399 1.2689209 -1.0273316
-2.7973888 1.2685403 -1.038395
-2.7600505 1.2645801 -1.0487078
-2.7504966 1.2661142 -1.051815
-2.7315176 1.2716099 -1.0584378
-2.5749311 1.265388 -1.1035966
-2.4948065 1.2790847 -1.1298084
-2.4174831 1.2781196 -1.1524956
-2.3711469 1.2857876 -1.1676074
-2.2592325 1.2763113 -1.1989582
-2.2384322 1.2778665 -1.205395
-2.1361887 1.2879704 -1.2374866
-2.0923963 1.2934076 -1.251436
-1.9999919 1.3135903 -1.2824715
-1.9255602 1.3105037 -1.3039136
-1.8512628 1.3098407 -1.3257616
-1.8046591 1.3126621 -1.3400613
-1.702533 1.3060908 -1.3690518
-1.5812311 1.3009794 -1.4039811
-1.4505405 1.3002328 -1.4424893
-1.4039369 1.3030545 -1.456789
-1.1898971 1.2870069 -1.5171301
-1.1436944 1.2970982 -1.532648
-0.80331278 1.0549245 -1.5887655
-10.730417 -0.9985745 1.7243276
-10.698075 -1.0772532 1.7292323
-10.683847 -1.0724599 1.7241436
-10.370157 -1.1583824 1.6471852
-10.333344 -1.1550322 1.6356833
-10.212078 -1.1576051 1.6002979
-10.091095 -1.1553307 1.5641046
-10.035578 -1.155146 1.5476539
-9.9591455 -1.157025 1.5253985
-9.9330149 -1.1545533 1.517217
-9.8581057 -1.1408379 1.4925439
-9.8443356 -1.1389757 1.4881297
-9.6268787 -1.1935945 1.4338713
-9.2747002 -1.1066425 1.3137413
-9.2183523 -1.0921853 1.2944205
-9.1715603 -1.086917 1.2796152
-9.1243439 -1.0889195 1.2660216
-9.069828 -1.1005968 1.2520485
-9.0151711 -1.1146977 1.2384794
-8.9304361 -1.1254681 1.2154034
-8.827013 -1.1105899 1.1820852
-8.7526808 -1.1160076 1.1611011
-8.460907 -1.2734405 1.103774
-8.3774376 -1.3200399 1.087661
-8.3542814 -1.3312619 1.0828773
-8.3338089 -1.3289571 1.0763997
-8.2009497 -1.3464081 1.0403221
-8.0679455 -1.3231363 0.99671298
-8.0022383 -1.3320498 0.97892231
-7.9651427 -1.3335469 0.96822828
-7.9137411 -1.338752 0.95398599
-7.8891335 -1.3352723 0.94606936
-7.7145276 -1.2826093 0.88475376
-7.6434145 -1.2508178 0.85787922
-7.4313726 -1.24526 0.7941559
-7.3287916 -1.2735103 0.76901746
-7.2990732 -1.2818867 0.76176995
-7.2739911 -1.2900754 0.75585902
-7.2000818 -1.2882321 0.73366487
-7.1649637 -1.2558056 0.71731734
-6.8839731 -1.1126864 0.6079092
-6.9859896 -1.0941298 0.63466311
-7.0431828 -1.0940725 0.6515649
-7.1442099 -1.0924802 0.68114597
-7.1914253 -1.0904888 0.69474149
-7.2556391 -1.0855514 0.71282166
-7.2827573 -1.0821157 0.72020876
-7.3395267 -1.0893286 0.73832208
-7.4866385 -1.0763834 0.77944285
-7.5422869 -1.0740267 0.79546487
-7.5887961 -1.0841527 0.8110798
-7.6071987 -1.0859284 0.81684804
-7.6798563 -1.0874435 0.83861166
-7.7148967 -1.0889335 0.84924716
-7.7821274 -1.1438618 0.87922841
-7.9071608 -1.1922048 0.92509109
-8.0496521 -1.2292968 0.97404701
-8.1207399 -1.221981 0.99372256
-8.4181128 -1.1415983 1.0668746
-8.4632149 -1.1183085 1.0759287
-8.5043974 -1.0973293 1.0842484
-8.5081758 -1.0974425 1.0853864
-8.6495419 -1.096282 1.1269752
-8.7044811 -1.0773339 1.1397365
-9.0193272 -0.79836529 1.181537
-9.0419159 -0.67423689 1.1653901
-9.0422812 -0.64269197 1.1596971
-9.0437546 -0.62831938 1.1574897
-9.047226 -0.57227546 1.14821
-9.0387325 -0.50888348 1.1340412
-9.0258427 -0.45953476 1.1211548
-8.9523726 -0.34196645 1.0778096
-8.949707 -0.30830738 1.0708317
-9.1077471 -0.0067487359 1.0621099
-9.1153164 0.13399066 1.038467
-9.1144705 0.14826967 1.0355912
-9.1187515 0.15582858 1.035467
-9.1300602 0.16582726 1.0369725
-9.150362 0.17135228 1.0419596
-9.1938066 0.17355119 1.0544021
-9.2315092 0.1746278 1.0653527
-9.2704229 0.17486282 1.0768163
-9.2885637 0.17235623 1.0826416
-9.3490171 0.17224713 1.1005378
-9.465251 0.19118665 1.1314256
-9.4917412 0.19480528 1.1385936
-9.5147877 0.17893843 1.1483262
-9.5303936 0.16545163 1.1554211
-9.5589914 0.13758178 1.1690024
-9.5481043 -0.024086818 1.1955129
-9.6281252 -0.26729137 1.263899
-9.6579657 -0.36125493 1.290002
-9.6658068 -0.71011114 1.356473
-9.9006071 -1.1080787 1.4990876
-9.9577942 -1.1120402 1.5167265
-9.97754 -1.1121306 1.5225819
-9.9959602 -1.1138126 1.5283383
-10.042471 -1.123928 1.5439515
-10.153757 -1.1194371 1.5760336
-10.195914 -1.1104821 1.5868526
-10.358629 -1.1254828 1.6377262
-10.642157 -0.99788362 1.6981014
-10.702993 -0.8163079 1.6827004
-10.692759 -0.72503424 1.6628892
-10.683511 -0.63120562 1.6429003
-10.624172 -0.48025346 1.5975949
-10.600525 -0.43889713 1.5829968
-10.580375 -0.40934044 1.5716033
-10.58593 -0.40060493 1.5716397
-10.573624 0.040989503 1.4867942
-10.562134 0.061189964 1.4796821
-10.622 0.25862789 1.4610769
-10.629889 0.56592017 1.406901
-10.639498 0.59782469 1.4038751
-10.669542 0.61103272 1.4103304
-10.693995 0.62151122 1.4156344
-10.883955 0.92893076 1.4152738
-10.87837 0.97321415 1.4054786
-10.773242 1.1447848 1.3428414
-10.66414 1.2177751 1.2971572
-10.434105 1.2115089 1.2302877
-10.429975 1.2126868 1.2288496
-10.074287 1.2466205 1.1174321
-10.011038 1.2613239 1.096025
-9.964695 1.2738832 1.080012
-9.9079161 1.2783358 1.0624034
-9.7725973 1.2727426 1.0234178
-9.7554741 1.2675989 1.0193002
-9.7491302 1.2669587 1.0175424
-9.7124577 1.2727333 1.005636
-9.6561069 1.2871248 0.98632658
-9.5346985 1.282093 0.95135111
-9.4772205 1.2770928 0.93527436
-9.4329681 1.2684448 0.92377919
-9.3115616 1.2634131 0.88880408
-9.2743244 1.2594917 0.87851411
-9.2179737 1.2738831 0.85920453
-9.17132 1.2815422 0.84400046
-9.0976915 1.2882433 0.82099622
-9.0029774 1.2793216 0.79462951
-8.9758606 1.2759396 0.78723305
-8.9113684 1.2662126 0.76995122
-8.7903824 1.2684529 0.73376346
-8.7634077 1.2674952 0.725963
-8.7164726 1.2703061 0.71156728
-8.6793766 1.2688087 0.70087326
-8.604763 1.2585421 0.68069792
-8.6596985 1.2774256 0.69346988
-8.7711267 1.2843417 0.72514755
-8.9195099 1.2903312 0.76792347
-9.0713387 1.3014274 0.81077915
-9.0777588 1.3033409 0.81232572
-9.1214523 1.2989976 0.82604444
-9.1389999 1.2970346 0.83159453
-9.3018551 1.3276602 0.87411922
-9.4380178 1.3477972 0.91068
-9.607193 1.3135149 0.96700972
-9.6494904 1.3105167 0.9800685
-9.6981783 1.312482 0.99410415
-9.8026505 1.3191172 1.0237769
-9.8864002 1.3129556 1.0496749
-9.9234962 1.3144529 1.0603688
-10.000717 1.3153439 1.0830395
-10.074464 1.3069549 1.106389
-10.406362 1.2841822 1.2087197
-10.580521 1.3326296 1.2513099
-10.683792 1.2950383 1.2887601
-10.747238 1.2282773 1.3197984
-10.924986 1.1698548 1.3831024
-10.961082 1.1308272 1.4009527
-11.04125 1.0179904 1.4454088
-11.053394 0.89525628 1.4715698
-11.051516 0.84932971 1.4794599
-11.037657 0.81008816 1.4825778
-11.033621 0.64801967 1.5111878
-11.001208 0.60803336 1.5089567
-10.769354 0.29641122 1.497702
-10.760186 0.21867301 1.5092865
-10.857965 -0.01033403 1.5803128
-10.814858 -0.20689143 1.6037116
-10.803471 -0.30487818 1.6183631
-10.858347 -0.57520849 1.6843024
-10.7238 -0.80560213 1.6868843
-10.728773 -0.91500539 1.7084733
-10.732679 -0.95979649 1.7178651
0.06484127 -0.75964361 -1.511794
0.089955807 -0.82370847 -1.5074393
0.11087894 -1.0640929 -1.4694213
0.09909153 -1.0903894 -1.4610999
0.068815708 -1.0837551 -1.4533674
-0.047707081 -1.0812871 -1.419365
-0.062148571 -1.0781893 -1.4156644
-0.11442375 -1.0686055 -1.4019688
-0.3834362 -1.0432615 -1.3270819
-0.4855752 -1.0865803 -1.288913
-0.60727739 -1.0741616 -1.2552091
-0.67218685 -1.0691657 -1.2369339
-0.81206083 -1.0513871 -1.1988423
-0.91399288 -1.0734118 -1.1646504
-1.04987 -1.128342 -1.1143701
-1.0995035 -1.1307738 -1.099246
-1.1570511 -1.1315097 -1.0820938
-1.1831913 -1.1344409 -1.0738251
-1.2172446 -1.1356761 -1.0635283
-1.291543 -1.1350118 -1.0416802
-1.34727 -1.1469783 -1.0230011
-1.3937416 -1.1521894 -1.008301
-1.5053892 -1.1475573 -0.97613835
-1.5798206 -1.1444691 -0.95469677
-1.6262922 -1.1496804 -0.93999672
-1.7192352 -1.1601027 -0.91059655
-1.7564511 -1.1585586 -0.8998757
-1.7936668 -1.1570146 -0.88915485
-1.8773541 -1.1606817 -0.86373395
-1.9797459 -1.1492945 -0.83555055
-2.0169616 -1.1477505 -0.82482964
-2.0913932 -1.1446624 -0.80338794
-2.1193533 -1.136363 -0.79664624
-2.2867279 -1.1436974 -0.74580443
-2.4727471 -1.1621184 -0.68741065
-2.5098295 -1.1629981 -0.67628348
-2.6122212 -1.1516109 -0.64810008
-2.7276881 -1.163721 -0.61172932
-2.8260674 -1.1641563 -0.58255821
-2.9694107 -1.1697309 -0.53914613
-3.0438304 -1.1666658 -0.51770377
-3.1182497 -1.1636003 -0.49626145
-3.1647558 -1.168457 -0.48161641
-3.248472 -1.1717808 -0.4562501
-3.3228912 -1.1687155 -0.43480781
-3.3973107 -1.1656502 -0.41336551
-3.5182366 -1.1674415 -0.37727803
-3.6218536 -1.1893234 -0.34261429
-3.6811528 -1.1911135 -0.32475019
-3.9192023 -1.2323384 -0.24677742
-3.9575739 -1.2316043 -0.23556578
-3.9709496 -1.2272441 -0.2324124
-4.0788155 -1.1933572 -0.2067478
-4.1494913 -1.192751 -0.18596023
-4.2329736 -1.1738408 -0.16475183
-4.5502872 -1.2489092 -0.057116918
-4.7288189 -1.1708165 -0.018685311
-4.9376183 -1.2155051 0.051275123
-4.9706364 -1.2362512 0.064853683
-4.9758658 -1.239845 0.06706091
-5.0014486 -1.2370983 0.074120753
-5.1508207 -1.225852 0.11622223
-5.3057041 -1.2270468 0.16224135
-5.3888569 -1.1899686 0.18001145
-5.4938889 -1.175017 0.20832016
-5.6117616 -1.1550202 0.23949811
-5.6521716 -1.1422805 0.24910462
-5.8707342 -1.1443324 0.31411144
-5.9018021 -1.1588844 0.3259744
-5.9819832 -1.1399325 0.34619904
-6.0304213 -1.1344515 0.35951436
-6.0932326 -1.1355329 0.37828663
-6.2415643 -1.1296663 0.42106989
-6.2792563 -1.1286213 0.43202332
-6.2923203 -1.1240937 0.4350538
-6.7271652 -1.0901018 0.55738753
-6.3537464 -1.0451717 0.4387044
-6.3427916 -1.0375831 0.43406954
-6.1845789 -1.0391278 0.38756964
-6.0064197 -0.58658278 0.25166759
-6.279243 -0.40639138 0.29920608
-6.3532658 -0.40588206 0.32100123
-6.4821229 -0.38652468 0.35554484
-6.6394763 -0.39952329 0.40446505
-6.7665195 -0.40175354 0.44244212
-6.7885251 -0.38153732 0.44523153
-7.1921887 -0.41365486 0.57050204
-6.8395 -0.31652269 0.44834918
-6.5996494 -0.11085038 0.3396031
-6.3753185 -0.14421156 0.27940285
-6.3552012 -0.17160791 0.27849209
-6.076354 -0.30633914 0.22081244
-5.955224 -0.30641741 0.18500836
-5.8208346 -0.32611772 0.14889196
-5.7689495 -0.32829392 0.13394947
-5.7219853 -0.32543892 0.11953716
-5.701725 -0.35525918 0.11902982
-5.2837138 -0.57225746 0.035327479
-5.2463446 -0.57857186 0.025438476
-5.2089748 -0.58488631 0.015549354
-5.1782918 -0.59128559 0.0076531023
-5.1707458 -0.60574424 0.0080805421
-5.165483 -0.61976045 0.0091017336
-5.1468 -0.67434388 0.013614699
-4.8524551 -1.0577132 -0.0029247329
-4.7220807 -1.0790496 -0.037553206
-4.6383643 -1.0757258 -0.06291949
-4.5658131 -1.0549151 -0.08820004
-4.5085282 -1.0602627 -0.10415585
-4.3874741 -1.060899 -0.13983494
-4.1744599 -0.71503913 -0.26642501
-4.2054291 -0.46768594 -0.30275398
-4.2860188 -0.35487181 -0.29966906
-4.2268405 -0.16842657 -0.35145429
-4.2216558 -0.091128968 -0.36720195
-4.1686873 -0.076849744 -0.38549066
-4.1193423 -0.08010602 -0.39948332
-4.0475039 -0.079913571 -0.42076144
-3.9670172 -0.083840668 -0.4438394
-3.8844602 -0.084701598 -0.46809337
-3.5255711 -0.30196163 -0.5342651
-3.4589276 -0.31345707 -0.55185783
-3.4215891 -0.31741726 -0.56217062
-3.300535 -0.31805354 -0.59784967
-3.226244 -0.31869131 -0.61970043
-3.1239116 -0.32967839 -0.64793992
-3.0493634 -0.33517119 -0.66897392
-3.0117679 -0.34398639 -0.6784699
-2.9744294 -0.34794655 -0.68878275
-2.9354181 -0.38346457 -0.69378692
-3.0085511 -0.40467453 -0.66826099
-3.2326479 -0.68611097 -0.55024076
-2.9181352 -1.0464326 -0.5769822
-2.8437159 -1.049498 -0.59842449
-2.7877843 -1.0406798 -0.61658514
-2.7751961 -1.0387982 -0.62065351
-2.7194688 -1.0268319 -0.63933277
-2.6666012 -1.0437436 -0.65185589
-2.5793283 -1.0494577 -0.6766119
-2.458292 -1.0497582 -0.71234733
-2.3841271 -1.047999 -0.73460162
-2.1236761 -1.032666 -0.81443721
-2.0585003 -1.0425092 -0.83189976
-1.8353386 -1.0493498 -0.89663124
-1.7703557 -1.0306283 -0.91928959
-1.612237 -1.0300491 -0.96615219
-1.5005894 -1.0346813 -0.99831486
-1.351593 -1.0432811 -1.040792
-1.2770286 -1.0487927 -1.0618273
-1.1748295 -1.0316151 -1.0952066
-1.0161777 -1.0407306 -1.140444
-0.78190184 -0.7243529 -1.2678998
-0.74103308 -0.68289697 -1.2876081
-0.42707777 -0.80440563 -1.3581009
-0.19659233 -0.4440887 -1.4925158
-0.23325872 -0.083387315 -1.548004
-0.14101744 -0.0089488626 -1.5889688
-0.12567139 0.0073388219 -1.5965018
0.0026111603 0.050210938 -1.6423191
0.0061717033 0.040215895 -1.641534
0.099405289 -0.18356749 -1.6279511
0.11872005 -0.21730617 -1.6274582
0.13179922 -0.24084374 -1.6269974
0.11538124 -0.28601822 -1.6138353
0.040993214 -0.57971585 -1.5378295
-1.0013013 0.30250925 -1.3918558
-0.87020159 0.23157935 -1.4175787
-0.86581612 0.23623361 -1.4197315
-0.85538578 0.25495052 -1.4262576
-0.87479115 0.33401871 -1.4350595
-0.88059998 0.33336312 -1.4332212
-0.97907782 0.33285534 -1.4040078
-0.015955925 1.4058783 -1.8861269
-0.14009333 1.3862337 -1.8458067
-0.28940201 1.3670763 -1.7981329
-0.38935041 1.3469115 -1.7648696
-0.40807247 1.3365607 -1.7574301
-7.3292961 -0.41348428 0.61101365
-7.3706341 -0.41494909 0.62350667
-7.3214598 -0.41809243 0.60954374
-7.3062162 -0.41621196 0.60469049
0 0 0 1 0 0 0 1 0 0 0 1 0 0 0 0 0 542 1 0 0
