ply
format ascii 1.0
comment PCL generated
element vertex 272
property float x
property float y
property float z
element camera 1
property float view_px
property float view_py
property float view_pz
property float x_axisx
property float x_axisy
property float x_axisz
property float y_axisx
property float y_axisy
property float y_axisz
property float z_axisx
property float z_axisy
property float z_axisz
property float focal
property float scalex
property float scaley
property float centerx
property float centery
property int viewportx
property int viewporty
property float k1
property float k2
end_header
-0.13067901 1.349843 -5.6784134
-0.17022207 1.2152137 -5.9700613
-0.17732033 1.1305078 -6.0024567
-0.18213108 0.97063756 -5.990634
-0.18290642 0.89403212 -5.9719687
-0.18863478 0.77259457 -5.9806128
-0.19118515 0.69267386 -5.9759388
-0.1947681 0.61111009 -5.979497
-0.19731846 0.53118956 -5.974822
-0.20040163 0.41298056 -5.9620533
-0.20212916 0.3713195 -5.9629993
-0.20496967 0.2914277 -5.9607992
-0.20748648 0.21810454 -5.9580145
-0.20937541 0.17160442 -5.9587374
-0.21081284 0.12991452 -5.9572086
-0.2114155 0.09985017 -5.9524183
-0.2134991 0.021510601 -5.9442987
-0.21963719 -0.10141756 -5.9559336
-0.22045597 -0.13979705 -5.9502392
-0.22253957 -0.21813659 -5.9421196
-0.22454068 -0.25965458 -5.9454374
-0.22625157 -0.3011952 -5.9462814
-0.22920612 -0.37946689 -5.9455853
-0.23120728 -0.42098486 -5.948904
-0.23202601 -0.45936435 -5.9432087
-0.23611078 -0.5792219 -5.9384079
-0.23990527 -0.69910198 -5.9311323
-0.24243489 -0.77902222 -5.926281
-0.24614689 -0.86208069 -5.9304438
-0.24978557 -0.98035765 -5.9223728
-0.25046983 -1.020363 -5.914999
-0.24159852 -1.2369399 -5.7682133
-0.20343545 -1.242895 -5.441947
-0.19641563 -1.2624211 -5.3758564
-0.1918678 -1.2652791 -5.3362675
-0.17527404 -1.2375774 -5.2043886
-0.17053184 -1.2354432 -5.164794
-0.15783784 -1.2387743 -5.0558238
-0.15274683 -1.2375554 -5.0129633
-0.14227322 -1.2276297 -4.9272318
-0.13164878 -1.2266806 -4.8372602
-0.12948194 -1.2284646 -4.8182588
-0.12394497 -1.2256653 -4.7721291
-0.1116173 -1.2282407 -4.6665215
-0.11001003 -1.2267507 -4.6533546
-0.099633634 -1.219321 -4.567627
-0.095434666 -1.2212634 -4.5313044
-0.091332942 -1.2257018 -4.4949856
-0.086939603 -1.2226522 -4.4586568
-0.06617555 -1.1642773 -4.3014517
-0.042679429 -1.20873 -4.0871305
-0.037587464 -1.2074642 -4.0442772
-0.028470635 -1.2102653 -3.9658806
-0.024121046 -1.2107353 -3.9287632
0.0047897696 -1.1326426 -3.7088284
0.016302466 -1.1249205 -3.6135411
0.018396109 -1.1260548 -3.5953758
0.024604976 -1.086628 -3.5556114
0.065540373 -1.0174387 -3.2305584
0.11394626 -1.100822 -2.7917242
0.10546455 -0.65973842 -3.0092111
0.12265222 -0.46844465 -2.9262161
0.12472436 -0.45043564 -2.9145446
0.13712579 -0.28775305 -2.8627901
0.13719407 -0.16746728 -2.9018641
0.13713013 -0.1098199 -2.921412
0.13750938 -0.0089263767 -2.9514503
0.13704066 0.073135614 -2.9824867
0.13553965 0.15349324 -3.0217333
0.16300121 0.56737202 -2.9248114
0.16336715 0.57723415 -2.9249527
0.16749184 0.69237512 -2.9278603
0.16670653 0.6928367 -2.9346857
0.11623013 0.86339056 -3.419852
0.11831726 0.94628501 -3.4294434
0.11425188 1.1024988 -3.5154889
0.12196825 1.3346967 -3.5264642
0.10787284 1.3335556 -3.6458688
0.10489041 1.328614 -3.669584
0.082616806 1.3498735 -3.86587
0.077979237 1.350443 -3.905467
0.065248221 1.3162259 -4.0023727
0.056126773 1.3117716 -4.0784168
0.042060405 1.3190738 -4.2003584
0.034480602 1.3431296 -4.2727003
0.028979182 1.3513268 -4.3221531
0.014912784 1.3586289 -4.4440947
0.005736202 1.3622632 -4.5232735
-0.018550277 1.3479631 -4.7249422
-0.027328849 1.3614171 -4.8039761
-0.046334863 1.3424479 -4.9592328
-0.055499762 1.3629616 -5.0438776
-0.077769786 1.3921889 -5.2427597
-0.082802057 1.3826672 -5.2823839
-0.087638676 1.378137 -5.3219919
-0.10205066 1.3670418 -5.4408045
-0.1068047 1.3670779 -5.4812155
-0.1161997 1.3675749 -5.5612164
0.88551414 1.2090462 3.0034502
0.88400364 1.1692158 3.0037448
0.88077021 1.007215 3.0296733
0.873119 0.88925463 3.0035427
0.86946023 0.80941397 2.9987719
0.86687899 0.72920227 3.0032804
0.86525536 0.68895423 3.0027511
0.8603133 0.60981226 2.9868443
0.85470498 0.53038597 2.9653704
0.84477699 0.39552397 2.9254634
0.83680642 0.32783306 2.8800459
0.83218491 0.32816863 2.8406627
0.78702807 0.019317105 2.5587451
0.78684926 -0.26217771 2.6500249
0.78950977 -0.41381246 2.7226224
0.78836811 -0.44581324 2.7234709
0.79832673 -0.89040446 2.954664
0.8003602 -0.89804316 2.9744627
0.79629755 -0.94281256 2.9546978
0.78642851 -1.0172257 2.8953638
0.74514741 -1.067606 2.5611722
0.74035245 -1.0635344 2.5190833
0.70834064 -1.0911506 2.2561564
0.69654733 -1.1338904 2.1700284
0.6809262 -1.1269302 2.0349882
0.66628516 -1.1573868 1.9206111
0.65982771 -1.1365521 1.8588686
0.63382804 -1.1293519 1.6355538
0.6301899 -1.1320821 1.6055377
0.61491197 -1.1506988 1.4818451
0.61027586 -1.1501383 1.4422636
0.6045894 -1.1319036 1.3879297
0.59939253 -1.0891387 1.3296695
0.59963596 -1.0868859 1.3309951
0.62115037 -0.92447555 1.4602799
0.63568395 -0.76048976 1.5297232
0.63767147 -0.52096993 1.4676509
0.63856703 -0.50264335 1.4692199
0.65602708 -0.28406262 1.5455337
0.65650773 -0.12127976 1.495954
0.6646632 0.078274131 1.4994714
0.66356862 0.15659359 1.4643507
0.66622639 0.27529353 1.4478042
0.66860658 0.47129977 1.4034145
0.66970801 0.51314461 1.3989797
0.67004192 0.59389621 1.3751957
0.65830255 0.7908892 1.210494
0.6044842 0.9447664 0.70242655
0.59383506 0.86247551 0.63906038
0.59031433 0.82522476 0.62142205
0.58610594 0.78261995 0.5997051
0.57590991 0.58198327 0.5792042
0.57478642 0.48151731 0.60277712
0.57532418 0.36352748 0.64624453
0.57546258 0.30607858 0.66635942
0.57604152 0.2651476 0.68477273
0.57707191 0.22611523 0.70639622
0.57805693 0.19892336 0.72373152
0.57538462 0.12105924 0.72669184
0.57037544 0.0013408959 0.72359192
0.56722921 -0.078494683 0.72317457
0.56136632 -0.1755491 0.70534861
0.55089658 -0.21486945 0.62934089
0.5244447 -0.4723736 0.48944759
0.52134007 -0.49205232 0.4695524
0.49920607 -0.76136321 0.37024403
0.49183634 -1.0621696 0.4067831
0.4927426 -1.1183835 0.43301618
0.4874483 -1.121801 0.38915288
0.48621699 -1.0865577 0.36707067
0.42754295 -1.0564466 -0.14145845
0.40260386 -1.1566713 -0.32034612
0.38555962 -1.1155545 -0.47874027
0.37339693 -1.1157557 -0.58203048
0.36638835 -1.1143333 -0.64205736
0.35796461 -1.1137967 -0.71381789
0.34454143 -1.1346925 -0.82099724
0.33879331 -1.1125757 -0.87713492
0.32329983 -1.0915731 -1.0157201
0.31500173 -1.0850724 -1.088379
0.30686611 -1.0545307 -1.1675826
0.25359935 -1.0700459 -1.6151203
0.24803802 -1.0902495 -1.655719
0.22944769 -1.0890653 -1.8140872
0.2131488 -1.1063077 -1.9469084
0.20440672 -1.1242329 -2.0152879
0.20119964 -1.1057106 -2.0486472
0.19591539 -1.0634531 -2.1074829
0.19616809 -1.0582412 -2.1070535
0.19990301 -0.98239255 -2.1003196
0.20011331 -0.9773463 -2.1001961
0.21850552 -0.63975126 -2.055196
0.21934226 -0.62806159 -2.051939
0.22985378 -0.2401327 -2.0905013
0.23231274 -0.10662986 -2.1136169
0.23166732 -0.060220197 -2.1344013
0.22713231 0.075495362 -2.21768
0.23092666 0.16503517 -2.2149544
0.23152114 0.17924693 -2.2145877
0.23309046 0.21917507 -2.2144151
0.23563392 0.40466076 -2.2539496
0.23616931 0.42355734 -2.2556295
0.23676088 0.44269037 -2.2569098
0.237647 0.46098375 -2.2554107
0.24039614 0.56538808 -2.2664676
0.24325866 0.64526665 -2.2684755
0.24985325 0.8049171 -2.2650673
0.23589922 1.1254829 -2.4893265
0.22708954 1.1473042 -2.5713835
0.2181671 1.1644901 -2.6528707
0.23043144 1.3499763 -2.6097987
0.24473816 1.358248 -2.4909494
0.24954468 1.3625503 -2.4515228
0.25430882 1.3645941 -2.4117117
0.26349944 1.361019 -2.3324323
0.2867026 1.3347856 -2.1266074
0.28898546 1.3335581 -2.1068034
0.29541242 1.3339137 -2.0523055
0.30865741 1.337881 -1.9410596
0.31805223 1.355491 -1.8670292
0.33183903 1.3400791 -1.7447906
0.35001725 1.3796318 -1.6033539
0.35497165 1.3797513 -1.5612918
0.35934314 1.3798568 -1.5241783
0.36429751 1.3799764 -1.4821162
0.36912242 1.381803 -1.4417171
0.37407678 1.3819227 -1.3996551
0.39189541 1.326568 -1.2299867
0.41665864 1.3863713 -1.0392679
0.4287053 1.4073941 -0.94382775
0.43419373 1.4256228 -0.90319747
0.44513935 1.3694608 -0.79166865
0.46301615 1.3434252 -0.63117135
0.46787745 1.3442906 -0.59014606
0.47729695 1.3470117 -0.51099753
0.48478061 1.3446989 -0.44664031
0.49604234 1.3499578 -0.35267347
0.51018393 1.3465949 -0.23139167
0.51962316 1.3472503 -0.15139472
0.52894908 1.3474755 -0.072219014
0.54305124 1.3482436 0.047365665
0.54769444 1.3504217 0.086104989
0.57055253 1.3440194 0.28245986
0.57513356 1.3456895 0.32083809
0.5940538 1.3444026 0.4820435
0.59831393 1.342628 0.51883054
0.60308188 1.3429894 0.55922878
0.60781449 1.3473921 0.59799445
0.63671625 1.391204 0.82915366
0.64240468 1.3929753 0.87690902
0.65812445 1.3913994 1.0110128
0.66147649 1.3944209 1.038502
0.66600639 1.3872603 1.0793567
0.67949581 1.374444 1.1982126
0.69372904 1.383611 1.3161421
0.703318 1.3782719 1.3993876
0.72125888 1.4233809 1.5369754
0.74068987 1.46478 1.6884491
0.74925065 1.4675554 1.7602825
0.75222707 1.4702281 1.7846947
0.76166785 1.4680889 1.8656256
0.76677442 1.4698743 1.9084318
0.76919711 1.4726797 1.9280951
0.78028005 1.4353123 2.0345948
0.79791868 1.4053543 2.1943607
0.81235993 1.4174912 2.3130791
0.82186043 1.4222554 2.3922429
0.83614671 1.4253603 2.5126214
0.84091461 1.4257216 2.5530195
0.85031325 1.4153919 2.6362927
0.85442173 1.4108847 2.6726921
0.8683871 1.4105451 2.7914793
0.8855412 1.3287612 2.9642136
0.88833714 1.287976 3.0014188
0 0 0 1 0 0 0 1 0 0 0 1 0 0 0 0 0 272 1 0 0
