ply
format ascii 1.0
comment PCL generated
element vertex 875
property float x
property float y
property float z
element camera 1
property float view_px
property float view_py
property float view_pz
property float x_axisx
property float x_axisy
property float x_axisz
property float y_axisx
property float y_axisy
property float y_axisz
property float z_axisx
property float z_axisy
property float z_axisz
property float focal
property float scalex
property float scaley
property float centerx
property float centery
property int viewportx
property int viewporty
property float k1
property float k2
end_header
-9.7121162 -1.1081275 0.55918401
-9.8320026 -1.1215258 0.56102598
-9.8757105 -1.1214118 0.56174022
-9.9327393 -1.1278028 0.56261629
-9.9601355 -1.1260812 0.56307811
-9.9961653 -1.1253307 0.56367254
-10.032486 -1.1233735 0.56428206
-10.08015 -1.1219587 0.565072
-10.132795 -1.1168026 0.56597531
-10.159374 -1.1170694 0.56640679
-10.211981 -1.1193784 0.5672456
-10.292469 -1.1228267 0.56852967
-10.332443 -1.1256263 0.56915808
-10.372677 -1.1286002 0.56978923
-10.412447 -1.1237259 0.57047999
-10.531311 -1.1339266 0.57233262
-10.554586 -1.1346186 0.57270658
-10.559229 -1.1299922 0.57282186
-10.572733 -1.1176 0.57314825
-10.853931 -0.93714643 0.57928073
-10.880964 -0.92000419 0.5798685
-10.881248 -0.9176625 0.57989317
-10.894222 -0.85725594 0.58062154
-10.900023 -0.74030304 0.58171642
-10.89542 -0.69727874 0.58200926
-10.883219 -0.66025007 0.58212686
-10.897209 -0.39952838 0.58458495
-10.898304 -0.33745825 0.58513367
-11.079741 -0.018231347 0.5908249
-11.020269 0.017041236 0.59015602
-10.870102 0.27898729 0.58994555
-11.022741 0.59767252 0.59516215
-11.111115 0.63668603 0.59693807
-11.143719 0.6765402 0.59781104
-11.151014 0.71752942 0.59828067
-11.161994 0.75630093 0.59879142
-11.173964 0.81751585 0.59951031
-11.179789 0.836326 0.59976625
-11.185249 0.85862422 0.6000461
-11.185677 0.91611981 0.60054475
-11.180973 0.95615458 0.60081041
-11.173475 0.99637067 0.60103202
-11.164663 1.1162745 0.60191363
-11.132466 1.156516 0.60173237
-11.131683 1.1576624 0.60172939
-11.037484 1.1973904 0.60053182
-10.986976 1.2080911 0.59979904
-10.935785 1.2148741 0.59902167
-10.86684 1.2360134 0.59807724
-10.828228 1.2538036 0.59759927
-10.787366 1.2570924 0.59696048
-10.74741 1.2623929 0.59635377
-10.667925 1.2903301 0.59529549
-10.628284 1.2979677 0.59471387
-10.548319 1.3010694 0.59343535
-10.507456 1.304358 0.59279662
-10.188591 1.2911161 0.58747947
-10.148617 1.2939168 0.58685106
-10.097012 1.295692 0.58602405
-10.050619 1.300573 0.58530867
-9.930788 1.3214694 0.58353174
-9.8504143 1.3047779 0.58207726
-9.7576504 1.3028623 0.58054698
-9.7179604 1.3079962 0.57994318
-9.6379566 1.3060811 0.57862115
-9.5706882 1.3016651 0.57748556
-9.4904242 1.2999722 0.57616115
-9.4506741 1.2975633 0.57549185
-9.410141 1.2957796 0.57481509
-9.3693695 1.2967041 0.5741576
-9.330658 1.2934617 0.57349807
-9.2493181 1.2876027 0.57212055
-9.2093067 1.2854022 0.57144868
-9.1299152 1.2955832 0.57024014
-9.0949402 1.298345 0.56969297
-9.0874414 1.2984011 0.56957102
-9.0766392 1.2984653 0.5693953
-9.0096397 1.29169 0.56824392
-8.9305716 1.2990978 0.5670169
-8.9179916 1.2992564 0.56681293
-8.8099728 1.2979777 0.56503916
-8.7699804 1.2982771 0.56438899
-8.746664 1.2958775 0.56398797
-8.6504669 1.2912588 0.56237853
-8.5706863 1.2841498 0.56101573
-8.5307121 1.286949 0.56038725
-8.4765873 1.2803521 0.55944753
-8.5165806 1.2800597 0.56009775
-8.5976114 1.2763427 0.56138837
-8.6905909 1.2732526 0.56287938
-8.7170219 1.2707824 0.56328958
-8.7572803 1.270332 0.56394273
-8.8105507 1.2698549 0.56480801
-8.8505611 1.2720554 0.56547982
-8.8905725 1.2742559 0.56615162
-8.9172869 1.2741622 0.56658679
-8.9692583 1.274699 0.56743956
-8.9972897 1.2760774 0.56790882
-9.0500784 1.2809747 0.56881225
-9.0775766 1.2803342 0.56925553
-9.1167545 1.2780163 0.56987512
-9.1964731 1.2775897 0.57117248
-9.2370157 1.2794809 0.5718503
-9.3174973 1.2735804 0.57311326
-9.3569946 1.2786038 0.5738008
-9.4365015 1.2858348 0.57516021
-9.4765129 1.2880422 0.57583207
-9.5164814 1.2921764 0.57651973
-9.5331306 1.2931963 0.57680017
-9.6092892 1.2899084 0.57801497
-9.6770611 1.2937639 0.57915395
-9.7165413 1.2962875 0.57981986
-9.769557 1.2935023 0.5806613
-9.8772888 1.2871245 0.58236492
-9.9374275 1.2765466 0.58325589
-9.9771729 1.2789121 0.58392477
-10.037704 1.2781594 0.58490622
-10.17733 1.2672931 0.58709198
-10.217642 1.2743419 0.58781016
-10.558735 1.1220075 0.59207392
-10.655956 1.041113 0.59296876
-10.722462 0.60082054 0.59028852
-10.732388 0.59074813 0.5903644
-10.837395 0.32029796 0.58976507
-10.836798 0.20014843 0.58872777
-10.418037 -0.057104856 0.57969344
-10.407618 -0.09694986 0.57918262
-10.425247 -0.097156808 0.57946855
-10.797344 -0.41955853 0.58278388
-10.790068 -0.65604782 0.58064258
-10.519571 -1.0578282 0.57279187
-10.31906 -1.1205806 0.56898284
-10.239962 -1.1079711 0.56779981
-10.119417 -1.1117774 0.56579995
-9.8059797 -0.68935657 0.56429738
-9.8080683 -0.614389 0.56497264
-9.8822641 -0.38996613 0.56810284
-9.859745 -0.29405743 0.56855559
-7.2967525 -0.44964236 0.52539694
-7.3421793 -0.38997835 0.52664858
-7.2977438 -0.3849639 0.52596629
-7.2652402 -0.38162047 0.52546442
-7.0536804 -0.35040188 0.52227879
-7.0255976 -0.34209105 0.52189153
-7.0188832 -0.34087855 0.52179229
-6.9858217 -0.34194514 0.52124363
-6.9383783 -0.33997208 0.52048624
-6.9056406 -0.33857495 0.51996392
-6.8589306 -0.33719951 0.51921338
-6.5883932 -0.10657126 0.5167706
-6.5534458 -0.064952657 0.5165562
-6.5013247 0.0155572 0.51639414
-6.5012112 0.01562652 0.51639289
-6.3407388 0.07749784 0.51430315
-6.2701473 0.11372903 0.51346093
-6.1705861 0.058649898 0.51136506
-5.8609753 0.070775568 0.5064159
-5.4199181 -0.11862595 0.49759802
-5.3799257 -0.11833115 0.49694788
-5.2223573 -0.094513535 0.49458006
-5.1863813 -0.076504752 0.49414694
-5.1463819 -0.078822643 0.49347433
-5.0681973 -0.077415571 0.49221039
-5.0283613 -0.092413589 0.49143201
-5.0273809 -0.10164751 0.49133703
-5.027976 -0.1272262 0.49112797
-5.0280414 -0.13229826 0.49108568
-5.04776 -0.1723102 0.49106529
-5.0674791 -0.21232215 0.49104488
-5.1063495 -0.35640639 0.49044698
-5.1061764 -0.3738808 0.49029469
-5.105937 -0.41396183 0.489948
-5.1070151 -0.45301339 0.48963162
-5.1052413 -0.49393094 0.48925272
-5.10495 -0.52389228 0.48899174
-5.0973458 -0.58670866 0.48833039
-5.0880094 -0.65243006 0.48761594
-4.8200612 -1.0707605 0.47966528
-4.740097 -1.0678973 0.47838476
-4.6997528 -1.0674245 0.47773036
-4.6218886 -1.073808 0.47640502
-4.583703 -1.070083 0.47581372
-4.2693248 -0.72580254 0.47362751
-4.2610621 -0.65990496 0.47405624
-4.3467274 -0.36884463 0.47794357
-4.3872023 -0.33178693 0.47892106
-4.3465137 -0.32852307 0.47828496
-4.3070154 -0.32874179 0.47763845
-4.2273316 -0.31356269 0.47646785
-4.1473207 -0.32069808 0.47510102
-3.9873691 -0.31997117 0.47249684
-3.7576499 -0.043566599 0.47111177
-3.7452123 -0.031011716 0.47101617
-3.7039735 -0.0022058785 0.47058949
-3.6842909 -0.0023698509 0.47026688
-3.3493972 0.095447898 0.46563798
-3.2681684 0.11440089 0.46447444
-3.2282381 0.12707916 0.4639312
-3.1881108 0.097267032 0.46302137
-3.1066356 0.0060165226 0.46091127
-3.1059337 -0.00093594193 0.46084034
-2.8223469 -0.31783137 0.453502
-2.785929 -0.3180626 0.45290565
-2.7459407 -0.3178809 0.45225462
-2.7059531 -0.31769916 0.45160356
-2.6631186 -0.31518736 0.45092601
-2.6001947 -0.32338175 0.44982898
-2.5620391 -0.32345787 0.44920564
-2.5341873 -0.32351431 0.44875062
-2.5202196 -0.3230499 0.44852665
-2.440624 -0.31765944 0.44727373
-2.4402647 -0.31771836 0.44726738
-2.3584208 -0.32186624 0.44589621
-2.3581197 -0.3248249 0.44586599
-2.3602431 -0.36242259 0.44557908
-2.360064 -0.3723833 0.44549099
-2.4425914 -0.60368162 0.44485965
-2.4419062 -0.63602501 0.44457185
-2.4418192 -0.64601159 0.44448504
-2.2005038 -0.99500859 0.43756199
-2.0788946 -1.0365958 0.43522164
-1.9993448 -1.0411522 0.43388444
-1.9581757 -1.0408914 0.43321478
-1.9174418 -1.0430191 0.4325318
-1.8774543 -1.0428532 0.43188062
-1.839685 -1.0408063 0.43128175
-1.7982354 -1.0377278 0.43063161
-1.7575121 -1.0373557 0.4299702
-1.7200902 -1.0404115 0.42933333
-1.677527 -1.0395237 0.4286463
-1.6375391 -1.0393578 0.42799512
-1.5978274 -1.0392692 0.42734778
-1.5582793 -1.0442319 0.42665991
-1.4779944 -1.0487329 0.42531115
-1.3975623 -1.0508616 0.4239803
-1.3575644 -1.0531955 0.42330757
-1.2775588 -1.0603631 0.42194059
-1.237253 -1.0676035 0.42122087
-1.1583014 -1.0675712 0.41993266
-1.1172805 -1.0696173 0.41924569
-1.0775695 -1.0720329 0.41857696
-1.0375719 -1.0743667 0.41790423
-0.99758387 -1.0742007 0.41725305
-0.91760874 -1.073869 0.41595069
-0.85482693 -1.076718 0.41490173
-0.8376236 -1.0760369 0.41462681
-0.82762623 -1.0759954 0.414464
-0.79586744 -1.0780079 0.41392848
-0.75984573 -1.0788237 0.41333362
-0.72986555 -1.0761995 0.4128668
-0.71986866 -1.0761579 0.41270399
-0.69311333 -1.0762502 0.41226655
-0.61092997 -1.0752995 0.41093346
-0.59917021 -1.075454 0.41074023
-0.55772066 -1.0723755 0.41009009
-0.51775312 -1.06721 0.409482
-0.47970676 -1.062494 0.40890142
-0.24216461 -0.6743319 0.40834448
-0.25431824 -0.63508725 0.40887845
-0.24190474 -0.61419356 0.40885457
-0.35896158 -0.14861749 0.41474676
-0.41221189 0.043659866 0.41726023
-0.41502333 0.10447434 0.41782624
-0.41502953 0.1236456 0.4179903
-0.42284584 0.20361105 0.41880175
-0.44071913 0.26435071 0.41961294
-0.44114017 0.34432483 0.42030376
-0.4436655 0.38434464 0.42068726
-0.42256546 0.5442574 0.42171055
-0.44215155 0.62434214 0.42271513
-0.44248056 0.70433778 0.42340463
-0.44264555 0.74433565 0.42374942
-0.4263792 0.8642298 0.42450935
-0.40341711 0.92949247 0.42469275
-0.68744659 1.3027022 0.43251997
-0.76630783 1.3001269 0.43378496
-0.80739927 1.299702 0.43445194
-0.84921694 1.2966039 0.43510792
-0.88738489 1.3018684 0.43577582
-0.92848682 1.3039424 0.43646437
-0.97030354 1.3008454 0.43712032
-1.0469775 1.3037869 0.43839678
-1.0891628 1.3006032 0.43905804
-1.1291499 1.3004364 0.43970919
-1.1687593 1.2978566 0.44033355
-1.2087574 1.3001896 0.44100627
-1.2487447 1.3000227 0.44165742
-1.3287098 1.2971894 0.44293824
-1.4372139 1.2995753 0.44472942
-1.4483609 1.2992638 0.44490868
-1.4875565 1.2967805 0.44552711
-1.5294147 1.3036828 0.44626927
-1.6490302 1.3082678 0.44826061
-1.685338 1.3089631 0.4488591
-1.769371 1.3101819 0.45024094
-1.8086534 1.317687 0.45094621
-1.8889966 1.3172667 0.45225382
-1.9289844 1.3171 0.452905
-1.9671216 1.3148649 0.45350829
-2.0085914 1.3168533 0.45420206
-2.0482111 1.316772 0.45484796
-2.0852547 1.317295 0.455457
-2.1252422 1.3171281 0.45610815
-2.1670697 1.3165309 0.45678568
-2.2066894 1.3164499 0.45743158
-2.2459412 1.3164554 0.45807222
-2.2888725 1.3155991 0.45876554
-2.328114 1.3131049 0.45938462
-2.3658934 1.3134553 0.46000418
-2.4099288 1.312341 0.4607133
-2.4480767 1.3126045 0.46133813
-2.4880643 1.3124379 0.46198931
-2.5687652 1.3094321 0.46328062
-2.6087525 1.3092653 0.4639318
-2.6739087 1.3094449 0.4649967
-2.71175 1.308511 0.46560627
-2.7531729 1.309664 0.46629214
-2.7924724 1.315064 0.46697971
-2.8317373 1.3129652 0.46760255
-2.8745832 1.312953 0.46830168
-2.9117248 1.3151013 0.46892622
-2.9531357 1.3137544 0.46959051
-2.9916773 1.3097386 0.47018519
-3.0716531 1.3093752 0.47148728
-3.1116295 1.3066938 0.47211677
-3.1530404 1.305347 0.47278106
-3.1916049 1.3063304 0.47341886
-3.2337396 1.3069007 0.47411135
-3.2722926 1.3053844 0.47472757
-3.3115692 1.3057853 0.47537199
-3.3515453 1.3031038 0.47600147
-3.4322329 1.3021579 0.47731021
-3.471509 1.3025587 0.47795463
-3.511497 1.3023769 0.47860566
-3.592196 1.3039305 0.47993597
-3.6728835 1.3029846 0.48124468
-3.7114484 1.3039678 0.48188248
-3.7514362 1.3037862 0.48253351
-3.7942824 1.303774 0.48323268
-3.8314118 1.3034227 0.48383564
-3.8713999 1.303241 0.48448667
-3.9120996 1.3024768 0.48514435
-3.991364 1.3026958 0.48643982
-4.0713396 1.3023324 0.48774192
-4.1113276 1.3021506 0.48839298
-4.1913271 1.3067863 0.4897382
-4.2334499 1.3048571 0.49040914
-4.2712908 1.3039234 0.49101874
-4.3112907 1.3062412 0.49169135
-4.3512783 1.3060595 0.49234238
-4.4312544 1.305696 0.49364451
-4.4341125 1.3058655 0.49369258
-4.471242 1.3055143 0.49429554
-4.5112419 1.3078321 0.49496815
-4.5141001 1.3080018 0.49501625
-4.5512295 1.3076504 0.49561921
-4.5926523 1.3088033 0.49630508
-4.6312056 1.307287 0.4969213
-4.6711822 1.3046056 0.49755079
-4.7111816 1.3069236 0.49822339
-4.7511692 1.3067418 0.49887446
-4.7540274 1.3069115 0.49892256
-4.8311219 1.3013792 0.5001334
-4.8718448 1.3056142 0.50083423
-4.911098 1.3010157 0.50143552
-4.9525089 1.299669 0.50209981
-4.9910731 1.3006523 0.50273758
-5.0310616 1.3004705 0.50338864
-5.1110258 1.2976074 0.50466919
-5.1531482 1.2956781 0.5053401
-5.1924248 1.2960789 0.50598454
-5.2402468 1.2861302 0.50667989
-5.280643 1.2829323 0.50731182
-5.3208699 1.2849116 0.50798523
-5.4001756 1.2797599 0.50923544
-5.4801397 1.2765747 0.51051325
-5.5099874 1.2760073 0.51099551
-5.5601463 1.2783892 0.51183444
-5.5907526 1.2748846 0.51230401
-5.6299472 1.2726083 0.51292419
-5.6803155 1.2746837 0.5137639
-5.7097096 1.2771829 0.514265
-5.7676291 1.2791115 0.51522678
-5.8001232 1.2788332 0.5157547
-5.840116 1.2784904 0.51640445
-5.9200592 1.2728056 0.5176605
-5.960052 1.2724628 0.51831025
-6.0000448 1.2721201 0.51896
-6.0298924 1.2721106 0.51944703
-6.11023 1.2838356 0.52085841
-6.1201491 1.286091 0.52103955
-6.1505566 1.2933607 0.52159798
-6.2403178 1.307561 0.52318436
-6.430635 1.3087611 0.52630055
-6.5107327 1.2879887 0.52743012
-6.5501871 1.285538 0.52805305
-6.5603027 1.2846435 0.52821052
-6.6400757 1.2841361 0.52950805
-6.6707215 1.2892896 0.53005224
-6.7104731 1.2916639 0.53072131
-6.7601171 1.2906075 0.53152245
-6.7902169 1.2937387 0.53204048
-6.9098244 1.2780151 0.533858
-6.9601874 1.2762175 0.53466457
-6.9897728 1.2724159 0.53511488
-7.0033102 1.2716244 0.53532904
-7.0805693 1.2723341 0.53659594
-7.1497436 1.271217 0.53771532
-7.1902237 1.2705902 0.53837061
-7.2307038 1.2699631 0.5390259
-7.2805319 1.2706208 0.53984469
-7.3201003 1.2706336 0.54049057
-7.3494473 1.2698927 0.54096317
-7.3998737 1.270126 0.5417881
-7.4307318 1.2684209 0.54227716
-7.3907213 1.2662208 0.54160535
-7.350728 1.2665205 0.54095525
-7.3198452 1.2658117 0.54044515
-7.2699633 1.2676436 0.53964674
-7.2004838 1.2638067 0.53848004
-7.1198397 1.2625256 0.53715301
-7.0798683 1.265368 0.53652495
-7.0273991 1.2683175 0.53569388
-6.9999042 1.268553 0.53524715
-6.95082 1.2720178 0.53447574
-6.9203644 1.2713827 0.53397328
-6.9108276 1.2723176 0.53382564
-6.8803935 1.2742251 0.53334528
-6.8345814 1.2716391 0.53257549
-6.8003654 1.2699109 0.53200233
-6.7908306 1.2707171 0.53185362
-6.710845 1.2713165 0.53055334
-6.6806211 1.273261 0.53007674
-6.6298018 1.2701141 0.52922046
-6.6026888 1.2717805 0.5287922
-6.6000566 1.2719131 0.52875042
-6.590867 1.272216 0.52860302
-6.5606217 1.2717891 0.52810574
-6.5121498 1.2753059 0.52734476
-6.4408774 1.2751392 0.52618021
-6.418417 1.2760084 0.52582109
-6.3928928 1.2752948 0.52539843
-6.3607912 1.2733914 0.52485824
-6.3501124 1.2720379 0.52467239
-6.3108811 1.2693145 0.52400881
-6.2708883 1.2696142 0.5233587
-6.200624 1.2673738 0.52219284
-6.110918 1.2708132 0.52075827
-6.0706468 1.2687876 0.52008373
-6.030654 1.2690873 0.51943356
-5.9909396 1.2717125 0.51880789
-5.9498887 1.2702103 0.51812512
-5.9104161 1.270161 0.51748049
-5.8800454 1.2706484 0.51698899
-5.8309503 1.2704116 0.51618576
-5.790976 1.2732112 0.51555729
-5.7509651 1.2710112 0.51488554
-5.7104526 1.2716597 0.51422989
-5.67098 1.2716106 0.51358527
-5.6302071 1.2724339 0.51292694
-5.5909758 1.2697103 0.51226336
-5.5507231 1.2701845 0.51161051
-5.4710159 1.2731094 0.51033467
-5.4310236 1.2734092 0.50968456
-5.3910494 1.2762088 0.50905615
-5.320169 1.2779455 0.50791425
-5.3108039 1.2769827 0.50775313
-5.2702723 1.2751315 0.50707585
-5.1908259 1.277882 0.50580281
-5.151093 1.2780074 0.50515544
-5.1098003 1.2791795 0.50449157
-5.0279818 1.2941768 0.50328457
-4.9879942 1.2943436 0.50263339
-4.9080191 1.2946771 0.50133103
-4.828054 1.2975105 0.50005025
-4.794692 1.2986482 0.4995155
-4.7911224 1.2990612 0.49946079
-4.707366 1.300683 0.49810776
-4.6251721 1.2990339 0.49675226
-4.5874028 1.3011833 0.49615425
-4.548151 1.3011777 0.49551362
-4.5147882 1.3024201 0.49497974
-4.4252138 1.294868 0.49345329
-4.3874445 1.2970175 0.49285528
-4.3082151 1.2996784 0.49158502
-4.2682171 1.2973453 0.49091232
-4.2252865 1.2982016 0.490219
-4.1882424 1.2976789 0.48960999
-4.1082673 1.2980124 0.48830763
-4.0682693 1.2956793 0.4876349
-3.9882941 1.2960129 0.48633257
-3.9482965 1.2936797 0.48565984
-3.9083087 1.2938465 0.48500869
-3.8283439 1.2966799 0.48372787
-3.7883458 1.2943467 0.48305517
-3.7076349 1.2948527 0.48174229
-3.6683936 1.2973469 0.48112321
-3.6276596 1.2951862 0.48043993
-3.588408 1.2951806 0.4797993
-3.5454764 1.2960368 0.47910601
-3.5062249 1.2960312 0.47846535
-3.4684453 1.2956808 0.47784579
-3.3884802 1.2985142 0.476565
-3.3484929 1.298681 0.47591382
-3.3077693 1.2990201 0.47525212
-3.2663097 1.2995317 0.47457987
-3.2285297 1.2991813 0.47396031
-3.1855986 1.3000376 0.47326702
-3.1478186 1.2996871 0.47264743
-3.108567 1.2996815 0.4720068
-3.0286024 1.302515 0.47072601
-2.9886248 1.3051815 0.47009638
-2.9486372 1.3053483 0.46944523
-2.8686621 1.3056819 0.46814287
-2.8286848 1.3083485 0.46751326
-2.7686827 1.3035984 0.4664934
-2.7486889 1.3036823 0.46616781
-2.726855 1.3041968 0.46581587
-2.6887074 1.3039321 0.46519104
-2.6657596 1.3022056 0.46480179
-2.6468694 1.3020304 0.46449199
-2.6065242 1.3047827 0.46385711
-2.5650752 1.3077941 0.46320641
-2.526927 1.3075304 0.46258157
-2.48879 1.3097656 0.46197829
-2.4491701 1.3098468 0.46133238
-2.4088149 1.3100991 0.46067595
-2.3669872 1.3106973 0.45999843
-2.3288498 1.3129324 0.45939514
-2.2870121 1.3110309 0.4586961
-2.2470345 1.3136976 0.45806646
-2.2088974 1.3159326 0.4574632
-2.16891 1.3160994 0.45681202
-2.1278081 1.3140254 0.4561235
-2.0870843 1.3143647 0.4554618
-2.0489368 1.3140999 0.45483696
-2.0093274 1.3166809 0.45421261
-9.5919704 -1.0945547 0.55733931
-9.4119949 -1.0913279 0.55442971
-9.3568916 -1.1059034 0.55340576
-9.2759142 -1.1042962 0.55209798
-9.1961956 -1.1014287 0.55082148
-9.1569471 -1.1018646 0.55017722
-9.1130428 -1.0991548 0.54948384
-9.0769615 -1.1012491 0.54887712
-8.8737717 -1.2016695 0.54470217
-8.8045387 -1.3259083 0.54250979
-8.7538013 -1.4053774 0.54100209
-8.6739559 -1.4049013 0.53970307
-8.4751892 -1.323958 0.53715146
-8.377861 -1.3233626 0.53556818
-8.2752838 -1.3023278 0.53407401
-8.2355776 -1.2972683 0.53346926
-8.134717 -1.2805085 0.53196657
-8.0552273 -1.2803887 0.53067034
-8.0353556 -1.2803588 0.53034627
-7.995378 -1.2800665 0.52969635
-7.9782381 -1.2802882 0.52941471
-7.9110241 -1.2871242 0.52825934
-7.8709946 -1.2918241 0.52756584
-7.6411037 -1.2376947 0.52427697
-7.5377941 -1.273953 0.52228087
-7.4435644 -1.2307098 0.52111286
-7.4111247 -1.2229708 0.52064961
-7.3838654 -1.1902704 0.52048445
-7.1393719 -1.0855448 0.51738995
-7.0995965 -1.0853989 0.51674205
-7.053452 -1.0886192 0.51596147
-7.0134773 -1.0858246 0.515333
-6.979835 -1.0845755 0.51479459
-6.9400592 -1.0844296 0.51414675
-6.8924408 -1.0868063 0.51334929
-6.8535066 -1.0846453 0.51273233
-6.7724447 -1.0884216 0.5113771
-6.6994944 -1.0768188 0.51028579
-6.6535792 -1.0781717 0.50952488
-6.4919996 -1.1186972 0.50654131
-6.359622 -1.1445121 0.50416017
-6.2930093 -1.1630119 0.50291479
-6.2594738 -1.1636634 0.50236195
-6.2190475 -1.1629391 0.50170839
-6.1790547 -1.1626002 0.50105858
-6.0197554 -1.1593239 0.49848685
-5.9788747 -1.1607134 0.49780777
-5.9397488 -1.1611462 0.49716556
-5.8997564 -1.1608074 0.49651578
-5.813097 -1.1594743 0.4951129
-5.7795615 -1.1595982 0.49456453
-5.7331114 -1.1588845 0.49381256
-5.6997933 -1.1591136 0.49326685
-5.6928587 -1.1584313 0.49315953
-5.6518259 -1.1575028 0.4924978
-5.5798149 -1.1580974 0.49131751
-5.4915638 -1.1762331 0.48972213
-5.3726568 -1.1559143 0.48795536
-5.3392091 -1.1554861 0.48741314
-5.2931914 -1.1556416 0.48666081
-5.2531986 -1.1553469 0.48601064
-5.2198811 -1.1550484 0.48546946
-5.2124257 -1.1545768 0.48535183
-5.1796718 -1.1545168 0.4848178
-5.173213 -1.1547573 0.48471034
-5.1332207 -1.1544625 0.48406017
-5.0999036 -1.154032 0.48352012
-5.0932279 -1.1541675 0.48341003
-5.0624743 -1.151669 0.4829295
-4.8635955 -1.0763545 0.4803279
-4.8218398 -1.072217 0.47968185
-4.7411175 -1.0787699 0.47830841
-4.7018642 -1.0741714 0.47770712
-4.6636672 -1.0729461 0.47709423
-4.6200981 -1.074851 0.47636691
-4.580122 -1.0721698 0.47573742
-4.5412011 -1.072862 0.47509632
-4.5015574 -1.0754709 0.47442701
-4.4637041 -1.0770367 0.47379586
-4.383729 -1.0766733 0.47249377
-4.3419733 -1.072536 0.47184771
-4.2220211 -1.0694911 0.46991611
-4.1813331 -1.0662273 0.46928
-4.1420565 -1.066628 0.46863559
-4.1020808 -1.0639467 0.4680061
-4.0617371 -1.0634735 0.46735176
-4.0238843 -1.0650394 0.46672061
-3.781081 -1.1443977 0.46207935
-3.7000961 -1.1306622 0.46087515
-3.6590638 -1.1246078 0.46025729
-3.6115899 -1.1218923 0.45950574
-3.3623686 -1.1233662 0.45542583
-3.3037171 -1.1442556 0.45428997
-3.2619495 -1.1426178 0.45362234
-3.2216058 -1.1421446 0.452968
-3.1409185 -1.1411986 0.45165926
-3.1019979 -1.141891 0.45101815
-3.0605867 -1.1405442 0.45035383
-2.9406719 -1.1199653 0.44857284
-2.9017954 -1.1206942 0.44793212
-2.8793027 -1.1205916 0.44756594
-2.8589611 -1.1181823 0.44725457
-2.7789853 -1.1178188 0.44595248
-2.5576496 -1.0556072 0.44287235
-2.5191538 -1.0507581 0.44228557
-2.4791663 -1.0505961 0.44163436
-2.2989235 -1.1248631 0.4380576
-2.2784696 -1.1246843 0.43772534
-2.2539372 -1.1246808 0.437325
-2.2217379 -1.1223882 0.43681911
-2.2002568 -1.1225786 0.4364669
-2.1824865 -1.1224287 0.43617818
-2.1742527 -1.1221912 0.43604586
-2.159533 -1.1222064 0.4358055
-2.1203277 -1.1222596 0.4351652
-2.0625236 -1.1219308 0.43422467
-2.0395706 -1.1217085 0.43385196
-2.0150383 -1.1217338 0.43345138
-1.7971787 -1.044873 0.43055326
-1.7594094 -1.04268 0.4299556
-1.7194219 -1.0425179 0.42930442
-1.5151629 -1.1208539 0.42530096
-1.4348905 -1.1604985 0.42365184
-1.3949027 -1.1603365 0.42300063
-1.3549614 -1.1601841 0.42235008
-1.3154774 -1.1376112 0.42189875
-1.1194687 -1.0750859 0.41923463
-1.0394731 -1.0797616 0.41788912
-0.99948597 -1.0795996 0.41723791
-0.96051979 -1.0798597 0.41659975
-0.91654634 -1.08365 0.41584969
-0.83952522 -1.0814514 0.41461152
-0.79805565 -1.0834765 0.41391742
-0.75954962 -1.0811274 0.4133091
-0.71763992 -1.0805389 0.41263017
-0.67661095 -1.0851779 0.41192091
-0.59887362 -1.0778232 0.4107151
-0.59461117 -1.0779591 0.41064441
-0.55594158 -1.0770359 0.41002122
-0.51847935 -1.069916 0.40947071
-0.4789505 -1.0673375 0.40884766
-0.29836321 -1.1140009 0.4055014
-0.28376198 -1.1224558 0.40519077
-0.26407957 -1.122195 0.40487179
-0.24252796 -1.1221983 0.40452003
-0.22218418 -1.1220311 0.40418947
-0.200665 -1.1216495 0.40384153
-0.18223476 -1.121592 0.40354127
-0.1198864 -1.1153519 0.4025771
-0.10026026 -1.1153548 0.40225679
-0.077399254 -1.1151748 0.40188521
0.17707443 -1.0926478 0.39792487
0.25762796 -1.1168222 0.39640349
0.2970314 -1.1163061 0.39576483
0.29699421 -1.076365 0.39610702
0.30167818 -1.0331311 0.39640033
0.302948 -0.99308509 0.39672211
0.30135012 -0.95313555 0.39708987
0.30149269 -0.943093 0.3971734
0.31493473 -0.83624303 0.39786789
0.33266878 -0.74085933 0.39839423
0.31804276 -0.71303242 0.39887092
0.33784103 -0.39327902 0.40128249
0.3365922 -0.29097846 0.40217778
0.33727407 -0.27205172 0.40232852
0.33641768 -0.24848075 0.40254408
0.67049456 0.10957289 0.4001542
0.2149744 -0.19273931 0.40500277
-0.17726278 0.0048756003 0.41309416
-0.18482113 0.14397758 0.41440719
-0.22573853 0.26367134 0.41609865
-0.22647095 0.32859755 0.41666585
-0.22712326 0.40108907 0.4172965
-0.25382471 0.50299966 0.41860384
-0.2309041 0.64535391 0.41944727
0.33056974 0.62854046 0.41014022
0.37076712 0.58883756 0.40914464
0.37089968 0.62905383 0.40948641
0.40924835 0.78930557 0.41023111
0.40719414 1.3476809 0.41504014
0.40572405 1.3565143 0.41513968
0.39931917 1.3595965 0.41527057
0.3593111 1.3617376 0.4159418
0.31932592 1.3613789 0.41659129
0.27936316 1.3585206 0.41721904
0.23937798 1.3581619 0.41786852
0.16506147 1.3598406 0.41909572
0.12577343 1.362741 0.41976172
0.07945919 1.3542275 0.42044476
0.0060343742 1.352343 0.42162693
-0.11491203 1.3710668 0.42376089
-0.34172535 1.3906126 0.42762965
-0.35390997 1.3908106 0.42783019
-0.3543992 1.3904102 0.42783475
-0.52755785 1.3183684 0.43004459
-0.56937551 1.3152702 0.43070054
-0.60714483 1.313121 0.43129855
-0.68930721 1.3072704 0.43258941
-0.72782326 1.3074485 0.43321952
-0.80925989 1.3042703 0.43452138
-0.84528112 1.3025303 0.43509436
-0.88849878 1.3041091 0.43581319
-0.92627907 1.3044595 0.43643275
-0.96922064 1.3061031 0.43714762
-1.0092187 1.3084362 0.43782032
-1.0473657 1.3087009 0.43844515
-1.0873432 1.3060343 0.43907478
-1.2054968 1.313464 0.44106659
-1.2869339 1.3102859 0.44236845
-1.3687797 1.3170216 0.4437618
-1.4091661 1.3242675 0.44448286
-1.4502575 1.3238429 0.44514984
-1.4887631 1.3215209 0.4457584
-1.5291085 1.3187677 0.44639328
-1.609441 1.3158486 0.44767934
-1.6461272 1.3189569 0.44830465
-1.6872187 1.3185321 0.44897163
-1.7272062 1.3183652 0.44962281
-1.7661004 1.3209565 0.45027971
-1.805352 1.3209621 0.45092034
-1.8886287 1.3173535 0.45224857
-1.9260404 1.3177894 0.45286286
-9.324789 -0.0049005449 0.56229812
-9.1641417 -0.15444572 0.55839741
-9.0365829 -0.28234753 0.55522174
-9.0331402 -0.28843388 0.55511349
-9.0312796 -0.32355699 0.55478275
-9.0387039 -0.33361244 0.55481791
-9.1172581 -0.48398268 0.55481386
-9.1186762 -0.60386163 0.55381179
-9.1173944 -0.64858055 0.55340838
-9.1159878 -0.76807451 0.55236346
-9.1094408 -0.80361605 0.55195266
-8.8359375 -1.1084099 0.54488236
-8.7517157 -1.1080838 0.54351068
-8.7121887 -1.1156325 0.54280102
-8.5514755 -1.1440823 0.53993487
-8.471714 -1.1486568 0.53859401
-8.3915234 -1.1403835 0.53735608
-8.311779 -1.1424583 0.53603691
-8.1958075 -1.1359826 0.5341996
-8.1521435 -1.1314344 0.53352594
-8.0758858 -1.1275599 0.53231454
-8.0324421 -1.1282098 0.5316
-7.9924688 -1.1254103 0.53097153
-7.9527912 -1.1177856 0.53038925
-7.8726568 -1.1020126 0.52921635
-7.832942 -1.0993875 0.52859062
-7.79321 -1.0992622 0.52794325
-7.7532358 -1.0964627 0.52731484
-7.7132611 -1.0936631 0.52668643
-7.6332941 -1.0905638 0.52540785
-7.6123281 -1.0896132 0.52507383
-7.5723352 -1.0893183 0.52442366
-7.5333829 -1.0896572 0.52378505
-7.5120163 -1.0887923 0.52344376
-7.4920902 -1.0885701 0.52312046
-7.4534154 -1.0865676 0.52250642
-7.4134226 -1.086273 0.52185625
-7.3793278 -1.0875775 0.52128869
-7.2924042 -1.0847547 0.51989424
-7.2534518 -1.0850937 0.51925564
-7.1735029 -1.0795044 0.51799864
-7.0994 -1.0827062 0.5167619
-7.0194149 -1.0820287 0.51546234
-6.973001 -1.0802133 0.51472038
-6.9394298 -1.0813512 0.51416278
-6.8935351 -1.0799406 0.51342583
-6.8530588 -1.0743291 0.51281327
-6.7765093 -0.50586486 0.51642573
-6.8697052 -0.46680692 0.51828074
-6.9378576 -0.44762272 0.51955706
-7.2250051 -0.43646991 0.52433866
-9.3830137 0.096630573 0.56411672
-9.4006081 0.09642148 0.56440204
-9.4147367 -0.045746446 0.56341672
-9.837553 -0.25388774 0.568537
-9.8450527 -0.25394541 0.56865889
0.20198154 1.3338665 0.41827103
0.16199589 1.3335078 0.41892055
-0.15296698 1.0642961 0.42175829
-0.21201277 0.94370556 0.42169058
-0.21428776 0.74299955 0.42001119
0.33021832 0.67857891 0.4105739
0.36961842 0.74392998 0.4104898
-7.7166004 1.2684079 0.54694241
-7.7696452 1.2709711 0.54783005
-7.7974195 1.2723486 0.54829508
-7.8101759 1.2727548 0.54850674
-7.8766079 1.2722381 0.54958647
-7.9304142 1.2716485 0.55045956
-7.9573908 1.2711792 0.55089581
-8.0106602 1.2708416 0.55176228
-8.0768185 1.2681185 0.55281872
-8.1300993 1.2678604 0.55368602
-8.170352 1.2673527 0.55433863
-8.1965666 1.2723993 0.55480957
-8.2765884 1.2768141 0.5561533
-8.290144 1.2766623 0.55637324
-8.3176441 1.2758895 0.55681545
-8.3706493 1.275647 0.5576784
-8.4106598 1.2778475 0.55835021
-8.4365768 1.2781447 0.55877566
-7.4798584 1.2694405 0.5430876
-7.5107355 1.2703212 0.54359907
-7.5304685 1.2721418 0.54393667
-7.5707216 1.2716341 0.54458928
-7.59022 1.2725705 0.5449155
-7.6107326 1.2738346 0.54526109
-7.650465 1.2737436 0.54590869
-7.6896782 1.2740694 0.54655147
-7.7704802 1.2778453 0.54790246
-7.7971716 1.2750065 0.54831374
-7.8774233 1.2742637 0.54961711
-7.8907003 1.2742393 0.5498336
-7.9307113 1.2764397 0.5505054
-7.9566288 1.2766532 0.5509302
-7.9966035 1.2738609 0.55155867
-8.0504103 1.2732503 0.55243158
-8.1293755 1.2759849 0.55374372
-8.1696453 1.2779771 0.55441797
-8.2506886 1.2790449 0.55574971
-8.2899017 1.2793707 0.55639243
-8.316617 1.2815214 0.55684686
-8.3704443 1.283355 0.55774099
-8.3966017 1.2809368 0.55814719
-8.4104195 1.2805557 0.5583694
-8.4368601 1.2804863 0.55880034
-8.4504118 1.2802564 0.55901957
-7.4706278 1.2681866 0.54292625
-7.4796829 1.268744 0.54307878
-7.5198512 1.2690979 0.54373735
-7.5566301 1.2695773 0.54434168
-7.5966043 1.2667851 0.54497021
-7.629396 1.2677944 0.54551399
-7.6400414 1.2678922 0.54568857
-7.6501684 1.2689524 0.54586291
-7.4507284 1.2682711 0.54260218
0 0 0 1 0 0 0 1 0 0 0 1 0 0 0 0 0 875 1 0 0
