ply
format ascii 1.0
comment PCL generated
element vertex 589
property float x
property float y
property float z
element camera 1
property float view_px
property float view_py
property float view_pz
property float x_axisx
property float x_axisy
property float x_axisz
property float y_axisx
property float y_axisy
property float y_axisz
property float z_axisx
property float z_axisy
property float z_axisz
property float focal
property float scalex
property float scaley
property float centerx
property float centery
property int viewportx
property int viewporty
property float k1
property float k2
end_header
-11.795622 0.073865987 -4.1829195
-11.795324 0.033631869 -4.1887422
-11.78326 -0.034957856 -4.1996288
-11.66991 -0.13695605 -4.2237468
-11.357277 -0.54314673 -4.3082609
-11.445194 -0.74613172 -4.3302054
-11.432072 -0.7827127 -4.3365679
-11.429803 -0.78817886 -4.337544
-11.356188 -0.98796141 -4.3724508
-11.355436 -0.9915877 -4.3730359
-11.252321 -1.0777237 -4.3940177
-11.23633 -1.080295 -4.3957171
-11.133145 -1.115169 -4.4093175
-10.90664 -1.1195426 -4.428771
-10.866847 -1.1213385 -4.4323368
-10.740642 -1.1357729 -4.4449048
-10.661024 -1.1295625 -4.4506264
-10.621224 -1.1289079 -4.4538398
-10.588284 -1.1290088 -4.4565916
-10.462629 -1.1371757 -4.4682107
-10.163837 -1.1846995 -4.4998899
-10.068993 -1.2224573 -4.5132127
-10.047812 -1.2254083 -4.515398
-9.9053125 -1.2704699 -4.5337338
-9.7683277 -1.2815869 -4.54672
-9.7081699 -1.2490333 -4.5470281
-9.6729259 -1.2365098 -4.5481524
-9.4850426 -1.2222022 -4.5617042
-9.4077206 -1.2148433 -4.5670695
-9.3258514 -1.2241701 -4.5752172
-9.2906027 -1.2091998 -4.5759892
-9.2484818 -1.1923455 -4.5770607
-9.1112261 -1.1657149 -4.5846295
-9.0949526 -1.1624469 -4.5855112
-9.0712166 -1.1590416 -4.5869927
-8.9323111 -1.1561329 -4.5981174
-8.8925362 -1.1676345 -4.6030803
-8.8000784 -1.1540595 -4.6088076
-8.656641 -1.1751763 -4.6237707
-8.5719519 -1.2166121 -4.6367798
-8.5470572 -1.2063687 -4.6373725
-8.4103975 -1.1804376 -4.6449924
-8.3508883 -1.1754961 -4.6492257
-8.328496 -1.1726383 -4.6506748
-8.2488995 -1.1736223 -4.6574316
-8.169323 -1.1843926 -4.6655965
-8.0476685 -1.2003279 -4.6780028
-8.0078592 -1.1947033 -4.6805005
-7.8080425 -1.2128305 -4.6997185
-7.7514744 -1.2036264 -4.7030931
-7.6951914 -1.1936851 -4.7063379
-7.6578112 -1.186689 -4.708436
-7.4895682 -1.1364858 -4.7151833
-7.4497738 -1.1382356 -4.7187424
-7.325717 -1.1054344 -4.7243252
-7.3082685 -1.087975 -4.723259
-6.8526945 -1.0885186 -4.7611971
-6.7662368 -1.1011039 -4.770196
-6.6058588 -1.0838878 -4.7810431
-6.5821261 -1.0807104 -4.7825575
-6.5682011 -1.0780504 -4.7833314
-6.5470982 -1.0745745 -4.784584
-6.4852285 -1.0428681 -4.7851567
-6.3341737 -1.0229969 -4.7948465
-6.1862102 -1.0627016 -4.8128643
-6.0133047 -1.0927728 -4.8315663
-5.9587989 -1.1046834 -4.8378124
-5.826827 -1.128695 -4.8522401
-5.8005247 -1.1316813 -4.854856
-5.7770772 -1.1278191 -4.8562479
-5.6779056 -1.1003567 -4.8605323
-5.6381011 -1.0972058 -4.8633862
-5.518712 -1.1000044 -4.8737111
-5.468749 -1.0887049 -4.876235
-5.2818313 -1.1162704 -4.8957405
-5.1279011 -1.1105602 -4.9077101
-5.0496292 -1.1066442 -4.91365
-5.0137615 -1.1079515 -4.9168196
-4.9687552 -1.1030593 -4.9198546
-4.9289737 -1.1024103 -4.9230671
-4.8892131 -1.1066664 -4.9269848
-4.849431 -1.1060175 -4.9301972
-4.678525 -1.1273106 -4.9474683
-4.6401863 -1.121264 -4.9497833
-4.6003647 -1.1108049 -4.9515853
-4.4862051 -1.103291 -4.9599895
-4.4239807 -1.1149112 -4.966835
-4.3792276 -1.1141812 -4.970449
-4.0854869 -1.0807074 -4.990036
-3.9214494 -1.0927457 -5.005403
-3.8868427 -1.0840772 -5.00703
-3.7251353 -1.0867174 -5.0208488
-3.6404083 -1.0958915 -5.029212
-3.5287802 -1.070879 -5.034884
-3.4414511 -1.0803838 -5.0435114
-3.281338 -1.1144142 -5.0617208
-3.1681261 -1.060464 -5.063355
-3.0911155 -1.0465726 -5.0677528
-2.963985 -1.0505233 -5.0788875
-2.8670292 -1.0684127 -5.0895224
-2.8050108 -1.0847156 -5.0970259
-2.8024082 -1.0850464 -5.0972896
-2.7035418 -1.0934914 -5.1067228
-2.6655211 -1.0926055 -5.1097546
-2.5858707 -1.0915048 -5.1162157
-2.4682007 -1.0895184 -5.1257081
-2.3505874 -1.1022475 -5.1373162
-2.4355636 -1.0802675 -5.1270871
-2.5549712 -1.0647502 -5.1149278
-2.7160468 -1.0592577 -5.1007504
-2.8549891 -1.0325377 -5.0853534
-2.8907857 -1.0140625 -5.0797162
-2.9613109 -0.99411845 -5.0709815
-3.1663766 -0.57902253 -4.994123
-2.8497887 -0.4025647 -4.9950047
-2.7725101 -0.34254789 -4.9927783
-2.7672215 -0.26399598 -4.9818983
-2.7867951 -0.17843023 -4.9679413
-2.6934881 0.12941697 -4.9313335
-2.695828 0.15071815 -4.9280696
-2.7080097 0.17503771 -4.9235525
-2.7712626 0.23866677 -4.9091268
-2.8256774 0.54726017 -4.8601356
-2.8288255 0.60611194 -4.8513932
-2.8289452 0.57667911 -4.8556247
-0.50440788 -1.2897027 -5.3177533
-0.63005686 -1.3255242 -5.3124733
-0.66977024 -1.3264019 -5.3092995
-0.83776808 -1.2162302 -5.2794623
-0.9571557 -1.1958075 -5.2665977
-1.0350118 -1.1996964 -5.2606878
-1.1129251 -1.2183008 -5.2568941
-1.2255592 -1.2055029 -5.2456894
-1.4262967 -1.2703093 -5.2383461
-1.4661117 -1.2684071 -5.2347636
-1.5244026 -1.2488714 -5.2271042
-1.6251893 -1.2141984 -5.2137318
-1.7065663 -1.1953424 -5.2042522
-1.7872643 -1.1759993 -5.1947584
-1.6002221 -1.1451125 -5.2058516
-1.5579371 -1.1518857 -5.2103415
-1.4385109 -1.1624979 -5.2217956
-1.339025 -1.180743 -5.2326922
-1.237639 -1.1747978 -5.2402611
-1.1994147 -1.1794721 -5.2441111
-1.1331367 -1.1831638 -5.2501512
-1.0385132 -1.1720464 -5.2564125
-0.99870777 -1.1764013 -5.2603478
-0.91695738 -1.1864296 -5.2685871
-0.87750578 -1.194707 -5.2730584
-0.7274189 -1.1775578 -5.2830596
-0.71994162 -1.175002 -5.2833128
-0.68009758 -1.1695467 -5.2858381
-0.63849688 -1.17669 -5.2903242
-0.59868193 -1.1785921 -5.2939072
-0.52090359 -1.1943241 -5.3026381
-0.51144695 -1.2289146 -5.3084083
-0.50621843 -1.2794087 -5.3161192
-0.23450327 1.380813 -4.9553537
-0.22330761 1.3633317 -4.9588032
-0.41934729 1.3374935 -4.9462352
-0.49905872 1.3268081 -4.9411507
-0.84015608 1.3333824 -4.9118567
-0.87643147 1.317481 -4.9111338
-0.91624641 1.3193882 -4.9075499
-0.95426559 1.3185228 -4.9045153
-0.99591637 1.3133913 -4.9017935
-1.0719562 1.3116608 -4.8957233
-1.1153913 1.3117545 -4.8921003
-1.1932063 1.3177016 -4.8847766
-1.3151064 1.3306073 -4.8727865
-1.352417 1.3375937 -4.868679
-1.4320569 1.3389552 -4.8618646
-1.5117168 1.335411 -4.8557553
-1.5515723 1.327507 -4.8535824
-1.5875301 1.3301557 -4.8502126
-1.6347923 1.336866 -4.8453178
-1.7108321 1.3351355 -4.8392482
-1.8303275 1.3285929 -4.8302603
-1.8701725 1.3231418 -4.8277345
-1.9504104 1.3163252 -4.8220487
-1.9896474 1.321505 -4.8180418
-2.0710731 1.3280914 -4.8103256
-2.156158 1.3230535 -4.8039808
-2.2810078 1.3321865 -4.7922893
-2.4004736 1.3330022 -4.7822437
-2.4403081 1.3300039 -4.7793655
-2.5598235 1.318556 -4.7710829
-2.5960479 1.3149183 -4.7685966
-2.6340685 1.3140529 -4.7655621
-2.7173676 1.30379 -4.7601185
-2.7481675 1.3016461 -4.7578678
-2.8354268 1.2915636 -4.752069
-2.8676729 1.2926509 -4.7492328
-2.9150085 1.2906208 -4.7455916
-3.0018597 1.3030493 -4.7365828
-3.1262863 1.2852081 -4.7288136
-3.1946507 1.2647746 -4.7260766
-3.2061791 1.2626492 -4.7254248
-3.394994 1.2804282 -4.7071719
-3.5142658 1.2912755 -4.6956968
-3.556473 1.2960788 -4.6914968
-3.5987003 1.2984295 -4.6876488
-3.6733685 1.2967469 -4.6816864
-3.7928011 1.2879752 -4.6730251
-4.0680923 1.0541539 -4.6838417
-4.0413475 0.68995804 -4.7385459
-4.1026125 0.50657678 -4.7598805
-4.0713587 0.36591995 -4.7827468
-4.0839543 0.34615359 -4.7845488
-4.0863132 0.039057337 -4.8286061
-4.0298405 -0.1614898 -4.8621984
-4.0053005 -0.23956561 -4.8754888
-4.0104356 -0.27888748 -4.8807287
-4.0064321 -0.39554667 -4.897872
-3.969234 -0.50836557 -4.9172211
-3.4863727 -0.66997617 -4.9806371
-3.4422944 -0.65331024 -4.9818983
-3.1713393 -0.5766511 -4.9933691
-2.9436073 -0.27204004 -4.968399
-2.9431224 -0.15431798 -4.9514751
-2.9101849 -0.05693939 -4.9401798
-2.9057083 -0.037830338 -4.937798
-2.8705716 0.085350297 -4.9229674
-2.8577666 0.1271472 -4.9180083
-2.8135762 0.23808706 -4.905694
-0.91692019 1.3759607 -4.8993416
-1.104166 1.3970184 -4.8807464
-1.3216271 1.3372848 -4.8712826
-1.3632274 1.3444169 -4.8667974
-1.3976178 1.3478178 -4.8634496
-1.5206032 1.3713474 -4.8498383
-1.6802902 1.3851874 -4.8345733
-1.8356829 1.3442682 -4.8275566
-1.9506063 1.3461794 -4.8177304
-1.9730077 1.3458725 -4.8159132
-2.0347781 1.3488982 -4.8103437
-2.0746131 1.3458998 -4.8074656
-2.2395058 1.3604643 -4.7916632
-2.2992435 1.3596458 -4.7868171
-2.3927894 1.3626294 -4.7786131
-2.432168 1.3607775 -4.7756076
-2.472774 1.3625178 -4.7719822
-2.5200663 1.3618698 -4.7681451
-2.7605543 1.365202 -4.7476797
-2.838449 1.3515272 -4.7431769
-2.9198742 1.3581139 -4.7354612
-3.0111842 1.3658384 -4.7267599
-3.0908256 1.3575383 -4.7213373
-3.3147488 1.3622996 -4.7020426
-3.526228 1.332363 -4.6887817
-3.5659783 1.3367964 -4.6848397
-3.6903043 1.3312169 -4.6753116
-3.7698257 1.3376311 -4.667779
-3.8096769 1.3298025 -4.6655951
-3.9266524 1.3206611 -4.6571913
-4.0498714 1.3376274 -4.6445065
-4.0880914 1.3412164 -4.6408134
-4.1676731 1.3402736 -4.6343355
-4.2496309 1.34951 -4.6261935
-4.3717608 1.3379134 -4.6177154
-4.413868 1.3353032 -4.6145921
-4.4885559 1.3246098 -4.6099262
-4.6029744 1.3273602 -4.6000214
-4.6451817 1.3321633 -4.5958214
-4.6873693 1.3394189 -4.59127
-4.8043451 1.3302774 -4.5828662
-4.8913569 1.3296455 -4.5757265
-5.0082321 1.3262076 -4.5665092
-5.1674557 1.3169644 -4.5546093
-5.2380862 1.3228314 -4.547894
-5.2766871 1.3218507 -4.5448275
-5.3265781 1.3199832 -4.5409503
-5.3960633 1.3222653 -4.5348473
-5.5163512 1.3173935 -4.5255527
-5.5576353 1.3177055 -4.5220771
-5.5974226 1.3194772 -4.5185151
-5.674633 1.3150655 -4.5127344
-5.7144203 1.3168371 -4.5091729
-5.7963877 1.3185347 -4.5021162
-5.8759623 1.3220781 -4.4949927
-5.9555435 1.3231711 -4.4882216
-6.0327616 1.3163092 -4.4827938
-6.074935 1.3186854 -4.4789462
-6.156888 1.3252835 -4.4711852
-6.1943111 1.3191001 -4.468966
-6.3160586 1.3250197 -4.4579954
-6.4877014 1.3771545 -4.4362183
-6.5114202 1.3798693 -4.433856
-6.7137451 1.3052951 -4.4277887
-6.7538438 1.3028547 -4.424808
-6.7888575 1.3034173 -4.4218173
-6.8672266 1.3025007 -4.4154363
-6.9303088 1.3078412 -4.4094248
-6.955173 1.3098674 -4.4070663
-7.0264115 1.3069859 -4.4015613
-7.0745568 1.3078318 -4.3974385
-7.1457968 1.3121876 -4.3908906
-7.3049994 1.3068712 -4.3784261
-7.353096 1.3104327 -4.3739161
-7.3868918 1.3084724 -4.3713899
-7.4664955 1.304589 -4.365334
-7.6164451 1.3312429 -4.3490319
-7.6665745 1.3380984 -4.3438783
-7.7524333 1.3364905 -4.3369746
-7.8741417 1.3596755 -4.3235192
-7.9041414 1.3524917 -4.3220615
-8.0881815 1.2895958 -4.3158307
-8.1701145 1.2938347 -4.3084106
-8.2497063 1.2925478 -4.3019819
-8.2755222 1.2894294 -4.3002858
-8.3153324 1.2838138 -4.2977867
-8.3644047 1.2820162 -4.2939677
-8.3949299 1.2848322 -4.2910252
-8.4347229 1.2890162 -4.2871151
-8.4745207 1.2907504 -4.2835579
-8.5143261 1.2875847 -4.2807064
-8.5259209 1.2874181 -4.2797666
-8.7304964 1.3641669 -4.2517061
-8.7865334 1.3604791 -4.2475805
-8.8488102 1.334973 -4.2460809
-8.9987297 1.2857956 -4.2407084
-9.0456228 1.2821289 -4.23734
-9.0830593 1.2808598 -4.2344117
-9.2094688 1.2955066 -4.221796
-9.3241692 1.2849749 -4.2137814
-9.3501368 1.2823532 -4.2120013
-9.4880238 1.2959027 -4.1985898
-9.5491314 1.286124 -4.194921
-9.5889397 1.2805085 -4.1924219
-9.6685429 1.2790769 -4.1860127
-9.7083435 1.2783612 -4.1828084
-9.7221317 1.2785404 -4.1816368
-9.8438702 1.2796857 -4.1713548
-10.088543 1.3540318 -4.1403084
-10.273864 1.2991562 -4.1328149
-10.353419 1.3054249 -4.1253004
-10.433005 1.3067943 -4.1184893
-10.472807 1.306254 -4.1152596
-10.512592 1.3081636 -4.1116781
-10.602114 1.3118477 -4.1037073
-10.671764 1.3109024 -4.0980554
-10.709282 1.3096813 -4.0951138
-10.751351 1.3122717 -4.0912442
-10.821017 1.3088768 -4.0859442
-10.870737 1.3131009 -4.0812035
-10.910522 1.3150104 -4.0776219
-10.950309 1.31692 -4.0740404
-10.990094 1.3188295 -4.0704589
-11.029895 1.3182893 -4.0672293
-11.069712 1.3152994 -4.0643511
-11.385118 1.3333992 -4.0355315
-11.424778 1.3325102 -4.0323639
-11.465298 1.3312643 -4.0291758
-11.657071 1.2919195 -4.0189085
-11.664253 1.2911208 -4.0184269
-11.66458 1.2844691 -4.0193582
-11.672749 1.1858988 -4.0328836
-11.586752 0.62065661 -4.1214833
-11.659527 0.54163653 -4.1268225
-11.688824 0.51983094 -4.1275301
-11.693851 0.50752372 -4.1288857
-11.694084 0.45351121 -4.1366496
-11.782238 0.11162803 -4.1785903
-8.9408493 1.2544792 -4.2500315
-9.0602741 1.2400826 -4.2421813
-9.1954279 1.2623523 -4.2277403
-9.2217035 1.2623551 -4.2255564
-9.2750111 1.2635155 -4.2209592
-9.3546038 1.2622285 -4.21453
-9.3943806 1.2664851 -4.2106113
-9.500308 1.2597945 -4.2027726
-9.5535755 1.2614614 -4.1981053
-9.6331682 1.2601744 -4.1916766
-9.6729736 1.257081 -4.1888142
-9.7525768 1.2533441 -4.1827374
-9.7923822 1.2502503 -4.1798754
-9.8607864 1.2539891 -4.1736522
-10.048842 1.2058855 -4.1649556
-9.9549942 0.65295666 -4.2524333
-9.8824606 0.58685946 -4.2679863
-9.9038353 0.42965946 -4.2888627
-9.8679199 0.30714092 -4.3095026
-9.8582706 0.26253483 -4.3167324
-9.8474874 0.18433663 -4.3288975
-9.8671875 0.17241067 -4.3289785
-9.988781 0.048893802 -4.3366733
-10.020105 0.15344957 -4.3190031
-9.9948645 0.34540936 -4.2934389
-10.021396 0.43776235 -4.2779255
-10.030864 0.46099511 -4.2737908
-10.136001 0.58868504 -4.2466531
-10.140968 0.59349537 -4.2455473
-10.157253 0.62357551 -4.2398591
-10.175236 0.67022753 -4.2316418
-10.176364 0.67299569 -4.2311492
-10.185202 0.69807255 -4.2268009
-10.406863 1.2225004 -4.1328087
-10.528575 1.2339346 -4.1210461
-10.565985 1.2298849 -4.1185212
-10.65037 1.2306882 -4.1113925
-10.687779 1.2266386 -4.1088672
-10.797172 1.2323271 -4.0989566
-10.926502 1.2303748 -4.08849
-10.966282 1.2322211 -4.084918
-11.006077 1.2316204 -4.0816975
-11.085693 1.2255256 -4.0759597
-11.411743 1.1356452 -4.0618157
-11.446837 1.1159128 -4.0617428
-11.51095 0.6311534 -4.1262703
-11.506727 0.62069064 -4.128129
-11.499387 0.56391275 -4.1369209
-11.519604 0.50733757 -4.143393
-11.535149 0.42673716 -4.1537161
-11.588243 0.22626647 -4.1781921
-11.58735 0.18673119 -4.1839638
-11.586633 0.16351312 -4.1873689
-11.597733 0.042772017 -4.203846
-11.147223 -0.26218912 -4.2852306
-11.067486 -0.2192201 -4.285665
-10.965279 -0.21203549 -4.2931232
-10.920721 -0.21680605 -4.297514
-10.836273 -0.25462413 -4.3099813
-10.747076 -0.30031797 -4.3239784
-10.36073 -0.36446372 -4.3653288
-10.320433 -0.3427788 -4.3655529
-10.258223 -0.32185948 -4.3677082
-7.328486 -0.24908403 -4.6006923
-7.2267127 -0.25771213 -4.6103935
-6.9236398 0.096427031 -4.584547
-6.9302731 0.12851977 -4.5793715
-6.7287893 0.35846329 -4.5629797
-6.6919384 0.5630914 -4.5365548
-6.6876516 0.63156205 -4.5270443
-6.6124949 0.72237498 -4.5202036
-6.5744872 0.76675308 -4.5169668
-6.7715707 1.2826953 -4.42624
-6.8955612 1.2841636 -4.4157243
-6.9728622 1.282147 -4.4095907
-7.0524778 1.2709126 -4.4045935
-7.0922775 1.2701962 -4.4013891
-7.1337938 1.2735929 -4.3974495
-7.1755972 1.2776755 -4.3933873
-7.2935643 1.2720983 -4.3843875
-7.3907733 1.2648226 -4.3773575
-7.4096713 1.2620651 -4.3761845
-7.5300884 1.2525136 -4.3675537
-7.7712569 0.77594495 -4.4161868
-7.7696247 0.77259934 -4.4168043
-7.7661142 0.76431072 -4.4182906
-7.7525139 0.7222026 -4.4254889
-7.7334428 0.61663419 -4.4422865
-7.7134686 0.57165295 -4.450428
-7.7108393 0.56608206 -4.4514494
-7.6482363 0.45332351 -4.4729009
-7.5874972 0.39061981 -4.4869843
-7.5726123 0.37862316 -4.4899502
-7.5801935 0.33929259 -4.4949875
-7.5879469 0.2436071 -4.508132
-7.6364026 0.089796536 -4.5262694
-7.3659801 -0.24546203 -4.5970545
-0.44520807 1.4155129 -4.9328432
-0.40536356 1.420964 -4.935369
-0.30898857 1.4045136 -4.9457483
-0.27108145 1.4053414 -4.9487796
-10.054598 -0.33973712 -4.3872066
-10.055371 -0.34536788 -4.3879533
-10.083572 -0.47656584 -4.4045157
-10.087822 -0.59612721 -4.421392
-9.8557014 -1.0858898 -4.5112581
-9.8394947 -1.0889323 -4.5130434
-9.4887409 -0.76757693 -4.4958839
-9.4210453 -0.69574082 -4.491158
-9.4161453 -0.68897045 -4.4905896
-9.3744946 -0.69302988 -4.4946361
-9.263526 -0.68621987 -4.5028763
-8.9806175 -0.41709635 -4.4876056
-8.9779758 -0.3778598 -4.4821711
-8.8322268 -0.079946563 -4.4513531
-8.8368406 0.0041948408 -4.4388447
-8.8431683 0.073652811 -4.4283094
-8.8461437 0.13333219 -4.4194622
-8.8382196 0.18575597 -4.4125667
-8.8378534 0.26973358 -4.4004955
-8.825902 0.3184253 -4.3944721
-8.8046131 0.32433307 -4.39539
-8.7265396 0.25454798 -4.4119344
-8.6885719 0.16040403 -4.4286561
-8.6886396 0.12120575 -4.434299
-8.6887074 0.08200755 -4.4399419
-8.6895828 0.057920791 -4.4433403
-8.6896582 0.018775336 -4.4489746
-8.6148434 -0.44955447 -4.5226798
-8.1328611 -0.54309499 -4.5762138
-7.8233151 -0.3077777 -4.568028
-7.7981467 -0.22939819 -4.558825
-7.782918 -0.072542116 -4.537487
-7.7806072 -0.061312176 -4.5360608
-7.7708488 0.025081567 -4.5244222
-7.7714958 0.083220385 -4.5159907
-7.7713962 0.10520696 -4.5128307
-7.7713127 0.14441362 -4.5071878
-7.7816544 0.20762432 -4.4972196
-7.7986679 0.31088793 -4.4809251
-7.8704019 0.54478008 -4.4412589
-7.9176927 0.65594375 -4.4213099
-7.9390259 0.69231725 -4.4142957
-7.9349031 0.77322531 -4.4029789
-7.9708219 1.0692666 -4.3573337
-8.2639656 1.2537059 -4.3063941
-8.2692232 1.2543085 -4.3058705
-8.3040409 1.2585819 -4.302361
-8.3995304 1.267871 -4.293087
-8.5053015 1.2629893 -4.2850003
-8.5849037 1.2615578 -4.2785916
-8.6383085 1.2640103 -4.2737999
-8.6781044 1.2633669 -4.2705855
-8.7418518 1.2531585 -4.2667589
-8.7577257 1.2547297 -4.2652135
-8.7886677 1.2561209 -4.2624416
-6.0216136 0.19658402 -4.6450758
-5.4531832 0.33117127 -4.6729198
-5.4164834 0.42405465 -4.6625848
-5.3695407 0.56514013 -4.6461554
-5.330668 0.69356656 -4.6308789
-5.2743778 0.73419929 -4.6297016
-5.4536819 1.2537143 -4.539937
-5.6151352 1.2759355 -4.5233178
-5.6618161 1.2843211 -4.51823
-5.7788992 1.2913895 -4.5074816
-5.8164091 1.2851886 -4.5052576
-5.8810792 1.2864747 -4.4996982
-5.8959994 1.2886564 -4.4981437
-6.017683 1.2944417 -4.4871979
-6.0926819 1.2942916 -4.4809866
-6.1370773 1.2947425 -4.4772325
-6.2166848 1.2884089 -4.4715295
-6.3744559 1.2796649 -4.4596782
-6.5382776 0.76868778 -4.5196972
-6.4982071 0.7094025 -4.5315704
-6.4664712 0.58130968 -4.5526667
-6.0707903 0.21597162 -4.638195
-6.0602689 0.21477702 -4.6392417
-0.88405991 1.3571833 -4.9047785
-0.51205635 1.3834836 -4.9319034
-0.49957657 1.3885249 -4.9322138
-4.2581592 0.34249336 -4.7705989
-4.4012117 0.17279765 -4.7831645
-4.4462175 0.1362803 -4.7846866
-4.451232 0.13131666 -4.7849851
-4.5170894 0.019182354 -4.795671
-4.619873 -0.15869236 -4.8127618
-4.9782233 -0.21321249 -4.7908382
-5.0204911 -0.21390203 -4.787425
-5.1000133 -0.20538983 -4.7795897
-5.2960939 0.3352493 -4.6853871
-5.2396388 0.4186838 -4.6780553
-5.1984787 0.473582 -4.6735649
-5.237607 0.66637409 -4.6425314
-5.2375669 0.67127883 -4.6418281
-5.2371845 0.71787405 -4.6351452
-5.1505594 1.2775896 -4.5616875
-5.0336242 1.2818263 -4.5707946
-4.9539824 1.2901264 -4.5762167
-4.8743601 1.2959739 -4.5819912
-4.7599721 1.2993826 -4.5910058
-4.5934286 1.2915473 -4.6059756
-4.4765139 1.2933317 -4.6154342
-4.3598394 1.2656875 -4.6291142
-4.0869308 1.0516106 -4.6826429
-4.0538626 0.68000126 -4.7389407
-4.1523409 0.5104928 -4.7551837
-2.1045942 -1.1444354 -5.1638389
-2.1444101 -1.1425331 -5.1602559
-2.184196 -1.1332729 -5.1556149
-2.2276006 -1.1257941 -5.1509304
-2.2655826 -1.1168696 -5.1464877
-2.2691908 -1.1161982 -5.146091
-2.2709765 -1.1109573 -5.1451874
-2.1974087 -1.1068844 -5.1507144
-2.1171665 -1.1273699 -5.1603346
-2.0375257 -1.128722 -5.1671481
-1.9525504 -1.1507019 -5.1773772
-1.8747239 -1.1541709 -5.1843448
-1.8295341 -1.1668906 -5.1899328
-2.0249925 -1.1555978 -5.1720624
-1.9851866 -1.1599528 -5.1759977
-1.947166 -1.1590668 -5.1790299
-1.8259444 -1.1724672 -5.1910348
0 0 0 1 0 0 0 1 0 0 0 1 0 0 0 0 0 589 1 0 0
