ply
format ascii 1.0
comment PCL generated
element vertex 277
property float x
property float y
property float z
element camera 1
property float view_px
property float view_py
property float view_pz
property float x_axisx
property float x_axisy
property float x_axisz
property float y_axisx
property float y_axisy
property float y_axisz
property float z_axisx
property float z_axisy
property float z_axisz
property float focal
property float scalex
property float scaley
property float centerx
property float centery
property int viewportx
property int viewporty
property float k1
property float k2
end_header
-11.371151 1.2720473 -4.869318
-11.383509 1.2644975 -4.8679996
-11.38133 1.2324975 -4.8676662
-11.392075 1.0720153 -4.8639064
-11.381102 0.92460233 -4.8624601
-11.378247 0.87212962 -4.8618441
-11.380447 0.83213127 -4.8609529
-11.592278 0.55060786 -4.8357749
-11.594477 0.51060885 -4.8348837
-11.618778 0.069118649 -4.8250475
-11.49577 -0.32993001 -4.8301172
-11.495008 -0.36981124 -4.8295131
-11.499161 -0.44981581 -4.827755
-11.273832 -0.56655139 -4.8474708
-10.999537 -0.84213167 -4.869205
-10.946831 -0.88169175 -4.8736086
-10.809101 -1.0435936 -4.8841219
-10.731355 -1.0800924 -4.8909888
-10.684397 -1.0812254 -4.8954916
-10.655514 -1.081979 -4.8982601
-10.647533 -1.0817714 -4.8990321
-10.566509 -1.0807383 -4.9068518
-10.481209 -1.0784602 -4.9151044
-10.449866 -1.0806143 -4.9180861
-10.410154 -1.0803304 -4.9219151
-10.152279 -1.2328701 -4.9441566
-10.087155 -1.2165532 -4.9507051
-9.7984905 -1.2132075 -4.9785585
-9.788434 -1.213732 -4.9795184
-9.7126617 -1.2235239 -4.9866486
-9.667305 -1.2148833 -4.9911628
-9.5538759 -1.2170858 -5.002048
-9.5141373 -1.2192245 -5.0058384
-9.4686136 -1.2255824 -5.0101142
-9.4274607 -1.2100058 -5.0143414
-9.3927917 -1.1602693 -5.0185242
-8.973526 -0.88614053 -5.0635519
-8.705617 -1.0824113 -5.0860176
-8.6718092 -1.1629598 -5.0879054
-8.6351252 -1.1805367 -5.0911398
-8.4762554 -1.181597 -5.10642
-8.3969479 -1.1708794 -5.1142387
-8.351594 -1.1622407 -5.118753
-8.271843 -1.1589718 -5.1264882
-8.0696611 -1.2568083 -5.1442957
-8.0185328 -1.237078 -5.1495543
-7.9517422 -1.195816 -5.1566863
-7.9916468 -1.1311176 -5.1539426
-8.0503845 -0.91594976 -5.1519399
-8.0537672 -0.83599049 -5.1529717
-7.5369034 -0.57653207 -5.2071486
-7.2693224 -0.75427192 -5.229897
-7.2250905 -0.77271229 -5.2338433
-7.2038012 -0.77213913 -5.2359033
-7.1825137 -0.7715677 -5.2379627
-7.1612267 -0.7709955 -5.2400222
-7.1038404 -0.61136198 -5.2482586
-7.147109 -0.53179145 -5.2454433
-7.138833 -0.228591 -5.2513885
-6.6492438 -0.16694722 -5.2995801
-6.6316457 -0.18679759 -5.3009377
-6.5475659 -0.34526336 -5.3063436
-6.4734573 -0.38372767 -5.3128266
-6.4279871 -0.38426614 -5.3171959
-6.3854122 -0.38312179 -5.3213153
-6.1894569 -0.9187271 -5.3310905
-6.2618294 -1.0352039 -5.3221436
-6.2625489 -1.0830424 -5.3212619
-6.1475878 -1.1108248 -5.3318605
-6.0597682 -1.0902276 -5.3406668
-6.0201139 -1.0849023 -5.3445759
-5.8274622 -1.0699029 -5.3633819
-5.6592078 -0.67481291 -5.386292
-5.5823679 -0.6523304 -5.394073
-5.5457191 -0.63532585 -5.397891
-4.9552984 -0.62718642 -5.4548836
-4.6301856 -0.78983867 -5.4834285
-4.513319 -0.74564606 -5.4954329
-4.1890945 -0.78331602 -5.5260143
-3.758255 -0.81711608 -5.5669279
-3.7010152 -0.83677989 -5.5721059
-3.6245639 -0.86237377 -5.5790334
-3.502573 -0.8356449 -5.5912342
-3.2194653 -1.0160275 -5.6154332
-3.1822572 -1.0158155 -5.61902
-2.8556373 -1.0639992 -5.6496534
-2.8257158 -1.0616665 -5.6525745
-2.8135538 -1.0601811 -5.6537709
-2.6562989 -1.0499001 -5.6690884
-2.6248643 -1.0489774 -5.6721306
-2.5330062 -1.0548368 -5.6808767
-2.4557166 -1.0728822 -5.6880131
-2.3773277 -1.0873723 -5.6953154
-2.2988195 -1.102911 -5.7026114
-2.1372886 -1.1208184 -5.7178621
-2.0178916 -1.1375446 -5.7290754
-1.9382606 -1.1520283 -5.7364974
-1.8387818 -1.1638842 -5.7458754
-1.7393041 -1.175741 -5.7552533
-1.6994648 -1.1854818 -5.7589245
-1.6198571 -1.1974649 -5.7663865
-1.580018 -1.2072055 -5.7700577
-1.458281 -1.2203705 -5.7815566
-1.3389072 -1.2345991 -5.79281
-1.1798844 -1.2385771 -5.8080559
-1.1400928 -1.2433197 -5.8118067
-1.0207896 -1.2500515 -5.8231807
-0.98102188 -1.2522955 -5.826972
-0.86001301 -1.2356758 -5.8389068
-0.77764606 -1.2413993 -5.8467412
-0.65850925 -1.2306399 -5.8583961
-0.53439665 -1.26632 -5.8697419
-0.45493937 -1.2588117 -5.8775206
-0.20925713 -0.93583673 -5.9066625
-0.043844223 -0.89708012 -5.9232488
-0.0090289116 -0.8979854 -5.9265862
0.0057463646 -0.8580001 -5.928688
0.01804018 -0.81801456 -5.9305506
0.035300732 -0.77802831 -5.9328918
0.027597427 -0.69806093 -5.9335074
0.024946213 -0.65716749 -5.9339466
0.02219677 -0.56061715 -5.9353213
0.021669388 -0.39318401 -5.9381132
0.022717476 -0.33775073 -5.9391556
0.023891926 -0.32230163 -5.9395308
0.02377367 -0.28481737 -5.940156
-0.016178608 -0.21735066 -5.9374542
-0.053869724 -0.091495752 -5.9359617
-0.056368351 -0.074912369 -5.9360027
-0.056216717 0.022719041 -5.9376755
-0.056800842 0.062531784 -5.9382949
-0.05936861 0.10160602 -5.9387112
-0.11944008 0.22336818 -5.9349937
-0.13773012 0.33367407 -5.9351058
-0.13326597 0.41365352 -5.9368935
-0.12606668 0.45365778 -5.9382663
-0.04834938 0.73377854 -5.9505062
0.0030255318 0.85488826 -5.9575095
-0.18281078 1.1751595 -5.9450526
-0.19070959 1.2530961 -5.9456153
-0.19079208 1.2560985 -5.9456582
-0.21737242 1.257328 -5.9431195
-0.37510061 1.2573311 -5.9279313
-0.53451824 1.2566378 -5.9125686
-0.63176727 1.2723875 -5.9034715
-0.71125507 1.2718873 -5.8958087
-0.75114727 1.2715695 -5.8919616
-0.7913332 1.2711167 -5.8880844
-0.95097065 1.2773438 -5.872818
-1.1901679 1.2278297 -5.8489437
-1.3507023 1.2662685 -5.8341374
-1.47082 1.2651141 -5.8225513
-1.5907898 1.2640254 -5.8109803
-1.7107606 1.2629395 -5.7994094
-1.9507008 1.2607641 -5.7762675
-2.031193 1.2723525 -5.768713
-2.0706716 1.2596772 -5.7646961
-2.3500593 1.2573867 -5.7377539
-2.4681628 1.2471147 -5.7262068
-2.8207502 1.270752 -5.6926556
-2.9427583 1.2520182 -5.6805887
-2.9841309 1.2488708 -5.6765513
-3.027626 1.2483459 -5.6723542
-3.1847024 1.247802 -5.6572194
-3.3041852 1.2474558 -5.6457076
-3.5601022 1.2494044 -5.6210976
-3.8240604 1.2452309 -5.5956087
-3.9460027 1.2840974 -5.5845261
-3.9860792 1.2838972 -5.5806637
-4.0261564 1.2836962 -5.5768008
-4.0864592 1.2833312 -5.5709877
-4.2675533 1.2821715 -5.5535297
-4.3971472 1.2817433 -5.5410433
-4.427299 1.2815604 -5.5381365
-4.5057683 1.2817338 -5.5305834
-4.5855474 1.2814612 -5.5228963
-4.6651397 1.281251 -5.5152287
-4.7443576 1.2811694 -5.5075989
-4.8645868 1.2805665 -5.4960113
-4.9447422 1.2801647 -5.488286
-5.025269 1.2796361 -5.4805226
-5.1056104 1.2791698 -5.4727783
-5.3014069 1.2780473 -5.4539051
-5.3714309 1.2647712 -5.4469366
-5.4120378 1.2641737 -5.4430161
-5.4742627 1.263588 -5.4370141
-5.4921746 1.2632864 -5.4352841
-5.6883893 1.2622306 -5.4163718
-5.7697468 1.2735326 -5.4087296
-6.0060644 1.2594883 -5.385735
-6.0873065 1.2607939 -5.377934
-6.1668134 1.267606 -5.3703933
-6.2468343 1.2567215 -5.3625031
-6.4067492 1.2550459 -5.3470755
-6.5120621 1.2538416 -5.3369141
-6.5666051 1.2483726 -5.3315692
-6.6471591 1.2523808 -5.3238802
-6.7267575 1.2516441 -5.3162026
-6.9268322 1.2419767 -5.2967725
-7.086834 1.2477989 -5.2814641
-7.2874947 1.2730668 -5.2625704
-7.487442 1.2834933 -5.2434936
-7.701169 1.280709 -5.2228656
-7.7409081 1.2828605 -5.2190752
-7.8067336 1.2802942 -5.2126932
-7.861022 1.2740376 -5.2073588
-7.9821091 1.2724743 -5.1956725
-8.1159592 1.2713492 -5.1827641
-8.1799593 1.2709277 -5.1765943
-8.2595596 1.270185 -5.1689167
-8.2994471 1.2697909 -5.1650686
-8.3393946 1.2743933 -5.1613002
-8.4194708 1.268512 -5.1534896
-8.5011978 1.2822433 -5.1458526
-8.5776081 1.2673116 -5.1382413
-8.6572094 1.2665699 -5.1305637
-8.7394962 1.2826581 -5.1229129
-8.8564777 1.2646432 -5.1113424
-8.8965445 1.2642014 -5.1074767
-8.9777393 1.2780755 -5.0998936
-9.0173931 1.2727294 -5.0959845
-9.1761827 1.2663431 -5.080585
-9.258647 1.2823834 -5.0729165
-9.3777838 1.2813413 -5.0614266
-9.4551716 1.2586284 -5.0535889
-9.575016 1.2573977 -5.0420275
-9.6147289 1.2570505 -5.0381975
-9.7350149 1.2632217 -5.0267196
-9.8541508 1.2621799 -5.0152297
-9.8934202 1.2544291 -5.0113163
-10.017876 1.2532501 -4.9993124
-10.10209 1.2800765 -4.9916582
-10.261123 1.279356 -4.9763317
-10.301191 1.2790976 -4.9724693
-10.461286 1.27811 -4.957036
-10.621204 1.2771661 -4.9416208
-10.701342 1.2766502 -4.9338951
-10.780237 1.2764459 -4.9262943
-10.939623 1.2756364 -4.9109325
-11.18269 1.2734187 -4.8874888
-11.303956 1.2723768 -4.8757939
-4.4352789 0.054826438 -5.5165391
-4.1184163 0.10144515 -5.547843
-3.8761692 -0.33696729 -5.5637259
-4.1906385 -0.76628935 -5.5261545
-4.4924908 -0.58559972 -5.5001559
-4.5100651 -0.56321132 -5.4988437
-4.671906 -0.23428717 -5.4888439
-2.0598731 -0.9029215 -5.7290163
-2.4012892 -0.52778172 -5.7025094
-2.405298 -0.36788023 -5.7048388
-2.4031947 -0.32788473 -5.7057199
-2.4085436 -0.28793702 -5.7058835
-2.4134328 -0.047029287 -5.7095032
-2.3931029 0.15405792 -5.7148752
-2.3833122 0.17601958 -5.7161908
-2.3876283 0.33465302 -5.7184687
-2.4165158 0.53564215 -5.7190995
-2.395668 0.69569844 -5.723825
-2.387264 0.73633182 -5.7253242
-2.0718381 1.1161053 -5.762146
-2.032095 1.1163543 -5.7659774
-1.8731897 1.1248503 -5.7814236
-1.8334465 1.1251004 -5.785255
-1.7539582 1.1256011 -5.7929177
-1.6721303 1.1296784 -5.8008666
-1.63241 1.1324282 -5.804738
-1.2963915 0.8225565 -5.8318334
-1.2653437 0.6445955 -5.8318014
-1.264359 0.58732903 -5.830924
-1.2632279 0.46739137 -5.8289967
-1.2625561 0.42754734 -5.8283844
-1.2634258 0.34684864 -5.8269305
-1.2628288 0.24493451 -5.8252578
-1.4296794 -0.050720096 -5.8041706
-1.684299 -0.44217479 -5.7730055
-1.704654 -0.56297094 -5.7689943
0 0 0 1 0 0 0 1 0 0 0 1 0 0 0 0 0 277 1 0 0
