ply
format ascii 1.0
comment PCL generated
element vertex 217
property float x
property float y
property float z
element camera 1
property float view_px
property float view_py
property float view_pz
property float x_axisx
property float x_axisy
property float x_axisz
property float y_axisx
property float y_axisy
property float y_axisz
property float z_axisx
property float z_axisy
property float z_axisz
property float focal
property float scalex
property float scaley
property float centerx
property float centery
property int viewportx
property int viewporty
property float k1
property float k2
end_header
0.78168863 -1.0540105 2.285887
0.84606564 -0.943892 2.8322036
0.85230505 -0.85338128 2.8750203
0.85183895 -0.57340288 2.8354294
0.85027409 -0.4599483 2.807411
0.83743596 -0.41809064 2.6903636
0.82367492 -0.057094872 2.524781
0.82429498 -0.01711601 2.5251033
0.82548314 0.022804618 2.5303781
0.82581937 0.062814809 2.5282266
0.86110127 0.36519402 2.7969177
0.8708384 0.37156814 2.8808544
0.88372791 0.3707788 2.9931357
0.88504767 0.4110629 2.99951
0.88620019 0.6114766 2.9841044
0.88922083 0.69112003 3.0002859
0.88987756 0.73124379 3.0009096
0.89055204 0.81137425 2.9966094
0.89229262 0.89133501 3.0016096
0.89292586 0.93141299 3.0020349
0.89414525 1.0114806 3.0024855
0.8953644 1.0915482 3.0029337
0.89648938 1.1714377 3.0025861
0.86710608 1.3983092 2.7180598
0.86206234 1.4139501 2.6721776
0.85791779 1.4174261 2.6356657
0.84852946 1.4288104 2.5525115
0.83535326 1.4060435 2.4407241
0.8259151 1.4076672 2.3583744
0.81640553 1.4042927 2.2760386
0.80700326 1.4084165 2.1936841
0.78894693 1.4332732 2.0333798
0.77729821 1.4719301 1.9270911
0.77503502 1.470529 1.9075716
0.77011263 1.46962 1.864846
0.76519012 1.4687104 1.8221192
0.76081175 1.4706354 1.7837687
0.75800282 1.4692962 1.7594919
0.74974251 1.4678808 1.6877792
0.7339524 1.4180119 1.5566826
0.69629908 1.1935574 1.2574611
0.67653966 1.1897447 1.0859733
0.66413248 1.2098736 0.97543454
0.61744106 1.1903615 0.57154131
0.60378671 1.1904637 0.45269084
0.594684 1.1905313 0.37345862
0.56704187 1.1932493 0.13253582
0.55330944 1.192523 0.013110399
0.53042203 1.191314 -0.18593252
0.50746405 1.1899614 -0.38557076
0.49318516 1.1492465 -0.50467706
0.45878935 1.2295836 -0.8142305
0.45423543 1.2293901 -0.85384017
0.43564266 1.2278485 -1.0154631
0.41989255 1.2275516 -1.1525035
0.3908914 1.1841036 -1.399395
0.38433379 1.2038063 -1.4589684
0.35289448 1.2227772 -1.7350022
0.32504821 1.1816732 -1.9721398
0.32049423 1.1814791 -2.0117497
0.31189641 1.1659436 -2.0846076
0.27064815 1.2078906 -2.4489274
0.25729102 1.2484688 -2.5703287
0.25270021 1.2488438 -2.6103315
0.25212312 1.2089778 -2.6102943
0.25803325 1.1682893 -2.5536928
0.26448828 1.1274821 -2.4923334
0.28546008 0.80585831 -2.26899
0.28268382 0.64596212 -2.2728593
0.28172168 0.56596696 -2.2710805
0.28201836 0.4854098 -2.2582741
0.28077224 0.40544558 -2.2589707
0.28253552 0.21929991 -2.2199993
0.28191942 0.17931496 -2.2202866
0.28167099 0.16529769 -2.2206697
0.28003603 0.076193586 -2.2235904
0.28754774 -0.060932636 -2.1408103
0.28986788 -0.24252072 -2.0975709
0.30066723 -0.22331315 -2.0060186
0.32146198 -0.22362566 -1.8249958
0.34278214 -0.16711295 -1.6466124
0.37410623 -0.30769143 -1.3561475
0.42971855 -0.30879298 -0.87199646
0.43507013 -0.38907844 -0.81523073
0.42954195 -0.73722684 -0.81915832
0.38944909 -1.0266484 -1.1313661
0.38388073 -1.026144 -1.1798933
0.31962079 -1.0642163 -1.7343351
0.31079477 -1.0256556 -1.8160444
0.30615294 -1.0256286 -1.8564472
0.29056489 -1.024793 -1.992221
0.27779755 -0.97887397 -2.1091669
0.27770874 -0.98389673 -2.1093023
0.27585381 -1.0579674 -2.1160455
0.27572992 -1.0630668 -2.1164765
0.28058153 -1.070073 -2.0733624
0.28530908 -1.0821797 -2.0306804
0.29237291 -1.0616262 -1.9718103
0.31067741 -1.0549898 -1.8133429
0.31910303 -1.0761664 -1.7373245
0.38386133 -1.0551907 -1.1763756
0.3925128 -1.0856142 -1.0972178
0.40123513 -1.0867956 -1.0211549
0.4567821 -1.0486449 -0.54255474
0.45929104 -1.0712731 -0.51784682
0.47939456 -1.0306736 -0.34803236
0.54610443 -0.91354799 0.21769857
0.57682163 -0.51485538 0.43443918
0.58036268 -0.49414647 0.4626298
0.58294427 -0.47439551 0.48259163
0.60287714 -0.21619815 0.62330317
0.61223114 -0.17569041 0.69957328
0.61573052 -0.078448147 0.71768761
0.61697096 0.0015115887 0.71833515
0.61911559 0.12142271 0.72178173
0.61996466 0.20036645 0.71915221
0.61837029 0.22731033 0.70185661
0.61648011 0.26684135 0.68038821
0.61496091 0.30731404 0.66202927
0.61350578 0.36480784 0.64206839
0.61006045 0.44231254 0.60224628
0.60871255 0.50730467 0.58226657
0.61754692 0.82715106 0.61856008
0.62864673 0.94703388 0.69995046
0.68467033 0.79026639 1.2074373
0.70062423 0.59174061 1.3714852
0.70216483 0.511338 1.395098
0.7020762 0.47040278 1.3995216
0.70377308 0.27044588 1.4396684
0.70439219 0.155673 1.4596231
0.70723438 0.07634072 1.4944286
0.70384943 -0.12352866 1.4903352
0.70715076 -0.28531376 1.5396006
0.69507933 -0.50554067 1.4624894
0.69463658 -0.52347624 1.4609125
0.69818544 -0.76365817 1.5222828
0.68782306 -0.92486405 1.4525554
0.67058718 -1.086273 1.3230317
0.69103801 -1.1275437 1.5062597
0.70495176 -1.1290067 1.6275406
0.7361865 -1.1322905 1.8998032
0.74361289 -1.1314191 1.9643269
0.74605578 -1.1312137 1.9855616
0.75081384 -1.1295993 2.026768
0.76630473 -1.1338712 2.1621315
0.77679437 -1.0928144 2.2482154
0.78082418 -1.0658472 2.2798655
-0.090192825 1.253382 -5.5952101
-0.073810965 1.2523983 -5.4525089
-0.062310159 1.2789613 -5.3557854
-0.021514416 1.248651 -4.9968805
-0.0077600479 1.2477422 -4.8770571
0.010516495 1.2464057 -4.7178206
0.028863788 1.2452102 -4.5579872
0.042618185 1.244301 -4.4381628
0.069895923 1.2275192 -4.1986265
0.10331862 1.0677965 -3.8874671
0.12491648 1.1460474 -3.7094259
0.1379023 1.2053317 -3.6039305
0.14611749 1.1013277 -3.5192311
0.15361439 0.94269878 -3.4338508
0.15351889 0.86114669 -3.4243317
0.20681369 0.69323695 -2.9391801
0.20759651 0.69296902 -2.932333
0.20624359 0.57913363 -2.9296603
0.20604877 0.56663799 -2.92977
0.18866302 0.1497675 -3.0281754
0.19197606 0.069375977 -2.9891381
0.19434601 -0.011775374 -2.9582121
0.19626701 -0.11371633 -2.928555
0.19765396 -0.1714057 -2.909162
0.20035097 -0.29178345 -2.8704114
0.19202328 -0.45287234 -2.9224448
0.19038585 -0.47189653 -2.9342813
0.17385034 -0.69398159 -3.0500088
0.16886604 -0.81110889 -3.0785232
0.16308859 -0.89065742 -3.11871
0.16100352 -0.89004123 -3.1369352
0.15882742 -0.89026296 -3.1558464
0.10888605 -1.0883843 -3.5653563
0.1037249 -1.1279489 -3.6052542
0.10163967 -1.1273315 -3.6234808
0.068855643 -1.1651289 -3.9040132
0.049405992 -1.1855145 -4.0707021
0.022481292 -1.1604952 -4.3082113
0.0044132471 -1.2109458 -4.4590597
0.00023919344 -1.2100396 -4.4955029
-0.0093788803 -1.2200985 -4.5779352
-0.018884122 -1.222661 -4.660337
-0.023020655 -1.2192544 -4.6967707
-0.041620433 -1.2212536 -4.8583965
-0.050827712 -1.2281882 -4.9376507
-0.059959829 -1.2301248 -5.0168843
-0.064582318 -1.2348429 -5.0565166
-0.078261763 -1.2364982 -5.1753626
-0.082846522 -1.2387149 -5.2149839
-0.097011894 -1.2484928 -5.3370285
-0.10111079 -1.2425894 -5.3734512
-0.1102429 -1.2445258 -5.4526854
-0.11926225 -1.2389644 -5.531889
-0.13338995 -1.2462415 -5.6539235
-0.13834774 -1.2490851 -5.6967115
-0.13031933 -1.0549192 -5.6514807
-0.12775126 -1.0150921 -5.6341848
-0.12374043 -0.75011861 -5.6329069
-0.12997591 -0.55960387 -5.7113562
-0.12839594 -0.45463115 -5.710928
-0.12493497 -0.22468877 -5.7099895
-0.1224978 -0.015951961 -5.71527
-0.12131754 0.063989028 -5.7151442
-0.11988339 0.17580412 -5.7168531
-0.11729702 0.36268377 -5.7180614
-0.12171641 0.57575691 -5.7835674
-0.11788216 0.82377636 -5.7816744
-0.11604613 0.9437387 -5.78092
-0.10397094 1.2542442 -5.7152348
-0.099378318 1.2539567 -5.6752272
0 0 0 1 0 0 0 1 0 0 0 1 0 0 0 0 0 217 1 0 0
