ply
format ascii 1.0
comment PCL generated
element vertex 390
property float x
property float y
property float z
element camera 1
property float view_px
property float view_py
property float view_pz
property float x_axisx
property float x_axisy
property float x_axisz
property float y_axisx
property float y_axisy
property float y_axisz
property float z_axisx
property float z_axisy
property float z_axisz
property float focal
property float scalex
property float scaley
property float centerx
property float centery
property int viewportx
property int viewporty
property float k1
property float k2
end_header
0.14730406 -1.1039084 -1.9628407
0.055896282 -1.1183932 -1.9858971
-0.24564123 -1.1011646 -2.0630112
-0.34158373 -1.1161277 -2.0872154
-0.36632633 -1.1160405 -2.0935214
-0.50176191 -1.0813146 -2.1285954
-0.5044837 -1.0802921 -2.1293054
-0.76354146 -1.0737342 -2.1954219
-0.79304147 -1.0783631 -2.2028637
-0.80480552 -1.0790443 -2.2058501
-0.83584571 -1.0799644 -2.2137446
-0.8859787 -1.0872464 -2.2264009
-0.9276011 -1.0828027 -2.2370787
-0.98011923 -1.0852067 -2.2504218
-1.0282381 -1.0851145 -2.2626843
-1.0654273 -1.0856682 -2.2721515
-1.273243 -1.1643381 -2.323828
-1.2891304 -1.1673619 -2.3278272
-1.383292 -1.1647115 -2.3518634
-1.4751968 -1.1689203 -2.3752131
-1.501457 -1.1701238 -2.3818851
-1.5406501 -1.1662493 -2.3919346
-1.5779631 -1.1655891 -2.401453
-1.5910921 -1.1661894 -2.4047887
-1.9673777 -1.1742349 -2.5005391
-2.023253 -1.1550744 -2.5150876
-2.2160573 -1.0822282 -2.5653982
-2.3276234 -1.0838923 -2.5937991
-2.2225864 -1.0790813 -2.5671129
-2.1744802 -1.0766766 -2.554894
-2.14821 -1.0779734 -2.5481791
-1.992914 -1.0813992 -2.5085526
-1.8922789 -1.0790875 -2.4829473
-1.8704302 -1.0778835 -2.4773998
-1.8485718 -1.0791793 -2.4718089
-1.8267136 -1.0804744 -2.4662185
-1.8069611 -1.0811245 -2.4611747
-1.7895133 -1.0824182 -2.456708
-1.6581953 -1.0814044 -2.4232633
-1.6363356 -1.0827005 -2.4176722
-1.5510292 -1.0822388 -2.3959429
-1.502934 -1.0773335 -2.3837674
-1.4657567 -1.0742793 -2.3743439
-1.395735 -1.0856638 -2.356317
-1.3104274 -1.0852029 -2.3345871
-1.2797575 -1.0840006 -2.3267918
-1.198863 -1.083539 -2.3061867
-1.1725924 -1.0848348 -2.2994716
-1.0982144 -1.0837255 -2.2805376
-0.88666725 -0.93729961 -2.2290101
-0.73212099 -0.62921321 -2.1946306
-0.93797922 -0.24120086 -2.2533829
-0.87987399 0.037939757 -2.2431078
-0.88951039 0.16035596 -2.2475502
-0.89451671 0.32072598 -2.2514288
-0.89518476 0.39893687 -2.2528684
-0.89535403 0.51887131 -2.2548583
-0.89540935 0.5588488 -2.2555213
-0.89552164 0.63880348 -2.2568476
-0.86843228 0.71794331 -2.2512295
-0.84292173 0.75829029 -2.245384
-0.69785881 0.96193278 -2.211726
-0.69378042 0.97653127 -2.2109237
-0.68382931 1.0028687 -2.2088156
-0.60544157 1.037111 -2.1893973
-0.57235241 1.03804 -2.1809812
-0.54131365 1.0391673 -2.1730905
-0.28137922 0.93758285 -2.1052079
-0.244174 0.92562497 -2.0955338
0.15107012 1.2039275 -1.9993391
0.14614344 0.72524619 -1.992825
0.186059 0.61983597 -1.9809433
0.19630527 0.58200294 -1.9777185
0.20730734 0.50665563 -1.9736921
0.16410542 0.064572483 -1.9775249
0.066594124 -0.099582732 -1.9997072
-0.043138027 -0.2509253 -2.0252116
0.038553238 -0.62285829 -1.9983592
-0.24546576 -1.0799531 -2.0633106
-0.3785162 -1.0919726 -2.0970182
-0.64232969 -0.7928164 -2.1690958
-0.64917469 -0.56031597 -2.1746135
-0.64798021 -0.52290976 -2.1749163
-0.73772144 0.010990411 -2.2064488
-0.3374877 0.053368658 -2.1051536
-0.04545927 -0.22242245 -2.0262656
-9.4958401 -0.76474237 -4.4255052
-9.4614525 -0.68422127 -4.4180493
-9.4426785 -0.68447471 -4.4132619
-9.4138641 -0.68363541 -4.4059329
-9.2736406 -0.70026088 -4.3699331
-9.151186 -0.65845561 -4.3394089
-8.9792671 -0.39633083 -4.2998571
-8.8695421 0.0029146671 -4.2783785
-8.8704433 0.12288287 -4.2805548
-8.8690176 0.18662217 -4.2812262
-8.8565807 0.26593888 -4.2793446
-8.8284092 0.30688357 -4.272831
-8.8106613 0.30737084 -4.2683163
-8.7958298 0.30646724 -4.2645226
-8.7364902 0.26521397 -4.248733
-8.7221241 0.23493558 -4.2445807
-8.7032528 0.14745057 -4.2383523
-8.6961765 0.066153079 -4.2352295
-8.7063236 0.0044759512 -4.236814
-8.730772 -0.014853269 -4.2427301
-8.9223566 -0.39990258 -4.2852979
-8.9167576 -0.51919103 -4.2819352
-8.4394493 -0.71091819 -4.1572008
-8.916275 -0.59999216 -4.2805004
-8.8528233 -1.1590788 -4.2552581
-8.7967501 -1.1707082 -4.2407813
-8.7220707 -1.1745508 -4.2216902
-8.6847305 -1.1764705 -4.2121444
-8.6474113 -1.1758937 -4.2026443
-8.6041908 -1.1712711 -4.1917067
-8.5728073 -1.1697381 -4.1837344
-8.5459547 -1.1688373 -4.1769066
-8.4981861 -1.1660817 -4.1647797
-8.460865 -1.165503 -4.1552796
-8.423564 -1.1624265 -4.1458244
-8.3594265 -1.1559488 -4.1295872
-8.1018801 -1.1111696 -4.0646887
-8.4069815 -0.75141174 -4.1482706
0.082737446 -0.62244254 -1.9871074
-9.5797634 1.2738644 -4.4799776
-9.6917076 1.2721663 -4.5084743
-9.7663498 1.2735348 -4.5275164
-9.851469 1.2730919 -4.5491982
-9.9155731 1.2637744 -4.5653811
-10.04851 1.2659545 -4.5992899
-10.323921 0.96248686 -4.6645417
-10.069561 1.282329 -4.6049194
-9.9260998 1.2719607 -4.5681963
-9.7022333 1.2803533 -4.5112896
-9.7395477 1.2797878 -4.5207882
-9.7768631 1.2792222 -4.5302873
-10.66875 0.83691525 -4.7503691
-10.533999 0.99661946 -4.7186255
-10.494044 0.97685063 -4.7081237
-10.338606 0.60333598 -4.6624541
-10.33492 0.40017915 -4.6582174
-10.439722 0.24163735 -4.6823487
-10.461763 0.11969724 -4.685986
-10.458666 0.081588358 -4.6845779
-10.640673 -0.32342586 -4.7243814
-10.58202 -0.44259459 -4.7075019
-10.612569 -0.36303315 -4.7165775
-10.379258 0.045169026 -4.6637535
-10.376093 0.080646455 -4.6635222
-10.270279 0.3993904 -4.6417336
-10.143894 0.49228776 -4.6110377
-10.150793 0.52054834 -4.6132541
-10.274573 0.71722132 -4.6479864
-10.356476 -0.59860486 -4.6474991
-10.637278 -1.0879077 -4.7111082
-10.711893 -1.0964086 -4.7299829
-10.728232 -1.1059296 -4.7339916
-10.717724 -1.1166873 -4.7311392
-10.643101 -1.1106861 -4.7122221
-10.605783 -1.1101842 -4.7027216
-10.493761 -1.11937 -4.6740284
-10.453856 -1.1208625 -4.6638355
-10.212259 -1.1758624 -4.6013823
-10.145531 -1.2128072 -4.5837793
-10.094131 -1.2117994 -4.5706987
-10.07681 -1.2131963 -4.5662622
-9.9481621 -1.2502275 -4.5328808
-9.8770142 -1.2715443 -4.5144057
-9.8665485 -1.2718654 -4.511734
-9.8069239 -1.2685208 -4.4965954
-9.6731558 -1.2498415 -4.4628129
-9.6545811 -1.2497656 -4.4580812
-9.5102177 -1.2023227 -4.4220662
-9.4520359 -1.1923908 -4.407402
-9.3609924 -1.1925116 -4.3842015
-9.3176966 -1.1978874 -4.3730822
-9.1804209 -1.1761689 -4.3384552
-9.1699734 -1.1739912 -4.3358288
-9.0954628 -1.15534 -4.3171453
-8.9238377 -1.1552577 -4.2734156
-8.8281488 -1.1697421 -4.2487979
-8.7638836 -1.1807597 -4.2322435
-8.7325001 -1.1792271 -4.2242718
-10.326363 -0.59758037 -4.639843
-10.10027 -0.57365191 -4.5826206
-10.099617 -0.57367158 -4.5824537
-10.003927 -0.93125999 -4.5522671
-4.4940128 0.10446456 -3.1651025
-4.1763053 0.13189217 -3.0845931
-4.1357098 0.12699178 -3.0741694
-4.0213532 0.12619805 -3.0450175
-3.9468448 0.097969681 -3.0255737
-3.9110103 0.085918456 -3.0162473
-3.6802382 0.11590427 -2.9579313
-3.6538992 0.11452681 -2.9511974
-3.5165982 0.12944561 -2.9164541
-3.4413352 0.16584858 -2.8978672
-3.4042697 0.16023138 -2.8883314
-3.3903294 0.14786664 -2.8845785
-3.3087544 0.087880164 -2.862819
-3.2491727 0.056608647 -2.8471293
-3.0309823 -0.30640763 -2.7856405
-3.3705573 -0.030645892 -2.8766432
-3.5716147 0.084499896 -2.9297433
-3.6864042 0.090386808 -2.9590881
-3.7236173 0.085043788 -2.9684837
-3.744524 0.086013377 -2.9738266
-5.3405976 -1.0354544 -3.362318
-5.2008157 -0.51303375 -3.3351798
-5.2114172 -0.47269025 -3.3385358
-5.1963034 -0.35792661 -3.3365474
-5.1830549 -0.27605397 -3.3345006
-5.1503768 -0.21344551 -3.3271899
-5.1441846 -0.19661242 -3.3258855
-5.123961 -0.1523324 -3.3214509
-5.1107669 -0.11544298 -3.3186877
-5.0759888 -0.11473203 -3.3098376
-4.7266173 -0.035751536 -3.2220964
-4.6625242 0.005104959 -3.2064281
-4.581017 0.10082492 -3.1872129
-4.5330515 0.11414993 -3.1752071
-10.674644 0.82728124 -4.7517147
-10.600013 0.82555664 -4.7326698
-6.3366199 -1.1153216 -3.6148171
-6.3573403 -1.1146123 -3.6201084
-6.4257584 -1.1165708 -3.6375101
-6.4527483 -1.1174477 -3.6443732
-6.4216671 -1.1185117 -3.6364362
-6.3532195 -1.1215525 -3.6189458
-6.2348976 -1.1183989 -3.5888476
-6.1934714 -1.1173182 -3.5783093
-6.1561217 -1.116796 -3.5688007
-6.1332068 -1.1164777 -3.5629668
-6.0958557 -1.1159554 -3.553458
-6.0440836 -1.1127307 -3.5403185
-6.0108094 -1.1127667 -3.5318391
-5.9217024 -1.1065195 -3.5092354
-5.8946815 -1.1106417 -3.5022833
-5.7723141 -1.1019313 -3.4712443
-5.7453089 -1.1035526 -3.4643369
-5.6809678 -1.102155 -3.4479649
-5.633286 -1.0969884 -3.435899
-5.521235 -1.0954217 -3.4073727
-5.6125507 -1.1001967 -3.4305634
-5.6291814 -1.1014274 -3.4347811
-7.2578192 -1.1302038 -3.8493054
-7.357378 -1.1210999 -3.8748217
-7.3802919 -1.1214192 -3.8806553
-7.3906517 -1.1210637 -3.8833008
-7.482028 -1.1158432 -3.9066689
-7.58531 -1.0919535 -3.9333737
-7.6269484 -1.0917883 -3.9439864
-7.7181072 -1.104552 -3.9670072
-7.5191355 -1.2969893 -3.9131842
-7.4270401 -1.2815473 -3.8899679
-7.2933955 -1.2561803 -3.8563259
-7.1083717 -1.1356132 -3.811137
-7.0503302 -1.1308022 -3.7964256
-7.0129786 -1.1302794 -3.7869167
-7.0710649 -1.1275938 -3.8017612
-7.0980415 -1.13097 -3.8085802
-7.1353912 -1.1314912 -3.8180888
-7.1623964 -1.1298701 -3.8249962
-9.4678173 1.2755612 -4.4514804
-9.4305134 1.278627 -4.4420247
-9.4200268 1.2779362 -4.4393411
-9.3432159 1.2783077 -4.4197755
-9.3701401 1.2771288 -4.4266167
-9.3558731 1.277259 -4.4229832
-9.2707043 1.2677052 -4.4011269
-9.1960754 1.2688365 -4.3821287
-9.1050835 1.266914 -4.358912
-9.084094 1.2630361 -4.3535008
-8.994381 1.2701508 -4.3307567
-8.9453239 1.2659885 -4.3181887
-8.9197254 1.2662853 -4.3116713
-8.8908205 1.2657808 -4.3042974
-8.8450851 1.2649165 -4.2926297
-8.8077707 1.2654828 -4.2831306
-8.7832642 1.264203 -4.276866
-8.7783089 1.2640669 -4.2756009
-8.7168283 1.273558 -4.2600889
-8.6900015 1.2748125 -4.253274
-8.6258602 1.276633 -4.2369595
-8.6048822 1.2752541 -4.2315917
-8.5780449 1.274011 -4.2247334
-8.4740238 1.2786238 -4.1983023
-8.5591087 1.2783669 -4.2199788
-8.5964546 1.2803863 -4.2295275
-8.6711206 1.2769307 -4.248497
-8.708457 1.2764511 -4.2580032
-8.7353897 1.2777724 -4.2648869
-8.7856102 1.2750604 -4.2776394
-8.8204746 1.2775141 -4.2865629
-8.8578196 1.2795345 -4.2961121
-8.8766003 1.2769819 -4.3008561
-8.972209 1.2772297 -4.325222
-9.0340939 1.2764401 -4.3409777
-9.1087742 1.2779815 -4.3600321
-9.1692867 1.2775891 -4.3754449
-9.1938601 1.2777243 -4.3817086
-9.2544298 1.2821445 -4.3972139
-9.2649174 1.2828345 -4.3998976
-4.9327669 -1.0487931 -3.2581828
-4.9482393 -1.0482168 -3.2621346
-5.0180469 -1.0486934 -3.2799144
-5.1499362 -1.0887263 -3.3128712
-5.2017221 -1.0894525 -3.326055
-5.3200436 -1.0926065 -3.3561532
-5.4942141 -1.0995429 -3.4004207
-4.6877804 -1.0408061 -3.1958876
-4.7141352 -1.0519366 -3.2024224
-4.8165259 -1.037549 -3.2287459
-4.8692122 -1.0423154 -3.2420936
-4.906426 -1.047658 -3.2514892
-6.6872129 -1.1202254 -3.7040718
-6.7515392 -1.1241243 -3.7203994
-6.7992659 -1.1217927 -3.7325985
-6.8055491 -1.1208793 -3.7342143
-6.78265 -1.1180613 -3.728425
-6.7204876 -1.1201893 -3.7125511
-2.4347882 -1.0830586 -2.6211193
-2.4675655 -1.0836136 -2.6294622
-2.5507531 -1.0872202 -2.6506007
-2.6907308 -1.0794444 -2.6863945
-2.7125661 -1.0831479 -2.6918981
-2.7432263 -1.0868485 -2.6996505
-2.769484 -1.0880505 -2.7063217
-2.828532 -1.0873102 -2.7213798
-2.8350511 -1.0866625 -2.7230513
-2.8613207 -1.0853665 -2.7297661
-2.8722496 -1.0847187 -2.7325613
-3.1226673 -1.1144605 -2.7958875
-3.1374846 -1.1150985 -2.7996526
-3.1622009 -1.1148276 -2.8059549
-3.183933 -1.1132486 -2.811518
-3.3189137 -1.114109 -2.8458984
-3.3622019 -1.0890194 -2.8573358
-3.5109706 -1.0404153 -2.8960323
-3.5442834 -1.0366156 -2.9045825
-3.697031 -1.0596328 -2.9431303
-3.8088183 -1.0751013 -2.9713635
-3.8141274 -1.0764296 -2.9726949
-3.835819 -1.0775211 -2.9782043
-3.8825541 -1.0758406 -2.99014
-3.9187737 -1.0774 -2.9993439
-3.9488201 -1.0771217 -3.0070045
-3.9968936 -1.0766764 -3.0192614
-4.0436091 -1.0763316 -3.0311704
-4.122654 -1.0783988 -3.0512781
-4.2350359 -1.0426722 -3.0804939
-4.3575401 -1.0554121 -3.1115024
-4.3838816 -1.0565457 -3.118196
-4.4056077 -1.0499696 -3.1238387
-2.4501286 -1.0824101 -2.6250386
-2.4829171 -1.0804658 -2.633425
-2.5201068 -1.0810201 -2.6428924
-2.5528948 -1.079077 -2.6512785
-2.856982 -0.67483157 -2.7353239
-2.7617197 -0.39894027 -2.715528
-2.761961 -0.34645915 -2.7164414
-2.7860239 -0.32091421 -2.7229874
-2.818609 -0.30854866 -2.7314911
-2.8682504 -0.30972749 -2.7441211
-2.8822021 -0.3098577 -2.747674
-2.9139977 -0.30926096 -2.7557855
-3.9337428 -0.5941546 -3.0110016
-4.1869731 -0.39657328 -3.0787339
-3.9312401 0.084340423 -3.0213764
-3.9197159 0.084835917 -3.0184479
-3.7815638 -1.0334735 -2.9650946
-3.9314661 -0.63411868 -3.0097728
-3.4102173 -1.0410911 -2.8703485
-3.4946661 -1.0366008 -2.8919396
-3.3575246 -1.0313249 -2.8570805
-3.3291461 -1.0303392 -2.8498654
-3.3149047 -1.0300415 -2.8462412
-2.9610476 -0.74953586 -2.7606282
-2.9609983 -0.70954978 -2.7612646
-2.9523814 -0.64788276 -2.7600698
-6.2182541 -1.1196666 -3.5845859
-6.1871719 -1.1207306 -3.5766487
-6.1021109 -1.1200411 -3.5549855
-6.0647593 -1.1195183 -3.5454764
-5.8590751 -1.1591355 -3.4924233
-5.8345718 -1.1590738 -3.4861805
-7.8613749 -1.0964928 -4.003644
-7.8882861 -1.1026347 -4.0104017
-7.8674622 -1.1039672 -4.0050735
0 0 0 1 0 0 0 1 0 0 0 1 0 0 0 0 0 390 1 0 0
