ply
format ascii 1.0
comment PCL generated
element vertex 387
property float x
property float y
property float z
element camera 1
property float view_px
property float view_py
property float view_pz
property float x_axisx
property float x_axisy
property float x_axisz
property float y_axisx
property float y_axisy
property float y_axisz
property float z_axisx
property float z_axisy
property float z_axisz
property float focal
property float scalex
property float scaley
property float centerx
property float centery
property int viewportx
property int viewporty
property float k1
property float k2
end_header
0.088245153 -1.091167 2.7457678
-0.064947128 -1.144582 2.7560446
-0.10742521 -1.1464919 2.7587938
-0.12673593 -1.1477429 2.7600467
-0.23284602 -1.1382865 2.7668037
-0.27136278 -1.1379672 2.7692807
-0.29441881 -1.138337 2.7707677
-0.30888391 -1.1372527 2.7716904
-0.39473772 -1.1277895 2.7771432
-0.59370184 -1.2085145 2.7905788
-0.63402009 -1.2288879 2.7933328
-0.67274094 -1.2285517 2.7958226
-0.71264005 -1.2287109 2.7983923
-0.87341666 -1.2298422 2.8087506
-0.99193621 -1.2298245 2.8163798
-1.0705678 -1.2271475 2.8214207
-1.1280079 -1.2098773 2.8249838
-1.2749648 -1.1924303 2.8343081
-1.3148654 -1.1925902 2.8368778
-1.3946643 -1.192908 2.8420172
-1.4351239 -1.1878233 2.8445821
-1.4521153 -1.1731391 2.8455617
-1.8296466 -1.1328979 2.8695512
-2.0710921 -1.0921338 2.8847766
-2.1126742 -1.0955044 2.8874795
-2.2331815 -1.0662642 2.8950095
-2.3129683 -1.0690831 2.9001675
-2.349318 -1.070253 2.9025164
-2.4331605 -1.0794116 2.9079847
-2.4725299 -1.0772189 2.910502
-2.5124421 -1.0748776 2.913053
-2.6279156 -1.0961531 2.9206519
-2.6709399 -1.1173066 2.9235859
-2.7107604 -1.1275198 2.9262288
-2.7506433 -1.1277349 2.9287977
-2.9036734 -1.1217076 2.9386017
-3.0266364 -1.1157948 2.9464712
-3.1015821 -1.1023109 2.9511907
-3.219645 -1.0949845 2.9587336
-3.2612407 -1.0831707 2.9613194
-3.3045175 -1.0643296 2.9639587
-3.5056822 -1.0594872 2.9768705
-3.5905001 -1.0252211 2.9820638
-3.66749 -0.94721574 2.9864132
-4.141171 -0.95087475 3.0169334
-4.2186241 -1.0583204 3.0227549
-4.2606192 -1.0641525 3.0255036
-4.2650938 -1.064033 3.0257907
-4.5823765 -1.0766628 3.046313
-4.6190414 -1.0684345 3.0486093
-4.6231818 -1.0664192 3.0488603
-5.1008873 -1.02902 3.0793204
-5.3220458 -1.0415069 3.0936539
-5.363831 -1.0417339 3.0963454
-5.4416246 -1.0522109 3.1014347
-5.4815207 -1.0499454 3.1039853
-5.5214167 -1.0476807 3.1065359
-5.6393023 -1.0583905 3.1142077
-5.8022118 -1.0593162 3.1247017
-5.9201121 -1.0675272 3.132355
-5.9285774 -1.0674957 3.1328998
-6.0049992 -1.0604776 3.1377647
-6.0846815 -1.0734463 3.1429949
-6.1194367 -1.0812002 3.1452923
-6.1677971 -1.0789033 3.1483877
-6.0449128 -1.0557125 3.1402969
-5.8089862 -0.79181033 3.1230574
-5.8116951 -0.63181216 3.1219873
-5.8320627 -0.56443232 3.1227746
-5.8527226 -0.48455268 3.1234832
-5.9347663 -0.12504034 3.1259687
-5.9397001 -0.08512044 3.1259758
-5.9331803 -0.075050369 3.1254778
-5.843854 0.11549063 3.1182458
-5.8488188 0.29686564 3.1171548
-5.848897 0.30936486 3.1170628
-5.8523169 0.50383264 3.1157706
-5.8527179 0.58385003 3.1151741
-5.8973393 0.74445766 3.1167974
-5.8148527 0.96912986 3.1097403
-5.9372306 1.4009371 3.1142597
-5.6533813 1.0255307 3.0989072
-5.5727415 0.98611528 3.094023
-5.3328128 0.95251912 3.0788395
-5.2148962 0.96277887 3.0711691
-5.2526917 0.74775201 3.0752745
-5.3735271 0.50648844 3.084929
-5.365231 0.42660892 3.0850163
-5.3724556 0.38657302 3.0857928
-5.2477379 0.10427018 3.0799599
-4.8159275 -0.074413188 3.0535529
-4.4894047 0.27152091 3.0298436
-4.4857759 0.35201222 3.0289841
-4.4912596 0.43197668 3.0287151
-4.512445 0.63184857 3.0285244
-4.5151863 0.67183024 3.0283899
-4.4984841 0.79190749 3.026381
-4.482029 0.9519791 3.0240769
-4.4771338 1.0321183 3.0231385
-4.7789941 1.4045753 3.0396733
-4.3546047 1.4743686 3.0118117
-4.3380132 1.4773595 3.0107203
-4.299367 1.4770141 3.0082352
-4.0993714 1.1975033 2.997535
-3.8568511 1.1196052 2.9825292
-3.4023008 1.032166 2.9539487
-3.3427553 1.0774754 2.9497633
-2.9869678 1.1622093 2.9262016
-2.756906 1.1829361 2.9112308
-2.715405 1.1861335 2.9085343
-2.7949064 1.1432192 2.9139857
-2.8562312 0.68414074 2.9215035
-2.8125978 0.64364898 2.9190097
-2.4915969 0.18686582 2.9018986
-2.4811063 0.18710221 2.9012215
-2.4380493 0.18752639 2.8984466
-2.4009387 0.18756755 2.8960574
-2.0818224 0.49549764 2.8731203
-2.0985088 0.60494441 2.8733432
-2.1111741 0.64488894 2.873848
-2.0839038 0.67749703 2.871839
-1.7179079 1.0895517 2.8450744
-1.7458584 1.4063213 2.8444102
-1.7677118 1.406468 2.8458157
-1.8655562 1.4058288 2.8521192
-1.9285637 1.4053029 2.8561792
-0.48812771 1.4128518 2.7633965
-0.45093203 1.4519919 2.7606978
-0.29148126 1.4525882 2.7504289
-0.22351575 1.4616266 2.7459836
-0.20742607 1.4620588 2.7449443
-0.19730973 1.4621855 2.7442923
-0.15642428 1.462804 2.7416556
-0.14395475 1.4629155 2.7408519
-0.11596036 1.4633099 2.7390468
-0.087727308 1.4631293 2.7372308
-0.077610731 1.4632554 2.7365787
-0.054418564 1.4642928 2.7350776
-0.0029408932 1.4638871 2.7317672
0.012022495 1.464021 2.7308028
0.16289377 1.4531589 2.7211754
0.28688788 1.4779215 2.713001
0.32561159 1.4829781 2.710469
0.4410131 1.4678735 2.7031577
0.46202016 1.4683312 2.701802
0.52634597 1.4700524 2.6976478
0.52887511 1.4700841 2.6974847
0.60202098 1.4696732 2.6927793
0.68631625 1.4364929 2.6876111
0.6851871 1.4361935 2.6876862
0.60654044 1.4332796 2.6927714
0.32335019 1.402346 2.7112417
0.19997764 1.41072 2.7191181
0.080262423 1.4153363 2.7267885
-0.031709433 1.4125744 2.7340181
-0.076888561 1.4106525 2.7369413
-0.19125962 1.4061478 2.7443385
-0.23238301 1.4154913 2.7469132
-0.42636061 1.4138774 2.7594125
-0.44690061 1.4135557 2.7607372
-8.7814589 -0.12859088 3.3092442
-8.8202763 -0.088813081 3.3114336
-8.8268471 -0.088040851 3.3118505
-8.8533773 -0.084896371 3.3135338
-8.8967085 -0.078483202 3.3162732
-8.9400072 -0.077070832 3.3190496
-9.0129681 -0.0759058 3.3237371
-9.0545483 -0.076575659 3.3264189
-9.0926571 -0.086409844 3.3289485
-9.0994368 -0.090578161 3.3294175
-9.4341125 -0.091067903 3.350965
-9.5331268 -0.077101395 3.3572302
-9.6882448 -0.014305681 3.3667271
-9.7762222 -0.021955207 3.3724499
-9.8091822 -0.054254495 3.3748229
-9.694108 -0.49416244 3.3708363
-9.7262812 -0.61450982 3.3738434
-9.7297516 -0.65364093 3.3743711
-9.7402554 -0.73337227 3.3756673
-10.118857 -0.87674928 3.4011538
-10.157525 -0.97682673 3.4044213
-10.200706 -0.93721306 3.4068928
-10.215928 -0.89730304 3.4075623
-10.215487 -0.73818743 3.4062963
-10.185843 -0.69802064 3.4040759
-9.8885288 -0.65446675 3.3845983
-10.96252 0.098435536 3.4478781
-11.020333 0.55190235 3.4480731
-11.00381 0.57244492 3.4468498
-10.845427 0.47288728 3.4374285
-10.922934 0.09358038 3.4453676
-10.126918 1.4087851 3.383898
-10.166765 1.403556 3.3865037
-10.130305 1.4053663 3.3841426
-10.088741 1.4085553 3.3814423
0.66713119 -0.25714698 2.7020175
0.6818583 0.024699837 2.6988776
0.69056535 0.33237326 2.6959243
0.5769403 0.36052716 2.7030196
0.491503 0.35832006 2.7085366
0.33550429 0.33529222 2.7187576
0.25467134 0.32428157 2.7240467
0.2147727 0.3239246 2.7266178
0.17487335 0.32356811 2.7291889
0.13612628 0.3210097 2.7317033
0.092893839 0.26591337 2.7349145
0.10592437 0.17676254 2.7347691
0.11880398 0.14190526 2.7342112
0.13227272 0.057061911 2.734004
-0.074243784 -0.29438522 2.750031
-0.084099531 -0.3044908 2.7507441
-0.078731537 -0.34587932 2.7507205
-0.042150736 -0.38620719 2.7486792
0.0063154697 -0.42024928 2.7458241
0.52295804 -0.48326194 2.7130568
0.55819535 -0.53305656 2.7111757
0.36849904 -1.0624305 2.7275038
0.32844377 -1.0629522 2.7300863
0.29105663 -1.0655971 2.7325137
0.21412158 -1.0636851 2.7374511
0.17134714 -1.0637785 2.7402053
0.13143277 -1.0615056 2.7427571
-0.032212973 -1.0063772 2.7528627
-0.072212458 -1.0179017 2.755527
-0.35715866 -1.0804864 2.7743564
-0.3976965 -1.081442 2.7769732
-0.43815041 -1.0787585 2.7795565
-0.47566676 -1.0830295 2.7820048
-0.59890294 -1.0848562 2.789952
-0.63704443 -1.0923963 2.7924659
-0.71681905 -1.0977126 2.7976425
-0.75845265 -1.0955077 2.8003054
-0.8334837 -1.1040479 2.8052018
-0.87638092 -1.1058486 2.8079772
-0.91564178 -1.1052661 2.8104999
-0.99426174 -1.1051468 2.8155599
-1.0752528 -1.1034181 2.82076
-1.1139593 -1.1056355 2.8232689
-1.1538713 -1.1032987 2.82582
-1.4063575 -0.89101857 2.8404222
-1.5345039 -0.69154847 2.8471198
-1.2761335 -0.33841884 2.8277419
-1.2350209 -0.33060211 2.8250344
-1.2345762 -0.31538823 2.8248875
-1.2646222 -0.29050937 2.8266282
-1.2861695 -0.32596028 2.8282909
-1.5968087 -0.64626604 2.8507783
-1.9155703 -0.36896986 2.8691413
-1.9164081 -0.33461016 2.868928
-1.9524453 -0.20957583 2.8702755
-1.9488947 -0.13089027 2.8694348
-1.9233654 -0.010355264 2.8668542
-1.9157737 0.065384746 2.8657765
-1.9140326 0.086698398 2.8654985
-1.9989287 0.52714127 2.8675382
-1.9994209 0.56701732 2.8672597
-2.0282302 0.60641986 2.8688078
0.67833066 -0.41190481 2.7025001
0.63907027 -0.53906721 2.7060163
0.60876203 -1.0190812 2.7117004
0.57316613 -1.0598252 2.7143087
0.49064279 -1.0794598 2.7197735
0.41238761 -1.0697793 2.7247357
0.33389187 -1.0698966 2.7297897
0.20714712 -1.0952481 2.7381456
-2.4729643 -0.37605762 2.905077
-2.158906 -0.65192711 2.8870058
-2.3558202 -1.0599796 2.9028552
-2.4320068 -1.073966 2.9078681
-2.5094705 -1.0683995 2.9128115
-2.5511863 -1.0695417 2.9155056
-2.6612816 -1.0919824 2.9227672
-2.7011492 -1.0946962 2.9253547
-2.7442982 -1.0958537 2.9281414
-2.8207355 -1.1053389 2.9331355
-2.9069719 -1.1176516 2.9387825
-3.0600972 -1.0966254 2.9484761
-3.1065128 -1.0987259 2.9514802
-3.2213254 -1.0879558 2.9587872
-3.2695022 -1.0705284 2.9617529
-3.4677703 -0.73569715 2.9719119
-3.7125309 -0.42302054 2.9852359
-3.7134995 -0.38323158 2.9849889
-4.1383748 -0.031411588 3.0096028
-3.7408221 0.27641124 2.9816177
-3.407995 0.32007015 2.9598532
-3.033396 0.64228886 2.9332337
-2.8557129 0.56412393 2.9224036
-2.5213256 0.14674748 2.9041243
-2.5286121 0.1067218 2.9049046
-2.7809947 -0.25035113 2.923928
-2.820868 -0.25553033 2.9265351
-3.2360559 -0.052931368 2.9516859
-2.9391973 -0.28849378 2.9344084
-2.9379809 -0.29092491 2.9343491
-2.8968906 -0.28817639 2.9316826
-2.8170931 -0.2878198 2.9265432
-2.6242559 -0.3813777 2.9148574
-8.1893988 1.401064 3.2592359
-7.8613644 1.4121782 3.2380331
-8.1940374 1.4098068 3.2594664
-8.312829 1.4093001 3.2671173
-8.3448486 1.4112142 3.2691636
-8.3605471 1.4109184 3.2701764
-8.3871183 1.4103106 3.2718916
-8.3509016 1.40955 3.2695661
-8.5701151 -1.121357 3.3033602
-8.7452431 -0.68748951 3.3112593
-8.6473665 -1.0861872 3.3080595
-8.6467104 -1.0885304 3.3080354
-8.5718155 -1.1217743 3.3034728
-8.5683975 -1.1234388 3.3032658
-8.4069233 -1.1570094 3.2931325
-8.3471651 -1.1653506 3.2893505
-8.3325272 -1.1653343 3.288408
-8.3147612 -1.1651459 3.2872629
-8.2674036 -1.1648457 3.2842121
-8.25383 -1.1650916 3.2833405
-8.2522354 -1.1646997 3.2832346
-8.0500832 -1.1026629 3.2697392
-7.9320335 -1.117322 3.262254
-7.8942423 -1.1225903 3.2598624
-7.7310781 -1.0956455 3.2491496
-7.6894627 -1.0999758 3.2465043
-7.6130667 -1.1053057 3.2416279
-7.5315514 -1.1118839 3.2364318
-7.4916348 -1.116631 3.2338994
-7.4517365 -1.1188782 3.2313485
-7.2810211 -1.0929891 3.2201576
-7.244525 -1.0927417 3.2178066
-7.2411404 -1.0927539 3.2175887
-7.1630716 -1.0922776 3.2125595
-7.1596861 -1.0922908 3.2123418
-7.1198058 -1.0920564 3.2097728
-6.9511118 -1.0910796 3.1989059
-6.9254799 -1.0908636 3.1972542
-6.8531981 -1.0904377 3.1925981
-6.8058386 -1.0901582 3.1895473
-6.8041458 -1.0901653 3.1894383
-6.7659593 -1.0899235 3.1869783
-6.7226915 -1.0897017 3.1841912
-6.7608953 -1.0874426 3.1866331
-6.8423653 -1.0854067 3.1918616
-6.8788757 -1.0831535 3.1941943
-6.8805695 -1.083148 3.1943033
-6.9204502 -1.083382 3.1968722
-6.9603138 -1.0861164 3.1994598
-6.9335799 -0.13090292 3.19031
-6.9916449 -0.091263354 3.1937397
-6.9323521 -0.090910271 3.1899199
-6.931777 -0.098411672 3.1899414
-8.2078848 -1.1057535 3.2799213
-8.1787605 -0.55972922 3.2737999
-8.3387861 -0.49074525 3.2835648
-6.4029074 -1.0878274 3.1635916
-6.3170824 -1.0923795 3.1581023
-6.2614784 -1.0870358 3.1544814
-6.2042761 -1.0816507 3.1507571
-6.2458487 -1.0818796 3.153435
-6.2857304 -1.0821141 3.1560042
-6.3228278 -1.087359 3.158433
-9.1766481 -0.2081521 3.3353019
-8.8059635 -0.32748932 3.3123684
-8.7508793 -0.48794419 3.3100703
-8.7542038 -0.60836357 3.3112209
-8.7513103 -0.64712334 3.311336
-7.7690859 -0.68213046 3.2483802
-8.1358986 -0.56405079 3.2710745
-8.4995737 -0.31677198 3.292562
-8.444665 -0.32642359 3.2891026
-8.411973 -0.36621481 3.2873075
-9.3361874 -0.20666146 3.3455603
-9.2987614 -0.2114245 3.343188
-9.2015533 -0.21081007 3.336926
-4.8974881 1.3995632 3.0473399
-4.9385924 1.4039193 3.049952
-4.8588057 1.4067472 3.0447941
-4.8177257 1.4073911 3.0421445
-7.4035006 -0.64621353 3.2245674
-7.3635721 -0.6534791 3.2220538
-7.3644834 -0.69347304 3.2224233
-7.3631582 -0.73342776 3.2226489
-7.4793005 -0.65419835 3.2295089
-7.5588503 -0.65466857 3.2346334
-7.5610704 -0.65466058 3.2347763
-7.6942148 -0.67793787 3.2435281
-7.7355652 -0.68105513 3.2462142
0 0 0 1 0 0 0 1 0 0 0 1 0 0 0 0 0 387 1 0 0
