ply
format ascii 1.0
comment PCL generated
element vertex 374
property float x
property float y
property float z
element camera 1
property float view_px
property float view_py
property float view_pz
property float x_axisx
property float x_axisy
property float x_axisz
property float y_axisx
property float y_axisy
property float y_axisz
property float z_axisx
property float z_axisy
property float z_axisz
property float focal
property float scalex
property float scaley
property float centerx
property float centery
property int viewportx
property int viewporty
property float k1
property float k2
end_header
-10.183273 -1.1789482 -4.6651239
-10.102112 -1.235286 -4.6641641
-9.9024658 -1.2360113 -4.6583343
-9.6629524 -1.2313857 -4.6512017
-9.9083061 -0.69632208 -4.6449242
-10.18261 -1.1785457 -4.6650944
-0.14157486 -1.1782589 -4.3709607
-0.15977716 -1.2135057 -4.3723807
-0.20221424 -1.2242525 -4.3738942
-0.28201437 -1.2267162 -4.3762937
-0.33174276 -1.2393789 -4.3780694
-0.33942318 -1.2412624 -4.3783417
-0.36058664 -1.2410438 -4.3789558
-0.41858006 -1.2427289 -4.3806973
-0.45847416 -1.2430398 -4.3818736
-0.49839449 -1.2408539 -4.382988
-0.53828859 -1.2411649 -4.3841643
-0.5781579 -1.2439744 -4.3854027
-0.61802816 -1.2467835 -4.3866415
-0.73773718 -1.2452198 -4.3901086
-0.81750154 -1.2483393 -4.3925238
-0.85739565 -1.2486513 -4.3937001
-0.93710923 -1.2567692 -4.3962393
-0.97697806 -1.2595776 -4.3974781
-1.0168478 -1.2623881 -4.3987164
-1.0940371 -1.2595522 -4.4009061
-1.1339576 -1.2573659 -4.4020205
-1.1738529 -1.2576765 -4.4031973
-1.2137463 -1.2579882 -4.4043736
-1.2536416 -1.2582986 -4.40555
-1.3361313 -1.2523851 -4.4078174
-1.36114 -1.2450854 -4.4083662
-1.416122 -1.2330208 -4.4096732
-1.4907386 -1.2242293 -4.4116378
-1.5359318 -1.2214627 -4.4128919
-1.5732524 -1.2158182 -4.4138432
-1.6158469 -1.2095919 -4.4149342
-1.6358182 -1.2072501 -4.4154601
-1.6557913 -1.2049071 -4.4159865
-1.7356558 -1.1980333 -4.4181528
-1.7756264 -1.1908506 -4.4191427
-1.8955617 -1.1667998 -4.422051
-2.0153465 -1.1577393 -4.4253316
-2.0552406 -1.158051 -4.4265079
-2.095211 -1.1508658 -4.4274979
-2.1351564 -1.1461806 -4.4285502
-2.1751015 -1.141495 -4.4296026
-2.2550416 -1.1271265 -4.4315825
-2.3349063 -1.1202542 -4.4337492
-2.374902 -1.1105713 -4.4346771
-2.454741 -1.1061968 -4.4369054
-2.534481 -1.1118159 -4.4393826
-2.6142437 -1.114938 -4.4417977
-2.6541398 -1.1152494 -4.4429741
-2.7339532 -1.1133718 -4.4452648
-2.7738731 -1.1111856 -4.4463792
-2.8511143 -1.1033533 -4.4484448
-2.8857346 -1.1042447 -4.4494815
-2.8936331 -1.1046236 -4.4497223
-3.0390849 -1.0676363 -4.453052
-3.0808539 -1.0684875 -4.4542971
-3.1589212 -1.0658402 -4.4565172
-3.1988626 -1.0660751 -4.4576931
-3.2388024 -1.0663099 -4.458869
-3.286063 -1.0690147 -4.4603214
-3.3641129 -1.0688658 -4.462604
-3.4040704 -1.0666013 -4.4637175
-3.4421625 -1.068718 -4.4648862
-3.4639797 -1.066954 -4.4654813
-3.5257022 -1.0704229 -4.4673762
-3.7200747 -1.1047658 -4.4739342
-3.7437973 -1.1052331 -4.4746408
-3.7745545 -1.1075509 -4.4756002
-3.8004313 -1.1080055 -4.4763694
-3.9251003 -1.0727694 -4.4791346
-3.9632287 -1.0698881 -4.4801793
-4.0066004 -1.0712807 -4.4814844
-4.0775933 -1.0637429 -4.4833746
-4.1175327 -1.0639782 -4.4845505
-4.1442895 -1.061705 -4.4852767
-4.2240911 -1.061913 -4.4876199
-4.239202 -1.0627999 -4.4880848
-4.2791595 -1.0605369 -4.4891982
-4.3412361 -1.0614071 -4.4910383
-4.4026585 -1.0599759 -4.4928017
-4.4389014 -1.0639746 -4.4939637
-4.6194477 -1.1137288 -4.5005045
-4.6431727 -1.114285 -4.5012136
-4.669373 -1.1140229 -4.5019746
-4.8346224 -1.1168128 -4.5068851
-4.8870254 -1.1196198 -4.508491
-4.9270029 -1.1148562 -4.509542
-5.0051246 -1.1047131 -4.5115752
-5.0451193 -1.097451 -4.5125642
-5.2044907 -1.1223171 -4.517858
-5.2423582 -1.1263611 -4.5190692
-5.2843266 -1.1254225 -4.5202746
-5.3242321 -1.1282234 -4.5215144
-5.3641615 -1.1285272 -4.5226912
-5.4041405 -1.1238345 -4.5237446
-5.444097 -1.1216387 -4.5248594
-5.5239315 -1.1247429 -4.5272765
-5.5638623 -1.1250463 -4.5284538
-5.6037679 -1.1278486 -4.5296931
-5.7235584 -1.1287577 -4.5332251
-5.8034186 -1.129365 -4.5355797
-5.8433485 -1.1296673 -4.5367565
-6.0029697 -1.1408727 -4.5417142
-5.6791039 -0.71823734 -4.5215921
-5.7354593 -0.59885871 -4.5202389
-5.8421144 -0.39976826 -4.518353
-5.883091 -0.30769736 -4.5172367
-5.9661365 0.098659158 -4.5094438
-5.5656981 -0.2783325 -4.5072002
-5.4073691 -0.1797604 -4.500082
-5.3294792 -0.19388723 -4.4981561
-5.1222939 -0.21273425 -4.4925613
-5.1058698 -0.20965263 -4.4920025
-4.7086744 0.0040754676 -4.4749894
-4.5321956 -0.15463299 -4.473814
-4.0111861 0.026880324 -4.4539847
-4.0115514 0.076858282 -4.4527378
-4.0148706 0.2345618 -4.4488664
-4.0158215 0.51443416 -4.4418516
-3.998867 0.66689867 -4.4375181
-3.9997659 0.67410833 -4.4373631
-3.9989092 0.67939299 -4.4372048
-4.0620074 1.0334675 -4.4301434
-3.9579778 1.1951334 -4.4230275
-3.8117032 1.1158452 -4.4207382
-3.7078247 1.0317571 -4.4198112
-3.7063375 0.95611149 -4.4216714
-3.7554717 0.83619612 -4.4261284
-3.9166746 0.57024342 -4.4375429
-3.9173725 0.55500597 -4.4379468
-3.9564915 0.31463337 -4.4451413
-3.9002936 0.15545893 -4.4475007
-3.84552 -0.2783069 -4.4568114
-3.8147607 -0.38808215 -4.458673
-3.8029337 -0.46756256 -4.4603267
-3.8023071 -0.47486532 -4.4604921
-3.8271093 -0.74800611 -4.468092
-3.7389455 -0.94680047 -4.4705119
-3.5058699 -1.0625408 -4.4665971
-3.4659688 -1.0624371 -4.4654255
-3.4209657 -1.0581996 -4.4640007
-3.3861802 -1.0597306 -4.4630203
-3.3411536 -1.0604898 -4.4617205
-3.3063774 -1.0595236 -4.4606776
-3.2664769 -1.0594194 -4.459506
-3.1866651 -1.0617108 -4.4572258
-3.1467652 -1.0616057 -4.4560547
-3.0669622 -1.061398 -4.4537115
-2.8900018 -0.53406715 -4.4352584
-2.7180622 -1.0706002 -4.4437232
-2.6382346 -1.0751406 -4.4414992
-2.5983574 -1.0724138 -4.4402623
-2.5584805 -1.0696853 -4.4390254
-2.5186048 -1.0669584 -4.437789
-2.4787099 -1.0667286 -4.4366145
-2.3989191 -1.0662724 -4.4342656
-2.3590059 -1.068542 -4.4331536
-2.3190546 -1.0758095 -4.4321661
-2.2392075 -1.0828495 -4.4300046
-2.1992571 -1.0901175 -4.4290171
-2.1668055 -1.0949289 -4.4281878
-2.1193922 -1.0996552 -4.4269176
-2.0794966 -1.0994265 -4.4257431
-1.9996693 -1.1039656 -4.4235191
-1.9198053 -1.1135049 -4.4214201
-1.8798728 -1.118273 -4.4203701
-1.839921 -1.1255407 -4.4193826
-1.7200687 -1.1473455 -4.4164205
-1.6002715 -1.1616526 -4.4132714
-1.5478334 -1.1713476 -4.4119797
-1.5203688 -1.1761878 -4.4112968
-1.4405036 -1.1857262 -4.4091973
-1.3207076 -1.2000326 -4.4060483
-1.2808118 -1.1998043 -4.4048738
-1.2408974 -1.2020736 -4.4037619
-1.2009842 -1.2043447 -4.4026499
-1.1610885 -1.2041156 -4.4014754
-1.0812619 -1.2086564 -4.3992515
-1.0413845 -1.2059276 -4.3980145
-0.96161342 -1.2029717 -4.3956037
-0.92171717 -1.2027434 -4.3944292
-0.84194613 -1.1997862 -4.3920178
-0.80201483 -1.2045562 -4.3909683
-0.68921375 -1.2079822 -4.3877501
-0.64243412 -1.2036408 -4.3862705
-0.45224142 -1.1599998 -4.3796015
-0.41186094 -1.159713 -4.3784113
-0.2533803 -1.1593115 -4.3737588
-0.13655996 -1.1595098 -4.3703418
-11.487858 1.2486207 -4.6422501
-11.526611 1.2339492 -4.6437545
-11.489916 1.2314157 -4.6427436
-7.7015753 -1.1933072 -4.5927901
-7.6593904 -1.1915848 -4.5915112
-7.4803162 -1.1535702 -4.585309
-7.6507473 -1.1863546 -4.5911264
-7.7115955 -1.1889565 -4.5929742
-7.7328544 -1.188431 -4.5935836
-7.8476105 -1.1713693 -4.5965157
-7.9376421 -1.1560693 -4.5987682
-8.1781034 -0.79213989 -4.5966539
-8.1043501 -0.63565326 -4.5905557
-7.7350464 -0.53336424 -4.5771637
-7.4396191 -0.49316686 -4.5674982
-7.3279667 -1.0172839 -4.5774169
-5.4247866 1.2659364 -4.4642124
-5.1914649 1.2279735 -4.458333
-5.006259 0.86913329 -4.4619379
-5.1525974 0.75374204 -4.4691281
-5.258791 0.54222697 -4.4775615
-5.2593846 0.50936633 -4.478406
-5.3381739 0.40625006 -4.4833088
-5.3379312 0.42140484 -4.4829202
-5.3382125 0.46143532 -4.4819212
-5.3388715 0.47371119 -4.4816318
-5.2825832 0.59007376 -4.4770546
-5.1537209 0.75337344 -4.4691706
-8.7035751 -1.1642997 -4.6214113
-8.5787191 -1.2104552 -4.6189156
-8.4969988 -1.1859779 -4.6159058
-8.4216032 -1.17036 -4.6133041
-8.3731117 -1.1698509 -4.6118708
-8.3688297 -1.1697731 -4.6117435
-8.2577667 -1.1563747 -4.6081529
-8.1799622 -1.1644464 -4.6060772
-8.1421089 -1.1703759 -4.6051173
-8.0600767 -1.1733737 -4.6027899
-8.0181122 -1.1642392 -4.6013308
-7.9361372 -1.1622418 -4.5988793
-7.8342295 -1.1887772 -4.5965619
-7.7960653 -1.1909747 -4.5954995
-7.7603965 -1.1931944 -4.5945106
-7.5410366 1.272999 -4.5260248
-7.6693444 1.2735114 -4.5297704
-7.7069678 1.2565501 -4.5312991
-8.08078 1.2781491 -4.5417056
-8.2318316 1.2779655 -4.5461349
-8.3181887 1.2795203 -4.5486255
-8.3936768 1.2756815 -4.5509334
-8.4313946 1.2712624 -4.5521493
-8.5112915 1.2755775 -4.5543809
-8.6019793 1.2777896 -4.556982
-8.6397476 1.2783678 -4.5580735
-8.7216949 1.2717695 -4.5606403
-8.8328781 1.2769234 -4.5637674
-8.9214115 1.2800565 -4.5662818
-8.9591045 1.2731404 -4.5675597
-8.9127216 1.2762418 -4.566123
-0.10554123 0.26868618 -4.3334937
-0.11676455 0.43961757 -4.3295212
-0.14125156 0.38945675 -4.331501
-0.14302826 0.30947357 -4.3335657
-0.12971067 0.23013854 -4.3351717
-0.11781359 0.18903011 -4.3358579
-0.11443806 0.17973137 -4.3359928
-0.10197544 0.16069549 -4.3361068
-6.544425 -1.0902243 -4.5563006
-6.8415041 -1.1509058 -4.5665298
-7.3062191 -1.0946913 -4.5787277
-7.3079772 -1.0963948 -4.5788221
-7.3252702 -1.1140265 -4.579772
-7.4361153 -1.1540216 -4.5840254
-7.4403687 -1.1557456 -4.5841937
-6.8489113 -0.83531344 -4.558805
-6.8662052 -0.85294449 -4.5597553
-7.2090316 -0.9790256 -4.5729699
-7.3996944 -0.49284428 -4.5663209
-7.0959482 -0.33506176 -4.553453
-6.6140494 -0.14791447 -4.5346274
-6.6918602 -0.35344118 -4.5420785
-7.5473475 1.2653999 -4.526401
-7.7796879 0.75710851 -4.5459976
-7.7438388 0.63837987 -4.547935
-7.745934 0.55299407 -4.5501451
-7.6066484 0.30712622 -4.5522523
-7.6269674 0.18460786 -4.5559306
-7.6286678 0.10463411 -4.5579929
-7.6289291 0.083698809 -4.5585275
-7.3717394 -0.2414937 -4.5591769
-7.3295903 -0.25030425 -4.5581636
-7.2318563 -0.25535631 -4.555428
-7.1537361 -0.29554898 -4.5541511
-5.5216665 -0.71786225 -4.5169711
-5.1574035 -0.38969266 -4.4980426
-4.6648641 -0.66076988 -4.4904366
-4.663712 -0.66790754 -4.4905825
-4.8825316 -1.0755196 -4.5072494
-4.9235611 -1.0836365 -4.5086555
-7.4297996 1.2755404 -4.5227027
-7.2657566 1.2686334 -4.5180712
-7.4276004 1.2689121 -4.5228047
-7.4696193 1.2652087 -4.5241289
-8.7949762 -1.1586088 -4.6239452
-8.8249178 -1.1588755 -4.6248293
-8.8965445 -1.1620491 -4.627007
-9.0669556 -1.1610258 -4.6319733
-9.0929718 -1.1618912 -4.6327572
-9.1115017 -1.1626894 -4.6333199
-9.1695423 -1.1681621 -4.6351576
-9.2953835 -1.2005646 -4.6396594
-9.3395348 -1.2059909 -4.641089
-9.4173107 -1.2004185 -4.6432271
-9.4992857 -1.2024143 -4.6456785
-9.5831337 -1.2281785 -4.6487832
-8.6126823 -1.1694806 -4.6188793
-8.650507 -1.1660507 -4.6199007
-8.7304668 -1.1567681 -4.6220093
-8.7747593 -1.1497059 -4.6231289
-8.8524218 -1.154124 -4.6255155
-8.9366074 -1.1499141 -4.6278753
-9.2146969 -0.70642179 -4.6248612
-8.9501657 -0.51794589 -4.6123695
-8.6561527 -0.47786435 -4.6027484
-8.2795515 -0.71056622 -4.5975728
-8.5684757 -1.1690493 -4.6175733
-6.7394843 0.36519575 -4.5253897
-6.7008266 0.48796183 -4.5211678
-6.7395115 0.36769456 -4.5253277
-6.0514088 0.21869975 -4.5089207
-6.0548029 0.25771105 -4.5080385
-6.0541654 0.2579881 -4.5080128
-6.0468569 0.26121622 -4.5077176
-6.0149412 0.26549578 -4.5066748
-5.9750581 0.27078265 -4.5053735
-5.9470201 0.25956321 -4.5048347
-5.9530139 0.19898319 -4.5065346
-8.9915638 -0.38980025 -4.6103573
-9.3411884 -0.68137443 -4.6279359
-9.4010162 -0.68690151 -4.6298275
-9.462635 -0.72368985 -4.6325583
-9.5001469 -0.74773532 -4.6342621
-5.203176 -1.0802815 -4.5167618
-5.1632366 -1.0800462 -4.5155859
-7.7889357 -0.056790441 -4.5667496
-7.8318148 -0.17461997 -4.5709705
-8.1088181 -0.47740301 -4.5867043
-8.6231203 -0.43641135 -4.6007376
-8.8691311 -0.16632715 -4.6011477
-8.8205585 0.043484628 -4.5944448
-8.8001175 0.084190011 -4.5928221
-8.8707809 0.089709938 -4.5947528
-8.8713055 0.07681793 -4.5950928
-8.9487314 -0.24433547 -4.605442
-2.863198 -0.323814 -4.4291821
-2.8207865 -0.31289738 -4.4276652
-2.7983401 -0.37396902 -4.4285445
-2.8509128 -0.45380577 -4.4320936
-7.7996798 0.31626886 -4.5576763
-7.7858114 0.2155385 -4.5598049
-7.7694941 0.14221007 -4.5611725
-7.7690845 0.081344247 -4.5626922
-7.7716656 0.038476348 -4.5638466
-7.8745589 0.55550164 -4.5538497
-7.967454 0.67284077 -4.553618
-7.9994678 0.72733146 -4.5531845
-8.0101023 0.78970689 -4.5519266
-8.2773533 1.2702124 -4.5476637
-8.3137789 1.2713664 -4.5487013
-8.3527594 1.2714283 -4.5498419
-8.402235 1.2670028 -4.5514021
-8.4756222 1.2690809 -4.5534997
-8.5932369 1.2689774 -4.5569477
-8.6310062 1.2695565 -4.5580392
-8.7130318 1.270452 -4.5604196
-8.7930069 1.2822626 -4.5624652
-2.9010224 -0.46088493 -4.4337392
-2.9027514 -0.39887825 -4.4322295
-2.9017136 -0.38102973 -4.4317503
-2.8805742 -0.34134933 -4.4301324
0 0 0 1 0 0 0 1 0 0 0 1 0 0 0 0 0 374 1 0 0
