ply
format ascii 1.0
comment PCL generated
element vertex 300
property float x
property float y
property float z
element camera 1
property float view_px
property float view_py
property float view_pz
property float x_axisx
property float x_axisy
property float x_axisz
property float y_axisx
property float y_axisy
property float y_axisz
property float z_axisx
property float z_axisy
property float z_axisz
property float focal
property float scalex
property float scaley
property float centerx
property float centery
property int viewportx
property int viewporty
property float k1
property float k2
end_header
0.46339512 -0.62534654 2.0817156
0.55186605 -1.09405 2.100353
0.46768188 -1.1447108 2.1023817
0.44877577 -1.1295111 2.1017797
0.22693825 -1.0653183 2.0992591
0.10824919 -1.0663067 2.0993166
-0.0053882599 -1.0728722 2.0995951
-0.049095154 -1.0747917 2.0996783
-0.17027187 -1.0767331 2.0997739
-0.20770884 -1.0812576 2.0999596
-0.24641752 -1.0837641 2.1000652
-0.41894674 -1.1648976 2.1033201
-0.53411579 -1.1518092 2.1028168
-0.57409239 -1.152033 2.1028318
-0.61406708 -1.1522559 2.1028469
-0.65542579 -1.1507058 2.1027913
-0.73952556 -1.14583 2.1026101
-0.77673602 -1.1496 2.1027658
-0.81671238 -1.1498234 2.1027808
-0.8952806 -1.1520432 2.1028812
-1.0200419 -1.1266508 2.1018898
-1.1351464 -1.1508856 2.1028717
-1.1926813 -1.1337371 2.1021981
-1.3091569 -1.0926766 2.1005819
-1.3801584 -1.0885065 2.1004267
-1.4964721 -1.1111889 2.101347
-1.5350652 -1.1131856 2.1014323
-1.6183825 -1.1316571 2.1021802
-1.6989448 -1.1511805 2.1029694
-1.7375376 -1.153178 2.1030548
-1.9804711 -1.0736071 2.0999253
-2.0177331 -1.064899 2.0995846
-2.1762228 -1.0750512 2.1000128
-2.2975535 -1.0689554 2.0997887
-2.3774846 -1.0743929 2.1000171
-2.4574268 -1.0773343 2.1001463
-2.5856493 -1.0673612 2.0997691
-2.620115 -1.0696871 2.0998669
-2.6600804 -1.0724051 2.0999811
-2.7028012 -1.0740719 2.100054
-2.8430161 -1.0554049 2.0993326
-2.8870306 -1.0590907 2.0994859
-2.9283659 -1.0579852 2.0994482
-3.0482945 -1.0587087 2.0994952
-3.1295938 -1.0603414 2.0995727
-3.2495356 -1.0585692 2.0995204
-3.3254013 -1.0655924 2.0998113
-3.3667355 -1.0644855 2.0997736
-3.4507637 -1.0609257 2.0996449
-3.4893818 -1.0625151 2.099714
-3.567977 -1.0643454 2.0997987
-3.6506829 -1.0546439 2.0994253
-3.7678597 -1.0655531 2.0998774
-3.8091936 -1.0644473 2.0998394
-3.8505275 -1.0633413 2.0998018
-3.9277649 -1.0665202 2.0999401
-4.0476937 -1.0672442 2.0999873
-4.1676364 -1.0654725 2.0999351
-4.2435155 -1.0699995 2.1001267
-4.2848129 -1.0763824 2.1003869
-4.2475514 -1.0734452 2.1002643
-4.1635504 -1.072013 2.1001947
0.26192474 1.4026721 2.0010467
0.29457951 1.4300809 1.999951
0.34700537 1.4314995 1.9998866
0.45452309 1.4226484 2.0002224
0.52438402 1.4333704 1.9997851
0.54187107 1.4335558 1.9997751
0.57733393 1.4182649 2.0003781
0.58446026 1.4153731 2.0004921
0.58311701 1.406966 2.0008268
0.49877596 1.4208362 2.0002878
0.42028809 1.4159203 2.0004954
0.38179731 1.4089303 2.0007794
-10.925207 0.87414938 2.0237825
-10.936104 0.99384683 2.0190213
-10.943301 0.95385545 2.0206137
-10.952969 0.78584582 2.0273006
-10.952445 0.71597224 2.030081
-10.266539 -0.29510236 2.0702095
-10.023136 -0.33915228 2.0719254
-10.022512 -0.34035921 2.0719733
-9.9417953 -0.49851984 2.0782545
-10.24279 -0.34155673 2.0720544
-10.261877 -0.34348208 2.072134
-10.278297 -0.29663461 2.0702722
-3.0828388 -1.0643437 2.0997248
-3.286948 -1.1507928 2.1031959
-3.3283677 -1.1496017 2.1031547
-3.3797235 -1.1560162 2.1034179
-3.4014459 -1.1569091 2.1034567
-3.441422 -1.1571516 2.1034725
-3.4621735 -1.1565138 2.1034503
-3.4982939 -1.158089 2.1035185
-3.5214591 -1.1575499 2.1035004
-3.5407691 -1.1583443 2.1035349
-3.6081181 -1.1513778 2.1032681
-3.6288705 -1.1507398 2.103246
-3.7435856 -1.1541448 2.1033988
-3.7653081 -1.1550387 2.1034377
-3.7860596 -1.1544017 2.1034155
0.96210957 0.717498 2.0282047
0.97144794 0.62816828 2.0317578
0.95201015 0.5680545 2.034153
0.92613268 0.43595463 2.0394135
0.94402838 0.59659582 2.0330184
-7.2959752 -1.3160009 2.1103809
-7.256125 -1.3350793 2.1111338
-6.9349694 -1.2586027 2.1080418
-6.8975906 -1.2679271 2.108407
-6.8574715 -1.2703106 2.108496
-6.694694 -1.2351451 2.1070716
-6.5336771 -1.2727904 2.1085453
-6.2135 -1.1156906 2.1022451
-6.0962906 -1.1043866 2.1017773
-5.9736233 -1.1062093 2.1018312
-5.9345407 -1.1041043 2.1017416
-5.8153715 -1.1163071 2.1022089
-5.5967169 -1.1833031 2.1048415
-5.3786116 -1.0991832 2.1014609
-5.2937794 -1.1055467 2.1017013
-5.1746659 -1.1102633 2.1018708
-5.1346769 -1.1099317 2.1018515
-5.0528674 -1.1153054 2.1020529
-4.8871622 -1.0798063 2.100615
-4.8308387 -1.0808218 2.1006467
-4.808557 -1.0804722 2.1006296
-4.7668939 -1.0794193 2.1005812
-4.7313066 -1.0797896 2.1005905
-4.7286038 -1.079989 2.1005981
-4.6046004 -1.0833089 2.1007113
-4.5632772 -1.0819182 2.1006496
-4.5219431 -1.0830252 2.1006875
-4.4819665 -1.0827831 2.1006718
-4.4060745 -1.0807531 2.1005793
-4.3561172 -1.0779536 2.1004603
-4.3662806 -1.0778466 2.1004577
-4.4054093 -1.0789295 2.1005068
-4.4887571 -1.0760423 2.1004045
-4.7297091 -0.5795294 2.0806837
-5.0057597 -1.0768852 2.1005168
-5.2174239 -0.58865064 2.081121
-5.2617288 -0.54119205 2.0792394
-5.2616315 -0.5241667 2.0785618
-5.2177782 -0.56336343 2.0801148
-4.7298679 -0.54707432 2.0793924
-10.299488 -1.1403526 2.1038489
-10.296619 -1.1655858 2.1048527
-10.093937 -1.1716611 2.1050637
-10.054043 -1.1588473 2.1045475
-9.9741573 -1.1456945 2.104012
-9.955945 -1.1445038 2.1039619
-9.9142742 -1.1302099 2.1033866
-9.7997484 -1.1186607 2.1029098
-9.7588367 -1.1225746 2.1030593
-9.7152939 -1.1192794 2.1029215
-9.6797647 -1.1201444 2.1029506
-9.5544147 -1.1221806 2.1030123
-9.4352818 -1.1293939 2.1032813
-9.3543777 -1.132972 2.1034114
-9.3153162 -1.1283815 2.1032226
-9.2753458 -1.1255486 2.1031039
-9.2344894 -1.121977 2.1029556
-9.1972198 -1.1163704 2.1027267
-9.1163902 -1.1099664 2.1024597
-9.0355072 -1.1110468 2.1024902
-8.9146175 -1.1142867 2.1026008
-8.8336964 -1.1203586 2.1028302
-8.7573261 -1.115154 2.1026113
-8.7137671 -1.1143553 2.1025729
-8.6347151 -1.1094275 2.1023648
-8.9210205 -0.72805196 2.0872326
-8.8832455 -0.56602556 2.0807793
-8.6408634 -0.40643135 2.0743918
-8.9235134 -0.52524221 2.0791626
-9.1622829 -0.43974677 2.0757971
-9.241045 -0.36407843 2.072798
-9.2812395 -0.33696496 2.0717251
-9.3237267 -0.33732325 2.0717459
-9.6441498 -0.65388316 2.0843914
-10.21866 -1.1339469 2.1035819
-10.140476 -1.1322564 2.1035028
-9.8840446 -0.6608997 2.0847073
-8.601799 -0.40184233 2.0742033
-8.5219717 -0.38120317 2.0733697
-8.4829063 -0.37661347 2.0731812
-8.4438438 -0.37202391 2.0729926
-8.3629608 -0.37310523 2.0730233
-8.3248043 -0.36676085 2.0727651
-8.2448254 -0.3660849 2.072726
-8.2039499 -0.36500901 2.0726769
-8.1612415 -0.36993939 2.0728667
-8.0830212 -0.37323919 2.0729861
-8.0021744 -0.36932835 2.072818
-7.9194212 -0.38140827 2.0732861
-7.8012323 -0.38187587 2.0732868
-7.7630749 -0.37553027 2.0730283
-7.6450348 -0.35603282 2.0722346
-7.5847054 -0.35272467 2.0720937
-7.4831734 -0.37067243 2.0727925
-7.37957 -0.374919 2.0729456
-7.3413959 -0.37104291 2.0727856
-7.263195 -0.37182438 2.0728047
-7.1833096 -0.35868162 2.0722697
-7.0997243 -0.36260903 2.0724132
-7.0878406 -0.40066189 2.0739255
-6.7824426 -0.61061811 2.0822337
-6.4220791 -0.54950619 2.079747
-6.2983589 -0.35416645 2.0719552
-6.300859 -0.35418707 2.0719564
-8.4839296 -0.40414515 2.0742769
-8.4046307 -0.38739893 2.0735984
-8.2245712 -0.40085456 2.0741065
-8.0429802 -0.40251762 2.0741451
-7.8802853 -0.38680181 2.0734949
-7.8030481 -0.4004927 2.0740278
-7.7247505 -0.3953329 2.0738106
-7.6058807 -0.39342767 2.0737166
-7.5656285 -0.39852008 2.0739131
-7.420289 -0.91495383 2.0944412
-7.755003 -1.097012 2.1017368
-7.8268909 -1.0816128 2.1011348
-7.9159017 -1.0916147 2.1015465
-8.0385494 -1.0923507 2.1015944
-8.077651 -1.0919487 2.1015844
-8.1576099 -1.0951191 2.1017227
-8.240324 -1.0880299 2.1014533
-8.2784615 -1.0968707 2.1018109
-8.3983927 -1.1028749 2.1020679
-8.520134 -1.1053661 2.1021857
-8.5955973 -1.112325 2.1024742
-2.1571052 -1.046788 2.0988851
-2.2645309 -1.0498818 2.0990245
-2.3430698 -1.0595883 2.0994227
-2.3789284 -1.0576451 2.0993509
-2.4188833 -1.0628591 2.0995646
-2.4243834 -1.0632527 2.099581
-2.4988348 -1.0633051 2.0995944
-2.6032188 -1.0414718 2.0987415
-2.6805048 -1.0346655 2.0984824
-2.8003731 -1.0478721 2.0990262
-2.8497837 -1.0536574 2.0992639
-2.8856971 -1.0554469 2.0993407
-6.4975877 -0.67205238 2.084635
-6.2181048 -1.0968481 2.101496
-6.0990462 -1.0940795 2.1013677
-5.9763613 -1.0983983 2.1015208
-5.8582635 -1.0863694 2.1010242
-5.7791739 -1.0864275 2.1010144
-5.6546388 -1.0992817 2.1015069
-5.5773811 -1.0932997 2.1012571
-5.4165025 -1.0962375 2.1013496
-7.7194405 -1.1545055 2.1040192
-7.9594059 -1.0999016 2.1018827
-8.0339985 -1.1036265 2.1020424
-8.0757437 -1.1079391 2.1022203
-8.1939163 -1.1099675 2.102319
-8.2348671 -1.1010619 2.1019709
-8.3556843 -1.1078056 2.1022577
-8.3938046 -1.1191406 2.1027145
-8.4373989 -1.1149497 2.1025546
0.53356791 -0.40992144 2.0731325
0.50487375 -0.49481329 2.076515
0.50148487 -0.44773698 2.0746422
0.45196486 -0.49075773 2.0763617
0.14790964 -0.56747532 2.0794609
0.10807037 -0.58089805 2.0800011
0.040208817 -0.66156638 2.0832214
-0.2642765 -1.0604726 2.0991411
-0.34425974 -1.0534317 2.0988731
-0.38422537 -1.0561506 2.0989876
-0.46140099 -1.0626388 2.0992575
-0.53997183 -1.0648587 2.0993578
-0.66264176 -1.0669709 2.0994604
-0.78397369 -1.0608764 2.0992365
-0.86256099 -1.0581042 2.099138
-0.90392995 -1.0540583 2.0989835
-1.0114164 -1.0421796 2.0985272
-1.0969775 -1.0440766 2.0986156
-1.1852343 -1.0313857 2.098124
-1.2238283 -1.0333812 2.0982094
-1.2596869 -1.0314384 2.0981376
-1.3010452 -1.029889 2.0980823
-1.382369 -1.0310565 2.098141
-1.4223442 -1.0312793 2.098156
-1.4636824 -1.0347199 2.0982993
-1.5009031 -1.0359938 2.0983555
-1.5781105 -1.0349957 2.0983276
-1.6553674 -1.02152 2.0978031
-1.7358584 -1.0163099 2.0976081
-1.8651285 -1.044714 2.098758
-1.9847207 -1.0433301 2.0987213
-2.0239952 -1.0469357 2.0988708
-2.0637977 -1.0473813 2.0988946
-3.0415294 -1.0604563 2.0995638
-7.4990606 -1.171324 2.1046548
-7.5776353 -1.1575114 2.1041172
-7.5985694 -1.1552486 2.1040301
-7.6785469 -1.1559236 2.1040692
-8.5965023 -1.1105701 2.1024044
0 0 0 1 0 0 0 1 0 0 0 1 0 0 0 0 0 300 1 0 0
