ply
format ascii 1.0
comment PCL generated
element vertex 297
property float x
property float y
property float z
element camera 1
property float view_px
property float view_py
property float view_pz
property float x_axisx
property float x_axisy
property float x_axisz
property float y_axisx
property float y_axisy
property float y_axisz
property float z_axisx
property float z_axisy
property float z_axisz
property float focal
property float scalex
property float scaley
property float centerx
property float centery
property int viewportx
property int viewporty
property float k1
property float k2
end_header
-4.5703378 -0.14961113 3.4547741
-4.5305967 -0.10937946 3.4519377
-4.5462685 0.010530233 3.4544919
-4.5715079 0.17030886 3.4582529
-4.5721302 0.30895537 3.4597702
-4.5731149 0.50893611 3.4619656
-4.5343614 0.86907309 3.4625931
-4.53544 1.0290874 3.4643736
-4.5360823 1.1890582 3.4661179
-4.7651191 1.148785 3.4844899
-4.8253984 1.1484762 3.489434
-4.9063048 1.148119 3.4960704
-4.9462471 1.1478875 3.4993463
-5.1046548 1.1068424 3.5119133
-5.1447439 1.1066271 3.5152013
-5.3615232 1.184244 3.533814
-5.5205688 1.1857028 3.5468829
-5.5729475 1.1853887 3.5511785
-5.6800447 1.184724 3.5599613
-5.9311047 1.1830932 3.5805495
-5.9589076 1.1829814 3.5828302
-6.0383487 1.1824492 3.5893447
-6.1592135 1.181896 3.5992587
-6.39961 1.1805999 3.6189752
-6.4399967 1.1804286 3.622288
-6.4805303 1.1802803 3.6256132
-6.5996208 1.1794729 3.6353788
-6.7201896 1.1788774 3.6452682
-6.8802576 1.1779847 3.658396
-7.1511502 1.4148978 3.6831343
-7.2331047 1.4147274 3.6898589
-7.2630739 1.4141806 3.6923127
-7.2702398 1.4140898 3.6928999
-7.3103304 1.413878 3.6961882
-7.3425431 1.4140258 3.6988335
-7.35323 1.4140682 3.6997111
-7.3747535 1.4141741 3.7014787
-7.3973827 1.4133189 3.7033269
-7.4314899 1.4133675 3.7061267
-7.4760151 1.4137908 3.7097855
-7.4951286 1.4132648 3.7113488
-7.5153675 1.4134717 3.713012
-7.5346222 1.4129459 3.7145867
-7.5544233 1.4131104 3.7162137
-7.6923056 1.4391209 3.7278051
-7.7296228 1.4510549 3.7309942
-7.7342701 1.4515656 3.7313809
-7.7470045 1.4515096 3.7324255
-7.770916 1.4509337 3.7343819
-7.8149042 1.4511092 3.7379942
-7.8546982 1.4508252 3.7412572
-7.9159818 1.4100198 3.7458553
-8.1404581 1.1698292 3.7617393
-8.3000793 1.1687375 3.7748284
-8.4193087 1.1678655 3.7846048
-8.4993439 1.167344 3.7911682
-8.7713528 1.4044499 3.816
-8.7863646 1.4040614 3.8172281
-9.0201015 1.1640147 3.8338733
-9.1399288 1.1632082 3.8436995
-9.4198303 1.1613601 3.8666525
-9.6293888 1.3983004 3.8863573
-9.6488981 1.398406 3.8879597
-9.851469 1.1578463 3.9020417
-9.8782263 1.1157197 3.9037924
-9.873785 1.0758423 3.9030061
-9.8728189 1.0357627 3.902503
-9.8469429 0.95720553 3.8995485
-9.8462429 0.83721912 3.8982224
-9.8711548 0.7282933 3.8991153
-9.8727551 0.63604045 3.8982711
-9.8849277 0.51571441 3.8979979
-9.882225 0.47573608 3.8973532
-9.8718386 0.41109848 3.8958173
-9.8710079 0.39601374 3.8955896
-9.8713913 0.3560864 3.8951988
-9.8714104 0.3158192 3.8947747
-9.8699074 0.27597493 3.8942299
-9.8693924 0.23594657 3.8937645
-9.8699245 0.1960354 3.8933861
-9.8726273 0.14094102 3.8930254
-9.8773575 0.035796553 3.8923018
-9.8720121 -0.058984742 3.8908608
-9.8071318 -0.096383318 3.8851404
-9.6673527 -0.17639066 3.872822
-9.6026735 -0.16308893 3.8676543
-9.4399796 -0.1748753 3.8541768
-9.2795029 -0.16639011 3.8410957
-9.046319 -0.43867218 3.8190782
-9.0533218 -0.53154886 3.818671
-9.0441856 -0.57133448 3.8175004
-8.8037157 -0.68221432 3.7965915
-8.7635841 -0.73941678 3.7926929
-8.6850204 -0.76867509 3.7859356
-8.4820032 -1.0475038 3.7663248
-8.4805622 -1.0889063 3.7657688
-8.4357738 -1.1229883 3.7617323
-8.3586445 -1.1120944 3.7555172
-8.2790575 -1.1115122 3.7489915
-8.2019138 -1.1031188 3.7427487
-8.0378132 -1.1250802 3.7290483
-7.9980202 -1.1247904 3.7257853
-7.9208922 -1.1138955 3.7195704
-7.8388929 -1.1161277 3.7128167
-7.7195873 -1.1027564 3.7031662
-7.6773672 -1.1077785 3.6996479
-7.6272712 -1.1214194 3.6953921
-7.5825038 -1.1210915 3.6917214
-7.4416046 -1.0806655 3.6805847
-7.2261314 -1.0760307 3.6629491
-7.1067638 -1.0727111 3.6531873
-6.9476361 -1.0616214 3.6402442
-6.8680611 -1.0585757 3.6337454
-6.7486801 -1.0577556 3.623956
-6.7039604 -1.0474508 3.6203947
-6.5072589 -0.92716283 3.6055226
-6.3072453 -0.92611998 3.5891178
-6.1870732 -0.9654755 3.5788386
-5.947309 -0.92421418 3.5595965
-5.9073658 -0.92398733 3.5563207
-5.6656065 -0.8426283 3.537339
-5.5503998 -0.80137479 3.5283196
-5.4717331 -0.79555422 3.5219247
-5.3076568 -0.80017972 3.5084095
-5.2583008 -0.71985877 3.505208
-5.2383327 -0.17833103 3.5092952
-4.9366755 -0.15096839 3.4848266
-4.7315955 -0.20285366 3.4674461
-4.6079612 -0.66976374 3.4523618
-3.0509188 -1.0952108 3.3200707
-3.0260203 -1.1000528 3.317976
-2.998816 -1.1001554 3.3157423
-2.9361544 -1.1014351 3.3105857
-2.896333 -1.1061829 3.3072672
-2.856498 -1.1134305 3.3039212
-2.8518329 -1.1139499 3.3035328
-2.7745457 -1.1181854 3.2971449
-2.7300842 -1.1184528 3.2934928
-2.6107056 -1.1151981 3.2837296
-2.45521 -1.0812478 3.2713263
-2.4153981 -1.0785552 3.2680874
-2.373724 -1.0711498 3.2647452
-2.2546804 -0.95308489 3.2562232
-2.2149847 -0.9178949 3.2533374
-2.215035 -0.77298057 3.254874
-1.936094 -0.43188053 3.2355869
-1.567992 -0.72831595 3.2022409
-1.565217 -0.80829638 3.2011673
-1.4722188 -1.049008 3.1909895
-1.4597192 -1.0639471 3.1898055
-1.3758707 -1.189121 3.1816001
-1.2981062 -1.1884514 3.1752248
-1.2564058 -1.1885451 3.1718013
-1.1805229 -1.1875898 3.1655834
-1.1388216 -1.1876843 3.1621599
-1.1008792 -1.1872063 3.1590509
-1.0591793 -1.1873002 3.1556273
-1.0193582 -1.187107 3.1523612
-0.98141575 -1.1866295 3.1492522
-0.93971395 -1.1867225 3.1458285
-0.89801311 -1.1868156 3.142405
-0.81837082 -1.186433 3.1358726
-0.77667046 -1.1865258 3.1324489
-0.73872852 -1.1860484 3.1293399
-0.61675167 -1.1658654 3.1195424
-0.42054272 -1.077021 3.1043782
-0.23990583 -1.1242344 3.0890534
-0.21856308 -1.123966 3.0873046
-0.19261742 -1.1240065 3.0851746
0.06665802 -1.0670053 3.0644977
0.18482733 -1.0960476 3.054492
0.26603079 -1.0957332 3.0478306
0.29023504 -1.0958194 3.0458431
0.42306328 -1.0569483 3.0353525
0.5861392 -1.0464123 3.0220797
0.66608763 -1.013463 3.0158663
0.70413208 -0.97301048 3.0131717
0.70287037 -0.8929103 3.0141222
0.7051487 -0.85289842 3.0143583
0.63105154 -0.85311872 3.0204375
0.33826399 -0.80699533 3.0449553
0.39509916 -0.25416148 3.0461364
0.39296246 -0.21391933 3.0467372
0.38851166 -0.054474443 3.0487885
0.45989513 0.17173669 3.0453217
0.7161088 0.33141536 3.0259819
0.71726274 0.33207047 3.0258942
0.70586538 0.37267259 3.0272589
0.69749308 0.53270656 3.0296381
0.73653841 0.73288625 3.0285501
0.73507166 1.0129783 3.0316324
0.69446421 1.1728654 3.0366559
0.74614334 1.4136099 3.03496
0.66641665 1.42284 3.0416012
0.54315519 1.4507601 3.0520129
0.41877747 1.4136252 3.0618284
0.30008221 1.4096797 3.0715284
0.26392603 1.4097612 3.0744967
0.1832099 1.4096245 3.08112
0.15075731 1.4090897 3.0837779
0.13831329 1.4090405 3.0847986
0.12146997 1.409299 3.0861838
0.026292801 1.4185961 3.0940936
0.024380684 1.4189132 3.094254
-0.26965618 1.4520446 3.118737
-0.33205795 1.4519968 3.123858
-0.465868 1.4705659 3.1350367
-0.59081602 1.4282458 3.1448441
-0.71401119 1.4206705 3.154875
-0.75384092 1.4229776 3.1581686
-0.79179239 1.4250315 3.161305
-0.83536386 1.4228427 3.1648579
-0.70387316 1.4093195 3.153923
-0.66945362 1.4102352 3.1511078
-0.63726902 1.4114491 3.148479
-0.55574656 1.411584 3.1417897
-0.30538654 1.0097363 3.1169925
-0.7553401 0.77105129 3.1513979
-0.91456842 0.69031817 3.1636128
-1.3140748 0.6885621 3.1963832
-1.4726765 1.0474921 3.2131956
-1.146841 1.4078563 3.1902635
-1.3152649 1.4657753 3.2046993
-1.5142264 1.424814 3.2205956
-1.5540478 1.4246203 3.2238617
-1.5901098 1.4239256 3.2268143
-1.6678729 1.4232874 3.2331898
-1.7133327 1.4238484 3.2369268
-1.7475154 1.4229022 3.2397223
-1.7929764 1.4234625 3.2434592
-1.9040639 1.4442508 3.2527966
-1.9186671 1.4437886 3.2539902
-1.9932218 1.4451377 3.2601235
-2.218451 1.4028608 3.2781618
-2.2237818 1.4028834 3.2785995
-2.2364821 1.4025127 3.2796381
-2.2508061 1.4027034 3.2808156
-2.2632508 1.4026444 3.2818365
-2.5059383 1.401989 3.3017478
-2.2710438 0.96393955 3.277837
-2.2711058 0.88399357 3.2769969
-2.1446626 0.48386794 3.2623882
-2.5188756 0.18614475 3.2899532
-2.9286153 0.48022062 3.3266916
-2.9502301 0.55995166 3.3293087
-2.9518135 0.6450662 3.3303387
-2.9927092 0.71988827 3.3344862
-3.007102 0.7597149 3.3360887
-3.0309536 0.75945544 3.3380435
-3.3377118 1.0310986 3.3660927
-3.3524632 0.9960084 3.3669324
-3.4550714 0.7952894 3.3732314
-3.4381831 0.75575036 3.3714273
-3.415669 0.69813615 3.3689702
-3.3878045 0.5958159 3.3656013
-3.3921874 0.47579664 3.364692
-3.4707975 0.27532056 3.3690238
-3.4932699 0.11528923 3.3691761
-3.4923215 0.10019805 3.3689387
-3.4130404 0.075741202 3.3621731
-3.2936983 0.017992467 3.3517678
-3.1753986 -0.14102639 3.3403769
-3.1342592 -0.38105929 3.3344624
-3.3307042 -0.85699588 3.3455527
-3.3696012 -0.86234516 3.3486886
-3.5782385 -0.97245616 3.3646479
-3.6226878 -0.97468907 3.3682723
-3.6222129 -0.98223692 3.3681536
-3.6178725 -1.0052048 3.3675544
-3.5311565 -1.030479 3.3601701
-3.4937539 -1.0174682 3.3572381
-3.209846 -1.0612694 3.3334734
-3.170424 -1.0734677 3.3301089
-1.1065512 1.4079869 3.1869583
-1.0669637 1.4082109 3.1837115
-1.1067863 1.4080178 3.1869779
-7.8148613 -0.88148135 3.7133255
-7.6964073 -0.52080709 3.7074172
-8.0127468 -0.25363475 3.7362056
-8.1320982 -0.28448385 3.7456751
-8.3676195 -0.60636765 3.7616014
-8.3656273 -0.76648611 3.7597449
-1.4322841 0.40797567 3.2031181
-1.3615103 -0.0073742121 3.1929176
-1.2314177 -0.19423296 3.1802645
-1.4673681 -0.5680998 3.1956766
-1.8898768 -0.32960403 3.2328753
-1.9168277 -0.25180089 3.2359099
-1.9320469 -0.17188127 3.238004
-2.5789304 0.10556678 3.29403
-2.4180954 -0.32612532 3.2762649
-2.0283375 -0.29044127 3.2446532
-1.9406269 -0.05143398 3.2399819
-1.9466441 -0.010545775 3.2409081
-1.9508274 0.01007551 3.2414694
-1.9472377 0.057000607 3.2416711
-1.9072468 0.16575634 3.2395389
0 0 0 1 0 0 0 1 0 0 0 1 0 0 0 0 0 297 1 0 0
