ply
format ascii 1.0
comment PCL generated
element vertex 360
property float x
property float y
property float z
element camera 1
property float view_px
property float view_py
property float view_pz
property float x_axisx
property float x_axisy
property float x_axisz
property float y_axisx
property float y_axisy
property float y_axisz
property float z_axisx
property float z_axisy
property float z_axisz
property float focal
property float scalex
property float scaley
property float centerx
property float centery
property int viewportx
property int viewporty
property float k1
property float k2
end_header
-11.151651 0.96375477 0.8388108
-11.156519 0.95373106 0.83820724
-11.153318 0.91345978 0.83765298
-11.142739 0.79385519 0.83609486
-11.120145 0.67461562 0.83553171
-11.109138 0.63408673 0.83561385
-11.104889 0.62971377 0.83587432
-11.073872 0.59609795 0.83774137
-11.00819 0.018858969 0.83142364
-11.087134 -0.021561146 0.82411444
-11.020541 -0.060186863 0.82880402
-10.997225 -0.63969827 0.81895792
-10.982473 -0.057292819 0.83199179
-10.96769 -0.017914474 0.83400619
-11.109108 1.1145475 0.84536833
-11.074154 1.1691208 0.84934914
-11.03035 1.1749629 0.85306823
-11.013502 1.1749635 0.85445297
-11.096945 0.99765813 0.84399557
-11.108288 0.87763107 0.84062696
-11.107191 0.83704817 0.83989346
-11.092377 0.75775492 0.83950162
-11.084641 0.72280669 0.83942819
-11.059124 0.63797212 0.83980352
-11.064942 0.5949434 0.83845192
0.90470839 0.33560145 1.817029
0.91747475 0.55232787 1.8224773
0.88724852 0.64802182 1.8219352
0.89021301 0.59095299 1.8210206
0.89576435 0.51180363 1.8198704
0.4312048 -1.169071 1.7475687
0.34995699 -1.1899458 1.7404668
0.16697836 -1.1718872 1.7257936
0.14519453 -1.1722245 1.7239962
0.054092407 -1.1488819 1.7169819
-0.073753357 -1.1531702 1.7063866
-0.23741102 -1.0924489 1.6941673
-0.27988243 -1.0833269 1.6908615
-0.3683815 -1.0797127 1.6836607
-0.48722887 -1.067438 1.6741413
-0.60598373 -1.0726597 1.6642743
-0.67591381 -1.0665736 1.6586499
-0.5920701 -1.0683068 1.6655062
-0.54786158 -1.0626167 1.6692555
-0.45938969 -1.061233 1.6765554
-0.4547472 -1.0606154 1.6769496
-0.39875698 -1.0660551 1.6814413
-0.36379147 -1.0690973 1.6842535
-0.31488657 -1.0727859 1.6881983
-0.28459072 -1.071449 1.6907157
-0.2455287 -1.0701852 1.693952
-0.17756462 -1.065096 1.6996416
-0.096113682 -1.0745444 1.7061446
-0.0033969879 -1.0652319 1.7139544
0.071423054 -1.0774083 1.7198571
0.19482422 -1.0809925 1.7299273
0.2468791 -1.0850399 1.7341237
0.30913639 -1.0828241 1.7392859
0.34871387 -1.0799773 1.7425967
0.40991402 -1.0907757 1.7474079
0.57864046 -1.1272861 1.7605352
-4.0938468 -0.36136666 1.392028
-4.5382557 -0.32657433 1.3562062
-4.6116862 -0.28680336 1.3509779
-4.5308838 -0.31906134 1.3569646
-4.0766463 -0.34383518 1.3937976
-4.0390153 -0.32332301 1.397307
-3.9976454 -0.3161616 1.4008528
-3.9132237 -0.31979713 1.4077181
-3.873924 -0.31851947 1.4109741
-3.7562804 -0.31974655 1.420619
-3.7158184 -0.31945691 1.4239506
-3.5619795 -0.33012035 1.4363788
-3.4811349 -0.35958859 1.4424257
-2.9586949 -0.34161434 1.4857323
-2.9540963 -0.33807072 1.4861822
-2.9217491 -0.31653911 1.4892781
-2.8994758 -0.31648663 1.4911098
-2.8400986 -0.31384641 1.4960439
-2.7559388 -0.31614557 1.5029148
-2.731313 -0.33302459 1.5045962
-2.7204349 -0.35591081 1.5050259
-2.6988561 -0.4132812 1.505635
-2.8407364 -0.67686504 1.4886231
-2.6091998 -1.0517057 1.500046
-2.490186 -1.0642333 1.5095739
-2.4227264 -1.0629524 1.5151448
-2.3924429 -1.0591154 1.5177119
-2.3575056 -1.0571597 1.5206232
-2.4017007 -1.0653498 1.5168244
-2.4156406 -1.0647038 1.5156916
-2.4808748 -1.067997 1.510263
-2.5461237 -1.068791 1.5048836
-2.6089284 -1.0719533 1.4996573
-2.6484952 -1.0770259 1.4963021
-2.6788058 -1.0758647 1.4938344
-2.713758 -1.07532 1.4909725
-2.7276962 -1.0746754 1.48984
-2.8210166 -1.0578055 1.482512
-2.8513608 -1.0583106 1.4800075
-2.9094245 -1.0625799 1.4751484
-2.9886181 -1.0627687 1.4686353
-3.1562371 -1.0652316 1.4548079
-3.2215433 -1.0672854 1.4493984
-3.2400465 -1.0664637 1.4478942
-3.4149086 -1.0667124 1.4335164
-3.0769486 -0.67878234 1.4691689
-2.1213229 1.1324805 1.58448
-2.1941278 1.1331955 1.5785104
-2.1646409 1.0928754 1.5801157
-2.1571636 1.0828935 1.5805277
-2.0733476 1.0861852 1.5874838
-2.0562832 1.1337035 1.5898508
-2.0773778 1.1331538 1.5881058
-5.9909291 -1.1632092 1.2198228
-5.7411656 -1.0875974 1.2418866
-5.5693369 -1.1430144 1.2548853
-5.4092941 -1.099407 1.268925
-5.3299813 -1.1014814 1.2754019
-5.2820177 -1.0975291 1.2794245
-5.2465639 -1.0954382 1.2823812
-5.2069402 -1.0927269 1.285693
-5.1067963 -1.089198 1.293996
-5.0587678 -1.0927418 1.2978717
-4.9776878 -1.0670581 1.3050574
-5.2843828 -0.69716525 1.2873565
-5.2145882 -0.3807013 1.2995167
-5.3322797 -0.34361893 1.2905958
-5.4517589 -0.34183368 1.2808114
-5.4932284 -0.34231755 1.277393
-5.5294867 -0.34202582 1.2744187
-5.5686097 -0.34216073 1.2712003
-5.6077337 -0.34229609 1.2679816
-5.4698114 -0.38064685 1.2785398
-5.3094177 -0.69804823 1.2852808
-5.3082685 -0.71038836 1.2851249
-5.3180518 -0.94026798 1.2796547
-5.722435 -1.0829909 1.2435197
-5.9676023 -0.70321834 1.2310767
-5.6932588 -0.34615058 1.2608738
-5.6473789 -0.3425073 1.2647188
-5.6618533 -0.34288436 1.2635214
-5.6849174 -0.34490952 1.2615845
-5.7624054 -0.34256193 1.2552631
-5.8414354 -0.34294817 1.2487595
-5.9204659 -0.34333456 1.2422557
-5.9496851 -0.34199423 1.2398813
-5.9623346 -0.34210038 1.2388394
-5.9958472 -0.34317765 1.236063
-6.1481733 -0.34309465 1.2235442
-6.2671309 -0.34123299 1.2138044
-6.3150945 -0.34518591 1.2097818
-6.4069185 -0.34497428 1.2022387
-6.5342169 -0.34435394 1.191788
-6.5655432 -0.34082559 1.1892848
-6.6364923 -0.3400079 1.1834698
-6.6844568 -0.34396124 1.1794471
-6.7199316 -0.34355229 1.1765395
-6.776216 -0.35124704 1.1717571
-6.8776884 -0.34928355 1.1634564
-6.8789921 -0.34947723 1.1633453
-7.0033922 -0.35306245 1.1530476
-7.0166955 -0.3529084 1.1519573
-6.8549953 -0.41165015 1.1640558
-6.68788 -0.43205208 1.1773777
-6.4344435 -0.78629452 1.1910186
-6.7970095 -1.0918438 1.1550157
-6.8408051 -1.095176 1.1513484
-6.8804064 -1.1003869 1.1479876
-7.1268334 -1.0779108 1.1281888
-7.2019539 -1.0777153 1.1220183
-7.2416 -1.0779274 1.1187553
-7.2457695 -1.0785474 1.1184
-7.2812014 -1.0831372 1.1153945
-7.3208466 -1.0833493 1.1121316
-7.3563437 -1.0804417 1.109273
-7.4001155 -1.0862734 1.1055567
-7.4438686 -1.0946038 1.1017914
-7.5386529 -1.1019115 1.0938523
-7.5511627 -1.1038232 1.0927852
-7.6613455 -1.1506851 1.0827777
-7.7486277 -1.1923785 1.0747572
-7.8860979 -1.2200537 1.0628963
-8.0176525 -1.2101204 1.0522847
-8.1530523 -1.2383099 1.0405835
-8.4096985 -1.1190277 1.0219096
-8.4505167 -1.1044105 1.0188513
-8.490097 -1.1121246 1.0154414
-8.433341 -1.2798784 1.0167015
-8.3735256 -1.3195376 1.020813
-8.3662128 -1.3213407 1.0213774
-8.3357029 -1.3199643 1.0239131
-8.2231102 -1.3399358 1.0327623
-8.1710205 -1.3303112 1.0372392
-8.1147747 -1.3208833 1.0420537
-8.0618362 -1.3186361 1.0464505
-8.0069275 -1.3193715 1.0509489
-7.9833279 -1.3183203 1.0529099
-7.9436817 -1.3181028 1.0561731
-7.904036 -1.3178865 1.0594361
-7.8746953 -1.317418 1.0618572
-7.8607426 -1.3171122 1.0630102
-7.6285162 -1.2373214 1.0837176
-7.3042865 -1.3110983 1.10887
-7.1743827 -1.3130958 1.1195068
-7.0656328 -1.3097084 1.1285143
-7.0494633 -1.3094351 1.129849
-6.9143658 -1.2774186 1.141603
-6.9069972 -1.2698807 1.1423616
-6.661931 -1.1492014 1.1649543
-6.6198068 -1.1489761 1.1684213
-6.5826397 -1.1487775 1.1714802
-6.5208263 -1.1481098 1.1765745
-6.4653959 -1.1487473 1.1811177
-6.4102297 -1.1487149 1.1856526
-6.3844123 -1.1477153 1.187795
-6.3405981 -1.1468823 1.1914132
-6.3228598 -1.1470876 1.192867
-6.3092933 -1.1479118 1.1939654
-6.2915549 -1.1481169 1.1954192
-6.2477388 -1.1472831 1.1990377
-6.2233539 -1.1468527 1.2010506
-6.1411915 -1.1603162 1.2075307
-6.0618806 -1.1623921 1.2140075
-6.0347457 -1.1640418 1.2162044
-4.1811438 -1.0641338 1.3705884
-4.2834044 -1.07204 1.3620226
-4.3837247 -1.0681472 1.3538558
-4.4675527 -1.0668797 1.3469913
-4.2034245 -1.1842908 1.3663181
-4.0557432 -1.1618848 1.3789115
-4.0382528 -1.1623602 1.3803395
-4.0136719 -1.1617846 1.3823717
-3.8125679 -1.1556261 1.3990263
-3.6129086 -1.064683 1.4172831
-3.5918143 -1.0637674 1.4190356
-3.7014403 -1.0519677 1.4102644
-3.9749591 -0.91415668 1.3905797
-3.8037028 -0.39919043 1.4151086
-3.6362405 -0.37423941 1.4293795
-3.5966439 -0.37414575 1.432636
-9.3344011 0.17704922 0.972211
-9.444664 0.17644727 0.96313584
-9.5009565 0.18548763 0.95869231
-9.5134678 0.18347609 0.95762318
-9.5927572 0.18304163 0.95109713
-9.6323814 0.18032533 0.94778514
-9.746295 0.17220545 0.93825722
-9.7515125 0.17213655 0.93782699
-9.6831703 -0.04893887 0.9389571
-9.8653088 -0.37043652 0.91746074
-10.045982 -0.41143861 0.9017781
-10.040241 -0.41202149 0.90223813
-9.9790802 -0.41107219 0.9072845
-9.7540588 -0.46104765 0.92476571
-9.7491951 -0.45029539 0.92538369
-9.5802803 -0.047454 0.9474442
-9.1851273 -0.046210229 0.97994894
-9.1839685 0.17718345 0.98457849
-9.2233524 0.17700958 0.98133779
-9.2622156 0.17691839 0.97814155
0.37395477 1.4659405 1.7963469
0.60953283 1.4696996 1.8157864
0.41800499 1.4193883 1.7990227
0.40400553 1.4094489 1.7976704
0.25499439 1.4149947 1.7855349
0.21548939 1.4072289 1.7821302
0.15926218 1.424099 1.777851
0.16806221 1.4256258 1.7786053
0.19377327 1.4247258 1.7807004
0.21578407 1.4256573 1.7825284
0.25632668 1.4277442 1.7859032
-9.0675774 -0.48547205 0.98069501
-9.0811539 -0.33489648 0.98263538
-8.9919376 -0.36547869 0.98934782
-10.191737 -1.1214107 0.87538719
-10.093674 -1.1214449 0.88344681
-10.049836 -1.1230901 0.88701665
-10.017471 -1.1235646 0.88966727
-9.9736776 -1.1202121 0.89333487
-9.9496956 -1.1194699 0.89532113
-9.9100266 -1.1217523 0.89853537
-9.6696777 -1.04541 0.9198404
-9.3637257 -1.089334 0.94409639
-9.6092224 -1.127099 0.92315131
-9.6465149 -1.1284152 0.92005944
-9.7044773 -1.1224641 0.915416
-9.7921314 -1.1216733 0.90822732
-9.9027042 -1.1235497 0.89910072
-9.911046 -1.1248233 0.89838928
-9.9308567 -1.1274354 0.89670789
-9.994463 -1.1308935 0.89140964
-10.034153 -1.1261127 0.88824439
-10.072779 -1.1232585 0.88512748
-10.129106 -1.1260235 0.88044161
-10.204227 -1.1258206 0.87427115
-10.24387 -1.1260374 0.87100834
-10.220951 -1.1233697 0.87294626
-10.339844 -1.1290208 0.86305922
-10.367022 -1.122328 0.8609612
-10.275154 -1.1274803 0.86840761
-9.1058006 -1.0985748 0.96510887
-9.157959 -1.1007032 0.96077859
-9.2289085 -1.0998642 0.95496392
-9.2372704 -1.0986373 0.95430154
-9.272768 -1.0957191 0.95144308
-9.3040724 -1.0946624 0.94889146
-9.1191216 -0.76778173 0.97072822
-9.1035614 -0.60743737 0.97526181
-9.0923061 -0.56677341 0.97701228
-0.83897161 -1.0599898 1.6453811
-0.94852114 -1.0489794 1.6366003
-0.9624753 -1.0458348 1.6355171
-1.0370731 -1.0353689 1.6295979
-0.9531908 -1.0445991 1.6363053
-0.88946342 -1.0432626 1.6415704
-0.80868816 -1.0561523 1.647948
-0.70156813 -1.0672938 1.6565267
-9.0835705 -0.80603975 0.97287381
-9.0962181 -0.68676007 0.97425532
-9.0916109 -0.64674604 0.97544616
-1.4725788 -1.0411822 1.5936837
-1.5913472 -1.0439024 1.5838664
-1.4515405 -1.0460775 1.5953135
-1.3188586 -1.0390034 1.6063629
-1.4422686 -1.0423431 1.5961515
-1.1558537 -1.0355899 1.6198304
-1.1116195 -1.0348994 1.6234801
-1.0976801 -1.0355449 1.6246128
-1.0766668 -1.0354424 1.6263421
-1.1208897 -1.0386326 1.6226424
-1.1301732 -1.0398688 1.6218543
-1.7286837 -1.0490955 1.5724727
-1.7497234 -1.0441997 1.5708427
-1.8289106 -1.0443476 1.5643309
-1.8335528 -1.0449648 1.5639368
-1.9114981 -1.0500453 1.557427
-1.8916876 -1.0525086 1.5590053
-1.8128037 -1.0498987 1.5655421
-4.0321689 -0.38017747 1.3967158
-4.600193 -1.0702943 1.3360198
-4.5071483 -1.0669746 1.3437349
-4.520999 -1.0701051 1.3425329
-4.8378057 -1.0658609 1.3165792
-4.7750711 -1.0680437 1.3216913
-4.8285365 -1.0687695 1.3172821
-4.8588815 -1.0692749 1.3147776
-0.72477913 -1.0703814 1.6545562
-0.71085215 -1.0685287 1.6557385
-2.0163536 -1.0484147 1.5488415
-2.0268669 -1.0472162 1.5480018
-2.0618191 -1.0466723 1.5451399
-2.1014125 -1.046747 1.5418839
-2.1456356 -1.0499386 1.5381844
-2.2248106 -1.052585 1.5316229
-2.168819 -1.0580252 1.5361147
-2.0942862 -1.0559961 1.542282
-2.0850027 -1.0547602 1.5430702
-2.0757194 -1.053524 1.5438583
-2.0361376 -1.0509505 1.547164
0 0 0 1 0 0 0 1 0 0 0 1 0 0 0 0 0 360 1 0 0
