ply
format ascii 1.0
comment PCL generated
element vertex 384
property float x
property float y
property float z
element camera 1
property float view_px
property float view_py
property float view_pz
property float x_axisx
property float x_axisy
property float x_axisz
property float y_axisx
property float y_axisy
property float y_axisz
property float z_axisx
property float z_axisy
property float z_axisz
property float focal
property float scalex
property float scaley
property float centerx
property float centery
property int viewportx
property int viewporty
property float k1
property float k2
end_header
-11.056692 0.5907672 3.1413531
-11.056674 0.58826745 3.1414039
-11.011439 0.53144681 3.1397533
-10.975046 0.11039963 3.1462407
-10.976402 0.097062826 3.1466033
-10.97846 0.078302413 3.1471229
-10.974606 0.065483898 3.1471484
-10.935606 0.017493427 3.1457045
-10.91151 0.017138034 3.1442025
-10.813391 0.012068868 3.1381614
-10.838168 0.024747133 3.1394496
-10.945419 0.47626215 3.1367667
-10.817255 0.67240632 3.1246541
-10.818787 0.67148888 3.124769
-11.053465 0.59772271 3.141006
0.59963751 0.34719968 2.4162343
0.96676445 0.27585453 2.3947217
0.56275749 0.1073769 2.4235382
0.62971354 -0.25762397 2.4269438
0.39968395 -0.57434452 2.4479485
0.59727669 -1.0601037 2.4456849
0.59749222 -1.0649428 2.4457722
0.51794291 -1.0857532 2.4511888
0.40435457 -1.0806906 2.458199
0.36561298 -1.0748484 2.4605041
0.32069874 -1.0703101 2.4632232
0.27951527 -1.0669878 2.465734
0.23836088 -1.0661633 2.4682949
0.19965172 -1.0628182 2.47065
-0.039023876 -1.1227534 2.4868493
-0.16453028 -1.1452839 2.4951806
-0.20665503 -1.1474614 2.4978647
-0.28202629 -1.1436858 2.5025077
-0.42713308 -1.1692642 2.5121303
-0.46592999 -1.168393 2.5145426
-0.5666914 -1.1897607 2.5212994
-0.7227602 -1.2272711 2.531857
-0.76377439 -1.2284322 2.5344505
-0.8435874 -1.2287233 2.5394564
-0.88460231 -1.2298841 2.5420499
-1.0032246 -1.2268043 2.5494165
-1.0830209 -1.229594 2.5544734
-1.1269932 -1.2133688 2.55689
-1.5628529 -1.171939 2.5833311
-1.6851621 -1.1948404 2.5914698
-1.8062148 -1.1563129 2.5982509
-1.8439004 -1.1544263 2.6005723
-1.8849161 -1.1555882 2.6031659
-2.045902 -1.1122091 2.6123471
-2.0791204 -1.1112534 2.6144083
-2.1578221 -1.1105282 2.6193233
-2.2189038 -1.0917721 2.6227591
-2.3243573 -1.0722299 2.6289582
-2.3643186 -1.0623808 2.6312563
-2.5205421 -1.0724062 2.6412516
-2.5238862 -1.0729558 2.6414723
-2.6369979 -1.0950403 2.6490178
-2.7167604 -1.0979284 2.6540747
-2.7565968 -1.1056191 2.6567302
-2.7964337 -1.1133089 2.6593859
-2.836359 -1.1085064 2.661787
-2.9161568 -1.106396 2.6667418
-3.1156421 -1.1023712 2.6791544
-3.15555 -1.1000671 2.6816063
-3.1954403 -1.1002607 2.6841092
-3.235384 -1.0929594 2.6864593
-3.27531 -1.0881572 2.6888604
-3.3153059 -1.0733597 2.6910579
-3.3602719 -1.0610851 2.693619
-3.6206861 -1.028438 2.7092526
-3.7444029 -0.98961854 2.7161942
-3.8167303 -0.98991555 2.7207313
-3.9435625 -0.99153465 2.7287102
-4.1401606 -1.1287038 2.7438819
-4.1599813 -1.1512778 2.7455935
-4.3937769 -1.0970919 2.7591109
-4.4321737 -1.0863004 2.7612915
-4.5949154 -1.0815637 2.7713876
-4.6331887 -1.0882628 2.7739246
-4.7790318 -1.063853 2.7825525
-4.8711071 -1.068449 2.7884161
-5.0359755 -1.0941908 2.7992799
-5.1573153 -1.0860012 2.8067105
-5.2386999 -1.0850438 2.8117888
-5.2801962 -1.0838242 2.8143628
-5.3168697 -1.0870574 2.8167276
-5.3200617 -1.0865853 2.8169177
-5.4014459 -1.0856283 2.821996
-5.474751 -1.0970936 2.8268268
-5.5194392 -1.0954018 2.8295908
-5.634284 -1.1006473 2.8368943
-5.7172308 -1.1032023 2.8421435
-5.7635469 -1.097527 2.8449268
-5.8416948 -1.1020375 2.8499162
-5.8831687 -1.1033157 2.852541
-5.9214516 -1.1050639 2.8549755
-5.9629245 -1.1063421 2.8576
-6.0028133 -1.1066067 2.8601043
-6.0347328 -1.1067989 2.8621078
-6.0825458 -1.1121309 2.8652141
-6.1224346 -1.1123953 2.8677182
-6.1623011 -1.1151575 2.8702731
-6.2021894 -1.115422 2.8727775
-6.2819662 -1.1159494 2.8777859
-6.3218117 -1.1212093 2.8803916
-6.3616996 -1.1214747 2.8828957
-6.401588 -1.1217371 2.8853998
-6.4414992 -1.1195025 2.8878536
-6.4813657 -1.1222663 2.8904085
-6.5196695 -1.1215158 2.8927922
-6.5611649 -1.1202941 2.8953662
-6.5963001 -1.1175179 2.8975096
-6.637773 -1.1187948 2.9001341
-6.6808529 -1.1185876 2.9028285
-6.800519 -1.11938 2.9103413
-6.8404093 -1.1196437 2.9128456
-6.9201865 -1.1201717 2.9178541
-6.9600964 -1.1179364 2.9203076
-6.9999847 -1.1182008 2.9228117
-7.0798073 -1.1137307 2.9277191
-7.1196957 -1.1139939 2.9302232
-7.199451 -1.1170205 2.9352825
-7.2361698 -1.1152577 2.9375458
-7.2792292 -1.117548 2.9402909
-7.319139 -1.1153139 2.9427445
-7.3988943 -1.1183407 2.9478037
-7.4356136 -1.1165771 2.9500673
-7.4644194 -1.1164746 2.9518695
-7.4985828 -1.11566 2.9539926
-7.5186043 -1.1141355 2.9552152
-7.5569086 -1.1133847 2.9575992
-7.6134939 -1.1134732 2.9611456
-7.658205 -1.1092391 2.9638581
-7.6956115 -1.110677 2.9662313
-7.7379146 -1.1172719 2.9690187
-7.7778254 -1.1150432 2.9714725
-7.8145227 -1.1158142 2.9737873
-7.9374261 -1.11112 2.9813888
-7.9797525 -1.110111 2.9840193
-8.0124264 -1.1111635 2.9860878
-8.0571156 -1.1094283 2.9888513
-8.1321144 -1.1094714 2.9935503
-8.2167358 -1.1030084 2.9987168
-8.294838 -1.1125425 3.0038078
-8.4213495 -1.1670034 3.012867
-8.6138134 -1.1296849 3.0241463
-8.6595039 -1.1099824 3.0265985
-8.695467 -1.0987382 3.0286169
-8.8176985 -1.0846996 3.0359817
-8.8526802 -1.0749061 3.0379691
-9.0917015 -1.1137749 3.0537515
-9.1276264 -1.1320674 3.0563829
-9.1723213 -1.1259526 3.0590553
-9.2112837 -1.1244638 3.0614653
-9.2911177 -1.1174314 3.0663197
-9.3309841 -1.1201608 3.0688739
-9.4500465 -1.1168416 3.0762634
-9.4914989 -1.1206071 3.0789385
-9.5320911 -1.1172571 3.0814116
-9.5697365 -1.1151493 3.0837259
-9.6533422 -1.1238866 3.0891452
-9.734767 -1.1227878 3.094223
-9.7746944 -1.1180212 3.0966249
-10.129879 -1.1632349 3.1198163
-10.168207 -1.1474826 3.1218894
-10.175741 -1.1346501 3.1220939
-10.246756 -0.97797275 3.1232803
-10.252995 -0.9249481 3.1225669
-10.29377 -0.82027078 3.1229417
-10.303936 -0.78028274 3.1227458
-10.334642 -0.66043943 3.122174
-10.095325 -0.89760262 3.1121206
-9.7444868 -0.8171047 3.0884669
-9.5795822 -0.37505358 3.0689323
-9.9663486 -0.13692491 3.0882022
-10.379742 -0.41989192 3.1199906
-10.375835 -0.49954176 3.1214044
-10.373972 -0.52481014 3.1218138
-10.37219 -0.53883564 3.1219943
0.65138578 1.4315459 2.3904142
0.62855721 1.4347962 2.3917768
0.49316168 1.4677391 2.3995724
0.46952295 1.4666253 2.4010763
0.42922068 1.4659746 2.4036145
0.23657131 1.4695836 2.4156077
0.10968065 1.4403299 2.4241657
0.042824268 1.4263121 2.4286456
-0.0094561577 1.4221153 2.432008
-0.031241894 1.4224337 2.4333661
-0.048304081 1.4225917 2.4344316
-0.089532852 1.421224 2.4370427
-0.0096716881 1.4043157 2.4323921
0.030207634 1.4071579 2.4298348
0.070140362 1.405003 2.4273782
0.15211964 1.4023304 2.4222984
0.19416714 1.4018118 2.4196751
0.23513126 1.402974 2.4170847
0.27183676 1.4033598 2.4147775
0.31277323 1.4070209 2.4121368
0.35585499 1.4098217 2.4093797
0.47431755 1.4287727 2.4015641
0.55207729 1.4215744 2.396843
0.6361475 1.4230378 2.391546
0.67391157 1.4242419 2.3891554
0.68849468 1.4278151 2.3881674
-4.2731276 1.4766859 2.697962
-4.4124336 1.4340658 2.707576
-4.5836186 1.0346245 2.7266166
-4.5910568 1.0271003 2.7272394
-4.1217947 0.91841245 2.7001064
-4.0933256 0.71322083 2.7025955
-4.0955372 0.67323136 2.7035666
-4.0977507 0.63324171 2.7045379
-4.0849695 0.58832479 2.7046726
-4.0844817 0.39286488 2.7087119
-4.0832491 0.27318251 2.7111266
-4.0971394 0.12624404 2.7150564
-4.0982661 0.086836785 2.7159474
-4.1028643 -0.065205514 2.7194014
-4.0864301 -0.23301566 2.7218659
-4.5464792 -0.46733713 2.755564
-4.587709 -0.43560115 2.7574859
-4.8448658 -0.15733056 2.7678008
-4.8699079 -0.13993973 2.7690074
-4.9522052 -0.10396048 2.7734137
-5.0308657 -0.10619724 2.7783878
-5.1107917 -0.086532086 2.7829852
-5.1801291 -0.10398757 2.7876923
-5.2615099 -0.10742885 2.7928619
-5.2846909 -0.1245435 2.7946703
-5.2856445 -0.26877621 2.7977333
-5.2852883 -0.30875352 2.7985435
-5.2792358 -0.42865348 2.8006608
-5.2781782 -0.56489271 2.8034313
-5.2596526 -0.66840255 2.804426
-5.2742543 -0.7648164 2.8073483
-5.5738454 -1.0538448 2.8321338
-5.6502671 -1.0682399 2.8372209
-5.6901183 -1.0734522 2.8398259
-5.7299876 -1.0761654 2.8423798
-5.8097644 -1.0765936 2.8473861
-5.8496695 -1.0743091 2.8498385
-5.8911977 -1.0725374 2.8524029
-5.9693141 -1.07745 2.8573987
-6.0091844 -1.0801635 2.8599529
-6.0490532 -1.0828761 2.8625069
-6.0889239 -1.0855906 2.865061
-6.1320581 -1.0868325 2.8677888
-6.1686983 -1.0860181 2.8700671
-6.2085862 -1.0862312 2.8725703
-6.289968 -1.0896726 2.8777401
-6.3298368 -1.0923867 2.8802941
-6.4495177 -1.0905292 2.8877525
-6.5724282 -1.0921984 2.8954868
-6.6123347 -1.0899144 2.8979392
-6.6888795 -1.0868151 2.9026697
-6.7271423 -1.0865147 2.9050603
-6.8085241 -1.0899568 2.9102299
-6.846806 -1.0871568 2.9125698
-6.8866949 -1.0873706 2.9150729
-6.9330759 -1.0896409 2.9180257
-6.9664698 -1.0877992 2.9200792
-7.0079808 -1.0885282 2.9226949
-7.0462632 -1.0857279 2.9250348
-7.0861683 -1.0834439 2.9274869
-7.1260381 -1.0861559 2.9300408
-7.1659441 -1.0838704 2.9324932
-7.4676294 -0.71667749 2.9437461
-7.3367805 -0.47823125 2.9305844
-7.3396292 -0.43826982 2.9299307
-7.3572145 -0.42339426 2.9307225
-7.3970571 -0.42865512 2.9333279
-7.4772425 -0.43949395 2.9385767
-7.6274991 -0.6776225 2.9529476
-7.9366055 -0.67086768 2.9721704
-8.0878868 -0.68343592 2.9819088
-8.104372 -0.68440104 2.9829617
-8.413682 -1.1023474 3.0110402
-8.7165794 -0.9297533 3.0264211
-8.8237991 -0.60907364 3.0264604
-8.8264809 -0.38971329 3.0220609
-8.7570333 -0.24751844 3.0147498
-8.7836876 -0.12674291 3.0139046
-8.7857609 -0.085260659 3.0131707
-8.8672047 -0.081663013 3.0181978
-8.9054813 -0.078457534 3.0205288
-8.9453487 -0.081188679 3.023083
-9.0251446 -0.079152286 3.0280395
-9.1032286 -0.086172879 3.033077
-9.1830025 -0.08663547 3.0380838
-9.2245388 -0.085305542 3.0406582
-9.3059425 -0.086705476 3.0457869
-9.3451786 -0.091583699 3.048346
-9.423975 -0.086463064 3.0531754
-9.4671812 -0.081072778 3.0557699
-9.5886345 -0.062714249 3.0629959
-9.6666584 -0.077231735 3.0681858
-9.704895 -0.079024076 3.0706184
-9.8586473 -0.04012394 3.0794401
-9.9365845 -0.11677979 3.0859184
0.077869892 -0.70181251 2.470762
-0.16628647 -1.0313628 2.4929187
-0.28247786 -1.0637293 2.5008712
-0.44864655 -1.0903962 2.5118358
-0.48744249 -1.0895257 2.5142479
-0.52623796 -1.0886546 2.5166602
-0.53732586 -1.0897065 2.5173767
-0.60158157 -1.0898776 2.5214052
-0.64147377 -1.09252 2.5239594
-0.68248987 -1.0936823 2.5265529
-0.74876308 -1.0854148 2.5305324
-0.80363345 -1.0856152 2.5339737
-0.96178794 -1.1021942 2.5442262
-1.0449142 -1.1080304 2.5495551
-1.3966491 -0.85295677 2.5662777
-1.4270768 -0.81106389 2.5673115
-1.347522 -0.36898082 2.553123
-1.2910993 -0.29381582 2.5480235
-1.3650653 -0.35405263 2.5539112
-1.8809869 -0.37294593 2.5866234
-1.8847926 -0.050406426 2.5801461
-1.8450181 0.035009772 2.5758758
-1.7955122 0.091562569 2.5715971
-1.7896857 0.15116251 2.5699911
-1.7463551 0.41257817 2.5618336
-1.7150788 0.6125927 2.5557096
-1.673595 0.7726661 2.549778
-1.6316555 0.85278273 2.5454824
-1.5701628 1.0029364 2.5385039
-1.5299883 1.0535604 2.5349331
-1.5750895 1.0838912 2.5371268
-1.6560252 1.0850899 2.542172
-1.9376853 1.099532 2.5595152
-1.9525635 1.0844837 2.5607607
-1.9748964 1.0063701 2.5637863
-2.011868 0.89584267 2.5684037
-2.0118246 0.88834786 2.568557
-2.0147645 0.80532706 2.5704699
-2.0572889 0.64431643 2.5764861
-2.0535784 0.44449532 2.5804145
-2.0534735 0.40189314 2.581295
-2.0251918 0.18724865 2.5839925
-2.0047395 0.09102577 2.5847149
-1.9993997 -0.010527849 2.5864949
-1.9723494 -0.093424886 2.5865266
-1.8861141 -0.37309152 2.5869477
-2.082495 -0.70998919 2.6062646
-2.3076735 -0.73633307 2.620919
-2.340097 -0.73645115 2.6229525
-2.6488211 -0.34480366 2.6341372
-2.7505069 -0.30691138 2.6397181
-2.7904415 -0.30207613 2.6421189
-2.8303614 -0.29974103 2.6445711
-2.9124255 -0.30374891 2.6497953
-3.2379432 0.083157837 2.6621306
-3.2259107 0.12299573 2.6605473
-3.1441717 0.2857728 2.6520376
-2.8333921 0.52296644 2.6276305
-2.8714008 0.77568281 2.6247494
-2.8584373 0.88417208 2.6216784
-2.7536314 1.1614345 2.60934
-3.0275891 0.96654701 2.6305594
-3.1892934 0.96407139 2.6407406
-3.348618 0.92355633 2.6515648
-3.4511538 0.92292249 2.6580012
-3.4686275 0.92535639 2.6590452
-3.5877059 0.92296994 2.6665545
-3.6277504 0.92269552 2.6690686
-3.7077699 0.92220783 2.6740913
-3.9489315 1.0403066 2.6867394
-4.1924081 1.4765481 2.6929083
-4.2334318 1.4766479 2.6954761
0.079042435 -0.69805694 2.4706104
-0.079731464 -0.26621887 2.4715648
-0.048427582 -0.27713975 2.4698312
0.36188936 0.14492625 2.4353395
0.36009073 0.30474967 2.4321241
0.40019417 0.30524677 2.4296017
0.44016743 0.3056407 2.4270892
-10.405926 -0.46520931 3.1225743
-10.431228 -0.41536528 3.1231215
-10.450603 -0.27245328 3.1213596
-10.379379 -0.24939093 3.1164176
-10.373457 -0.57972103 3.1229248
0 0 0 1 0 0 0 1 0 0 0 1 0 0 0 0 0 384 1 0 0
