ply
format ascii 1.0
comment PCL generated
element vertex 437
property float x
property float y
property float z
element camera 1
property float view_px
property float view_py
property float view_pz
property float x_axisx
property float x_axisy
property float x_axisz
property float y_axisx
property float y_axisy
property float y_axisz
property float z_axisx
property float z_axisy
property float z_axisz
property float focal
property float scalex
property float scaley
property float centerx
property float centery
property int viewportx
property int viewporty
property float k1
property float k2
end_header
-11.162344 1.040621 0.19618046
-11.191672 0.92135292 0.19216202
-11.181174 0.88054258 0.19142519
-11.173258 0.80152696 0.18961288
-11.172941 0.76155096 0.18858133
-11.152012 0.68087572 0.18713023
-11.139557 0.64181536 0.18649982
-11.111773 0.64113802 0.18734567
-11.061132 0.64075571 0.18890961
-11.049061 0.64067 0.18928257
-10.60203 0.40093988 0.19693114
-10.598904 0.32100075 0.1949459
-10.59609 0.28104025 0.19399233
-10.595773 0.24106264 0.1929608
-10.592962 0.20110065 0.19200714
-10.5875 0.14115918 0.19061542
-10.58968 0.10116732 0.18950589
-10.589361 0.061191142 0.18847439
-10.58655 0.021229088 0.18752076
-10.588076 -0.059578955 0.18536827
-10.457602 -0.27615461 0.18378159
-10.455381 -0.28279385 0.18367761
-10.398907 -0.29242232 0.18518201
-10.004554 -0.37185407 0.19536917
-9.9708281 -0.41696668 0.19524217
-9.8972607 -0.43678325 0.19701241
-9.6829739 -0.68874764 0.19710869
-9.6755018 -0.69522148 0.19717225
-9.1607304 -0.57015365 0.2164292
-9.3738441 -0.13060138 0.22125605
-9.5340242 -0.13685051 0.21611491
-9.6267576 -0.17055652 0.21235473
-10.549927 -1.1379268 0.15846297
-10.684164 -1.0945373 0.15542123
-10.686361 -1.0903953 0.15546083
-10.602617 -1.0357394 0.15948737
-10.535727 -1.0403953 0.16144499
-10.533548 -1.0420375 0.16146989
-10.364715 -1.1026251 0.1651389
-10.282696 -1.1037924 0.1676576
-10.163031 -1.0905852 0.17172079
-10.121628 -1.0897577 0.17302915
-10.03859 -1.0867097 0.17568932
-10.001036 -1.0925158 0.17670526
-3.508759 -1.0859554 0.37865376
-3.7873743 -1.0864751 0.36998096
-3.9889059 -1.0705494 0.36413229
-4.0197482 -1.0562017 0.36354747
-4.2180176 -0.76311123 0.36502036
-4.0200214 -0.34488863 0.38206869
-3.9854798 -0.32234937 0.3837294
-3.7412481 -0.038671792 0.39870983
-3.6215763 -0.035814226 0.40250364
-3.5791595 -0.040682018 0.40369514
-3.3014076 0.015741944 0.41379741
-3.2601967 0.01400429 0.41503295
-3.1054227 -0.00040334463 0.41946796
-2.8736048 -0.32404774 0.41824183
-2.6321385 -0.80324304 0.41326347
-3.1133342 -0.84600151 0.39719421
-3.4249611 -1.1012821 0.3808589
-11.088779 1.1618373 0.20162451
-11.073471 1.1610868 0.20208074
-11.065372 1.1253107 0.20140046
-11.065734 0.99985045 0.19812101
-11.06483 0.92000359 0.19606909
-10.62387 0.67981607 0.20351708
-10.410378 0.92517322 0.21654387
-10.383072 0.94282681 0.21785243
-10.38019 0.88632244 0.21647006
-10.371391 0.68637758 0.21153493
-10.378244 0.6063804 0.20923805
-10.373197 0.3276667 0.20213442
-10.373039 0.2224614 0.1993987
-10.37211 0.20779091 0.19904539
-10.372683 0.17748737 0.19823822
-10.410496 0.047752976 0.19368342
-10.409889 -0.012165427 0.19214138
-10.047153 -0.29304469 0.19609815
-10.011895 -0.28346044 0.19744366
-10.005444 -0.28197017 0.19768298
-9.93643 -0.27719799 0.19995224
-9.621069 -0.047753751 0.21573056
-9.5411625 -0.054740846 0.218032
-9.2967377 -0.12378067 0.22383016
-9.2863407 -0.13214052 0.2239355
-9.1639271 -0.2050271 0.22584139
-9.045229 -0.2849814 0.22744769
-9.0426579 -0.31895593 0.22664255
-9.0890255 -0.367194 0.22394486
-11.143016 1.1206934 0.19886708
-3.9329293 -0.010041356 0.39349827
-3.9180574 0.004991889 0.39435211
-3.7400057 -0.028039694 0.39902541
-3.581588 0.030980706 0.40548646
-3.519311 0.041160166 0.40768719
-3.3575251 0.11036223 0.41451815
-3.3177021 0.12297022 0.41608429
-3.2301037 0.12704688 0.41891301
-3.1900313 0.097193837 0.41938075
-3.1057916 0.0069286823 0.41964749
-3.1033072 0.00063532591 0.41956076
-2.7768955 -0.31549418 0.42147034
-2.7396028 -0.31665421 0.42259917
-2.7010086 -0.31717283 0.42378515
-2.6572232 -0.31263748 0.42526412
-2.5971556 -0.32192487 0.42688906
-2.5638158 -0.3238028 0.42787632
-2.5173678 -0.32171708 0.42937425
-2.437604 -0.31651264 0.43198887
-2.3913581 -0.32333118 0.43324855
-2.3590796 -0.32409585 0.43423182
-2.3565853 -0.32409048 0.43430948
-2.3575473 -0.37127304 0.43305048
-2.409373 -0.62324315 0.42487592
-2.4090302 -0.69320226 0.42306414
-2.2054453 -0.99659789 0.42148805
-2.0803025 -1.0369565 0.42432609
-2.0286601 -1.0403302 0.42584324
-1.9940217 -1.041936 0.42687795
-1.9579678 -1.0407395 0.42802966
-1.9154348 -1.0422304 0.42931271
-1.8755403 -1.0421275 0.43055531
-1.8435419 -1.0422337 0.43154705
-1.7984059 -1.0378251 0.4330647
-1.7558835 -1.0368201 0.43441245
-1.7121367 -1.0403849 0.43567923
-1.6760843 -1.0391099 0.43683293
-1.6361895 -1.039006 0.43807557
-1.5972812 -1.0392419 0.43927866
-1.5590065 -1.0447 0.44032606
-1.4779942 -1.0489864 0.44273221
-1.3967657 -1.0508778 0.44520751
-1.3568602 -1.0532722 0.44638538
-1.2770367 -1.0605599 0.44867641
-1.1881204 -1.0673635 0.45126268
-1.1599462 -1.0686474 0.45210487
-1.1162176 -1.069723 0.45343593
-1.0775065 -1.0725347 0.45456579
-1.0375996 -1.0749283 0.45574373
-0.99770641 -1.0748248 0.45698631
-0.91791868 -1.0746171 0.45947149
-0.83811927 -1.0769083 0.46189195
-0.826401 -1.0756066 0.46229005
-0.79176331 -1.0772123 0.46332473
-0.7184124 -1.0815942 0.46549031
-0.66681337 -1.0777059 0.46719527
-0.61385012 -1.0772213 0.46885398
-0.58966541 -1.0758613 0.46964106
-0.55887413 -1.073684 0.47065479
-0.51900482 -1.068584 0.47202677
-0.4275918 -1.0471244 0.47542685
-0.38775682 -1.0345316 0.47699296
-0.31979132 -1.0155973 0.47959852
-0.01164484 -0.83907807 0.49377394
-0.15120983 -0.4078967 0.50066859
-0.153759 -0.40292209 0.50071895
-0.31076908 -0.19443706 0.50127017
-0.36020041 -0.090029627 0.50245368
-0.44270182 0.044729531 0.50340009
-0.44863558 0.22544748 0.50792336
-0.45439768 0.38534224 0.51190954
-0.45018673 0.54526323 0.51620638
-0.43824244 0.62438649 0.51863873
-0.43863058 0.70434123 0.52070951
-0.43882322 0.74431795 0.52174491
-0.45173788 0.86507767 0.52448928
-0.43700743 0.91259032 0.5261848
-0.31055355 0.98184913 0.53191918
-0.21221399 1.0231314 0.53605092
-0.091061115 1.1449814 0.54299051
0.41795492 0.91103011 0.55271614
0.45392847 0.94991785 0.55484718
0.45730209 0.90919608 0.55389124
0.45023394 0.8481515 0.55208135
0.45524645 0.74979776 0.54967499
0.45723438 0.54994053 0.54453051
0.45919466 0.48801011 0.54297817
0.42425203 0.3115868 0.5372963
0.42397356 0.2889055 0.53669679
0.41876316 0.31135291 0.53711963
0.37211227 0.46987563 0.53979927
0.33241796 0.62729126 0.54266626
-0.23127365 0.64367121 0.52557361
-0.22347927 0.40094453 0.51949286
-0.22146225 0.38417947 0.51911879
-0.22275829 0.32849598 0.51762795
-0.22161007 0.26373875 0.51597673
-0.18103218 0.14392358 0.51411664
-0.18352795 0.037795544 0.51127446
-0.10722494 -0.15069017 0.5087359
0.13597012 -0.39780039 0.50985706
0.25581455 -0.43121654 0.51271129
0.40552664 -0.46324992 0.5165298
0.34645128 -0.75868702 0.50699764
0.31496477 -0.83777809 0.5039587
0.33483458 -1.058091 0.49883711
0.33439922 -1.1183274 0.49725443
0.29450035 -1.118701 0.49600464
0.25695992 -1.1185032 0.49484307
0.17562771 -1.0945675 0.49293882
-0.14348173 -1.1050496 0.48274794
-0.18192911 -1.1226103 0.48109555
-0.20315933 -1.1236864 0.48040769
-0.22685909 -1.1242008 0.47965771
-0.24557352 -1.1246686 0.47906387
-0.26927376 -1.1251835 0.47831389
-0.28796577 -1.1250646 0.47773603
-0.30198479 -1.1163882 0.47752637
-0.48317099 -1.0698315 0.47310796
-0.5216217 -1.071985 0.47185683
-0.55239964 -1.0766146 0.47077966
-0.60280514 -1.0801257 0.46912161
-0.63272572 -1.0802 0.46818975
-0.67467451 -1.0852622 0.46675414
-0.68519688 -1.0861753 0.46640331
-0.76499605 -1.0838764 0.46398306
-0.79962254 -1.0847688 0.46288365
-0.84478354 -1.0840762 0.46149808
-0.91404867 -1.0833626 0.45936394
-0.96567082 -1.0824265 0.45778394
-1.0043719 -1.0819774 0.45659283
-1.0442646 -1.0820765 0.4553504
-1.2675917 -1.1350241 0.44703019
-1.3484232 -1.1580849 0.44391721
-1.3881524 -1.1581318 0.44268125
-1.4280457 -1.158231 0.44143879
-1.5085144 -1.118614 0.43996987
-1.7226479 -1.0437953 0.43526369
-1.7625425 -1.0438954 0.43402117
-1.7945414 -1.0439353 0.43302563
-1.8024368 -1.0439948 0.43277872
-1.8370628 -1.0448887 0.43167925
-2.0203142 -1.1235434 0.42393491
-2.0436068 -1.1230428 0.42322403
-2.0676892 -1.1236658 0.4224593
-2.1632879 -1.1233549 0.41949624
-2.1873696 -1.1239769 0.41873157
-2.2246356 -1.1231773 0.41759419
-2.2558529 -1.1250849 0.4165743
-2.279144 -1.124614 0.41586268
-2.3007326 -1.1251976 0.41517651
-2.5551162 -1.0541804 0.40912038
-2.6002893 -1.0509886 0.40779954
-2.640183 -1.0510882 0.40655708
-2.8733373 -1.1170216 0.39759314
-2.8759403 -1.1183012 0.39747891
-2.8772416 -1.1189402 0.39742184
-2.8785443 -1.1195794 0.39736468
-2.9009843 -1.1196465 0.39666551
-2.9368124 -1.1177689 0.39560091
-3.0565419 -1.1381907 0.39134777
-3.1016436 -1.1408696 0.38987625
-3.1376348 -1.1390703 0.3888045
-3.2200289 -1.1405885 0.38620418
-3.2612257 -1.1413479 0.38490403
-3.3076286 -1.1446656 0.38337541
-3.3623824 -1.1223054 0.38225615
-3.4700465 -1.1064585 0.37932283
-3.5125456 -1.1078578 0.37796551
-3.5524559 -1.1054785 0.3767871
-3.7759588 -1.1409886 0.36891568
-3.7772601 -1.1416276 0.36885858
-3.9914935 -1.0743265 0.36395347
-4.0712986 -1.0720673 0.361532
-4.1111784 -1.0746861 0.36022434
-4.1909399 -1.0799205 0.35760903
-4.27073 -1.0801604 0.35512292
-4.3930192 -1.0817997 0.35127953
-4.4329438 -1.0769234 0.35016569
-4.4650149 -1.0757049 0.3492007
-4.5101457 -1.073387 0.34785843
-4.5899358 -1.0736262 0.34537235
-4.6645207 -1.0713086 0.34311464
-4.6978936 -1.0707282 0.34209254
-4.7364726 -1.0727067 0.34084198
-4.8175941 -1.0685909 0.33842796
-5.0585876 -0.65161657 0.34180018
-5.0615358 -0.6142022 0.3426832
-4.5523849 -0.37072676 0.36484995
-5.0266962 -0.099438429 0.35717562
-5.0301714 -0.0911268 0.35728413
-5.0667224 -0.077077597 0.3565141
-5.0693417 -0.07585904 0.35646445
-5.1426096 -0.075399846 0.35419926
-5.182519 -0.073022336 0.35302082
-5.4969411 -0.15605578 0.34108567
-5.8340292 -0.34069848 0.32579914
-5.9539361 -0.32656369 0.32244071
-6.1877956 0.019201338 0.32417962
-6.2595601 0.10091227 0.32407779
-6.2689147 0.11694252 0.32420462
-6.4691148 -0.05277282 0.31356141
-6.5875063 -0.10320914 0.30856797
-6.5890894 -0.10387671 0.30850139
-6.8679295 -0.33384752 0.29384437
-6.9583473 -0.33637208 0.29096848
-7.0781393 -0.33473027 0.28728816
-7.0929718 -0.39142999 0.28535011
-7.0732155 -0.4104023 0.28546992
-7.0354013 -0.41100636 0.28662944
-6.9933681 -0.40983063 0.28796643
-6.9576631 -0.41132557 0.2890372
-6.9114122 -0.40836906 0.29055166
-6.8068171 -0.426736 0.29332399
-6.6696482 -0.41825941 0.29780796
-6.5962663 -0.40536836 0.30042446
-6.5121775 -0.40551472 0.3030341
-6.4260025 -0.40227318 0.3057968
-6.3503761 -0.40348268 0.30811575
-6.3168044 -0.40336847 0.30916214
-6.2663107 -0.40113151 0.31078973
-6.1167998 -0.44441512 0.31430894
-5.996911 -0.5808562 0.31448075
-6.0971808 -0.9703576 0.30121785
-5.5903859 -0.6582877 0.32509831
-5.5495243 -0.97864121 0.31802303
-8.9201183 -1.3651838 0.20319673
-8.6809893 -1.3638382 0.21066387
-8.4049501 -1.3234444 0.22029531
-8.2671366 -1.3212287 0.22463623
-8.2433891 -1.3216007 0.2253646
-8.1201096 -1.3393493 0.22873372
-8.0780478 -1.3381503 0.23007223
-7.9971676 -1.3171234 0.23313372
-7.7992258 -1.261421 0.24073672
-7.6767273 -1.2343754 0.24524847
-7.655427 -1.2336566 0.24592918
-7.6162992 -1.2228398 0.24742705
-7.3108001 -1.0909815 0.26035675
-7.2666349 -1.0914133 0.26171815
-7.1847239 -1.084955 0.26443216
-7.2981663 -1.0831403 0.26095369
-7.514761 -1.0894144 0.25405857
-7.5775833 -1.0901358 0.25208727
-7.5967445 -1.0908673 0.25147271
-7.6196165 -1.0913122 0.25075024
-7.7207708 -1.0960186 0.24748382
-7.7963123 -1.0971334 0.24510697
-7.8383102 -1.105828 0.24357519
-7.882494 -1.1104708 0.24208103
-7.9661536 -1.1201869 0.2392278
-8.001133 -1.1215162 0.23810604
-8.2350521 -1.1473974 0.2301617
-8.3146858 -1.1728885 0.22702269
-8.4869242 -1.2145543 0.22058418
-8.5561266 -1.2028401 0.21873854
-8.720664 -1.138291 0.2153063
-8.7627468 -1.1369911 0.21403222
-8.8405762 -1.1215633 0.2120152
-8.8805828 -1.111824 0.21102555
-8.9184275 -1.1036379 0.21006259
-9.170126 -0.84539068 0.20896722
-9.1686401 -0.72545099 0.21213783
-9.1718092 -0.64551812 0.21412161
-5.2213783 -1.153242 0.32367334
-5.1856742 -1.1547377 0.32474405
-5.143641 -1.1535614 0.32608107
-5.1016088 -1.1523869 0.32741803
-5.0919275 -1.1514177 0.32774416
-5.0604143 -1.1486614 0.32879537
-4.8743939 -1.0795213 0.33637792
-4.7893972 -1.0767241 0.33909246
-4.7377734 -1.0733469 0.34078488
-4.707005 -1.0752047 0.34169275
-5.5386562 -1.1546359 0.31377614
-5.5806885 -1.1558123 0.31243917
-5.700458 -1.1566688 0.30869445
-5.73067 -1.1552711 0.30779189
-5.7781954 -1.1563501 0.30628669
-5.8105121 -1.1557534 0.30529785
-5.902185 -1.1589862 0.3023645
-5.9399977 -1.1583819 0.30120501
-6.0198674 -1.1564541 0.29877293
-6.11024 -1.1639746 0.29576826
-6.2496481 -1.1584027 0.29158065
-6.2572746 -1.1597753 0.29130787
-6.2657366 -1.1608386 0.29101717
-6.3098564 -1.1654031 0.28952703
-6.345561 -1.163908 0.28845632
-6.4296255 -1.1662586 0.2857824
-6.4695501 -1.166544 0.2845341
-6.6678314 -1.0821333 0.28057051
-6.6720729 -1.0814152 0.28045738
-6.7434807 -1.0784258 0.2783159
-6.7792077 -1.0744317 0.2773096
-6.9115677 -1.0881255 0.27283919
-6.949358 -1.0900187 0.27161533
-6.9893045 -1.0878071 0.27043143
-7.0607357 -1.0823172 0.26835436
-6.982976 -1.0851364 0.27069768
-6.901042 -1.0811765 0.27334732
-6.8255281 -1.0698924 0.27598819
-6.7856059 -1.0696082 0.2772364
-6.7478142 -1.0677141 0.27846029
-6.6584749 -1.0631368 0.28135616
-6.6181564 -1.0626836 0.28262103
-6.577527 -1.0671179 0.28376827
-6.504056 -1.06422 0.28612721
-6.3819118 -1.0623624 0.2899718
-5.4966221 -1.1534604 0.31511319
-5.463027 -1.1558461 0.31609514
-5.4273462 -1.1548419 0.31723025
-5.3831811 -1.1552744 0.31859162
-5.3054452 -1.1555939 0.32099932
-5.2516131 -1.1523812 0.32275608
-4.2301302 -0.31313589 0.37636575
-4.3923144 -0.31489509 0.3712793
-4.4347978 -0.31879222 0.36985743
-4.5440903 -0.37030527 0.36511874
-4.3918724 -0.38983029 0.36934099
-4.6181026 -1.070489 0.34457865
-4.5847454 -1.0685701 0.34566537
-4.5782232 -1.0678707 0.34588629
-4.5553055 -1.0660731 0.34664539
-8.9207878 -1.3654804 0.20316823
-9.2799501 -1.0968754 0.19900276
-9.3597918 -1.0973823 0.19650811
-9.3975735 -1.0966907 0.19535188
-9.4482403 -1.0966744 0.19377761
-9.652153 -1.0973372 0.18742283
-9.6920738 -1.09759 0.18617547
-9.7319965 -1.0978448 0.18492806
-9.7568703 -1.098977 0.18412548
-9.8032589 -1.0970702 0.18273346
-9.8915796 -1.1113527 0.17961641
-9.9762592 -1.1095178 0.17703241
-10.009224 -1.1086712 0.17602989
-10.051288 -1.1098707 0.17469133
-10.129448 -1.1104023 0.17224832
-10.173706 -1.109853 0.1708871
-10.204972 -1.1091673 0.16993321
-10.255707 -1.1111856 0.1683038
-10.416874 -1.1329212 0.16272856
-10.470083 -1.1374507 0.16095686
-10.496113 -1.1380277 0.16013284
-10.517488 -1.1377341 0.15947613
0 0 0 1 0 0 0 1 0 0 0 1 0 0 0 0 0 437 1 0 0
