ply
format ascii 1.0
comment PCL generated
element vertex 1093
property float x
property float y
property float z
element camera 1
property float view_px
property float view_py
property float view_pz
property float x_axisx
property float x_axisy
property float x_axisz
property float y_axisx
property float y_axisy
property float y_axisz
property float z_axisx
property float z_axisy
property float z_axisz
property float focal
property float scalex
property float scaley
property float centerx
property float centery
property int viewportx
property int viewporty
property float k1
property float k2
end_header
-10.854151 -1.0826194 -4.6303434
-10.795021 -1.0969653 -4.6718516
-10.805864 -0.96041596 -5.0711775
-10.851177 -0.92079097 -5.0699191
-10.913985 -0.88131076 -5.0682364
-10.833931 -1.1099521 -4.6309423
-10.872705 -1.0430686 -4.5572157
-10.873046 -1.0979398 -4.5899301
-10.248079 1.1381966 3.5544088
-10.44924 1.1946276 3.5189621
-10.198198 1.1559998 3.553396
-10.299037 1.1555409 3.5155671
-10.869982 -1.1159062 -4.4700384
-10.82902 -1.1157286 -4.4310231
-10.909988 -1.1137371 -4.4690566
-11.02715 -1.1001997 -4.3461142
-10.860258 1.2338494 -4.3159413
-10.900297 1.2410871 -4.3151269
-10.846605 0.95714909 -4.6675854
-10.766724 0.99757868 -4.6645188
-10.894625 0.47736269 -5.0970016
-10.797434 0.51789486 -5.1018658
-10.832422 0.51770401 -5.1010008
-10.889322 -0.84110445 -5.0686798
-10.909056 -1.1088928 -4.4290481
-10.748135 -1.1077217 -4.3929505
-10.332012 0.13736354 2.7621145
-10.450833 0.46418124 2.7523823
-10.445813 0.046338439 2.8304124
-10.331385 0.13724694 2.7896075
-10.980312 1.2455643 -4.313427
-10.887085 0.95695263 -4.6865916
-10.899416 1.2388725 -4.2751193
-10.93944 1.2436103 -4.2742863
-10.938624 1.2513938 -4.2343493
-10.866046 1.252704 -4.1158991
-10.815176 1.2508144 -4.0769758
-10.848549 1.2528172 -4.1162782
-10.825191 1.253249 -4.076777
-10.81942 1.2368958 -4.2768373
-10.740375 1.247134 -4.3186312
-10.400877 0.60435855 0.41204149
-10.415363 0.53425115 0.4120509
-10.416018 0.62424701 0.41248077
-10.386858 1.109753 0.59313554
-10.419455 0.8845486 0.3462373
-10.758568 -0.30963361 -4.5496397
-10.842697 -0.24348409 -4.3872857
-10.927998 -0.20419145 -4.3850546
-10.743143 -1.1234986 -4.1930723
-10.800949 -1.1277057 -4.1806149
-10.760069 -1.1275715 -4.1415153
-10.787148 -1.1082085 -4.3519902
-10.805017 -0.091508411 -1.0772835
-10.826694 -0.57060272 -1.3040509
-10.774488 -0.24908151 -1.5413356
-10.806805 0.076106846 -1.1014793
-10.819501 -1.0907483 -1.266598
-10.824116 -0.89116198 -1.1855522
-10.790804 -1.1178265 -0.78725094
-10.835577 -0.850483 -1.3451457
-10.851107 -1.0990748 -1.6660192
-10.867682 -1.1028947 -1.7784555
-10.896009 -1.1266942 -3.0582151
-10.89779 -1.1264642 -3.1381936
-10.780149 -1.1260914 -3.0207839
-10.856865 -1.1338286 -3.0991173
-10.776196 -1.1686114 -2.1807837
-10.872963 -1.112202 -2.0184262
-10.883635 -1.1133143 -2.4983113
-10.800968 -1.1156596 -2.3801289
-10.870321 -1.107548 -1.8984411
-10.715212 -1.1858511 -2.1421821
-10.927628 -1.1854839 -2.6975904
-10.886747 -1.1853492 -2.6584907
-10.81452 -1.2263069 -3.0203071
-10.934113 -1.2071245 -2.9950833
-10.932483 -1.1199083 -2.8973422
-10.956389 -1.2069526 -3.0971122
-11.003675 -1.1111113 -4.2960825
-10.621445 1.260435 -2.5208359
-10.61883 1.2587876 -2.4008512
-10.582319 1.2604126 -2.5616937
-10.516735 -1.1342398 -0.073426187
-10.548307 -1.1346639 -0.032692075
-10.492807 -1.1343615 -0.01145941
-10.46675 -1.1338714 -0.074572384
-10.494701 -1.1339823 -0.093936265
-10.681139 -0.77506471 -0.14801997
-10.561913 -1.1113513 -1.2726103
-10.676115 -1.1854846 -2.1830611
-10.653673 -1.2254206 -2.9838772
-10.748003 -0.61260021 -0.50333369
-10.629084 -1.1070164 -0.71089435
-10.67001 -1.104627 -0.74995482
-10.805541 -0.011523306 -1.0744034
-10.805659 0.028440349 -1.0667142
-10.755918 -0.035624109 -0.66304219
-10.619332 1.1221849 0.53947407
-10.425228 1.1465904 0.67423409
-10.506677 0.47461009 2.0347962
-10.513009 0.27437699 2.0728092
-10.507077 0.35711092 2.0330281
-10.546833 0.99432021 2.0368314
-10.505096 1.1056453 2.3564324
-10.509899 1.1539854 2.1692095
-10.328573 1.1153218 3.5260589
-10.969509 -0.20469932 -4.3440337
-11.003912 -1.0048418 -4.3863206
-10.897176 0.91691107 -4.6988859
-10.887032 0.88946593 -4.6991625
-10.97863 1.2536323 -4.2335
-10.977798 1.2589153 -4.1935453
-10.893475 1.258359 -3.9953151
-10.931766 1.2636648 -3.9145026
-10.972622 1.2631187 -3.9536247
-10.974371 1.2650506 -4.0336218
-10.692644 1.2574513 -3.9596448
-10.806705 0.82490075 -4.7012119
-10.765983 0.83758605 -4.6696968
-10.726673 0.99779302 -4.6630087
-10.84713 0.83719796 -4.7152066
-10.874409 1.2523708 -4.1557264
-10.73781 1.2529856 -4.1986966
-10.533628 1.1329451 -1.0628812
-10.497734 1.1699476 -0.90349263
-10.482191 1.1294886 -0.78400302
-10.566227 -0.2642518 -1.1885921
-10.647975 -0.28944945 -1.2718537
-10.570992 -0.20837924 -1.3782775
-10.633526 -0.28974831 -1.1871636
-10.65102 -0.2488991 -1.3916292
-10.743927 -0.20903504 -1.5043442
-10.846203 -0.88080001 -5.0573807
-10.724089 -0.47983712 -4.1404443
-10.876938 -0.76652551 -3.8978081
-10.842848 -0.52320951 -4.0954137
-10.759209 -1.1226875 -4.10151
-10.996631 -0.20456608 -4.4309006
-11.008755 -0.29113239 -4.2935972
-10.928713 -0.30063027 -4.2954087
-10.762802 -1.1172245 -4.2614541
-10.806311 -1.1149656 -2.6200681
-10.805626 -1.0973846 -1.4269905
-10.536322 -1.0741405 2.1740437
-10.565851 -1.139945 1.7343245
-10.538383 -0.86060435 1.934921
-10.46143 -1.1250293 1.9320567
-10.408609 -1.1345724 2.4909606
-10.327774 -1.126636 2.5291595
-10.337517 -1.1647919 2.0891042
-10.37134 -1.1362677 2.3700714
-10.380004 -1.0178614 2.9358974
-10.318817 -1.1058128 2.9291506
-10.245333 -0.83596778 3.3338161
-10.246132 -0.8583132 3.2887459
-10.401228 -0.86381024 2.9045377
-10.361599 -1.0981125 2.8101263
-10.389965 -1.103153 2.7707419
-10.321003 -1.1029143 2.834187
-10.738056 -1.125433 -3.1517515
-10.670115 -0.96894497 -1.8524866
-10.868572 -1.1027795 -1.8184464
-10.843639 -1.1226104 -4.2996793
-10.46833 -1.1340747 -0.034525573
-10.79288 -0.97055078 -1.2666562
-10.756701 -1.1684213 -2.2037232
-10.618027 -1.1142235 -0.23105067
-10.621737 -1.108488 -0.39098349
-10.540878 -1.1030819 -0.35280472
-10.618981 -1.1090401 -0.27101678
-10.620308 -0.010218166 -1.0661491
-10.629156 0.049914628 -1.10568
-10.634932 0.030056231 -1.1456487
-10.680792 1.2636547 -2.7196269
-10.62579 1.2615154 -2.7208016
-10.664047 1.2618216 -2.6399546
-10.761553 -0.39645618 -1.0246702
-10.789562 -0.45147258 -1.0642902
-10.801014 -0.4692468 -1.0240984
-10.783762 -0.49257356 -0.82454783
-10.744385 -1.1188189 -0.50824553
-10.506348 -1.1091844 -0.59369111
-10.510002 -1.110948 -0.75365937
-10.741666 -1.1143714 -0.38825497
-10.548189 -1.1066103 -0.67273962
-10.658141 -0.46546161 -0.027091384
-10.682077 -0.1752528 -0.1052283
-10.424046 -0.33583331 0.40824777
-10.460633 -0.25506341 -0.070670426
-10.611264 0.046539992 0.91378385
-10.601211 0.039115429 0.91351157
-10.652089 0.062735558 0.98237962
-10.594606 -0.45753241 1.1376798
-10.600863 0.038558811 1.033536
-10.650578 0.062458158 1.0486114
-10.758673 -0.035073243 -0.78300828
-10.757753 -0.035256661 -0.74301916
-10.713768 -0.33281845 -0.66537637
-10.693266 1.205456 -0.25866365
-10.712198 1.1646358 -0.11587775
-10.435407 1.1473551 -0.2648527
-10.517312 1.155387 1.856801
-10.591423 0.81416577 1.9970696
-10.553377 1.0345165 1.984652
-10.602973 1.2182636 1.6390512
-10.647863 0.96502417 -0.1007688
-10.412552 0.14676657 0.41020387
-10.409416 -0.096007138 0.46903235
-10.727123 -0.053676266 -0.50374222
-10.707574 0.24819668 -0.86290061
-10.730776 0.12783347 -0.8229115
-10.720963 0.15290536 -0.82302183
-10.721847 0.1480832 -0.86303324
-10.550888 -0.46481913 1.7368119
-10.595869 -0.40678638 1.5380275
-10.595385 -0.47178376 1.5377445
-10.535952 0.035132505 1.8722234
-10.506832 -0.10077743 2.0349116
-10.516317 -0.10094681 2.0576324
-10.300827 -0.35502326 2.2116933
-10.513584 0.017796412 1.7779939
-10.593443 0.070630357 1.6736884
-10.505927 0.2745136 2.0551372
-10.509754 1.1519912 2.5968208
-10.535839 1.1360477 2.7574143
-10.519403 1.1513581 2.717082
-10.513599 1.1132673 2.3166571
-10.968765 -0.29088181 -4.294488
-10.83086 1.2546034 -3.8766127
-10.850006 1.257257 -3.8362074
-10.989332 -0.40546125 -4.1992884
-10.750992 -0.40321785 -4.2701035
-10.788364 -0.36225206 -4.2987118
-10.987164 -1.0998688 -4.3470874
-10.95223 -1.126199 -3.3370318
-10.941328 -1.1287519 -3.2972708
-10.935108 -1.1270614 -3.0173345
-10.894223 0.51733708 -5.0719657
-10.934025 0.51711267 -5.0634789
-10.805879 0.85486114 -4.661191
-10.936094 1.2622447 -4.1144509
-10.776314 -1.2258261 -3.1011777
-10.734543 -1.2258066 -3.0220871
-10.715611 -1.1303988 -3.9424639
-10.982192 -1.1131455 -4.1471992
-10.809242 0.89203358 -1.8178651
-10.810905 1.2475362 -2.0365207
-10.822657 0.89212626 -1.857569
-10.769218 1.2533643 -1.9574447
-10.659303 1.1606634 -1.2999332
-10.726341 1.1690254 -1.0582893
-10.697937 1.1001875 -1.2593126
-10.695545 1.149633 -1.1391077
-10.5676 -0.20156954 -1.2282839
-10.640329 0.050595582 -1.2654631
-10.643745 0.050761938 -1.3053948
-10.644041 -0.31020755 -1.1069952
-10.564392 -0.26461905 -1.1086138
-10.562849 -1.1086671 -1.3125873
-10.56465 -1.1132989 -1.3925891
-10.754389 0.0065061823 -0.58286178
-10.751633 0.0059535801 -0.46289483
-10.689399 -0.28945571 -1.3334198
-10.64986 -0.2666049 -1.3467258
-10.764126 -0.4209035 -1.144757
-10.65173 -0.0091149956 -1.345498
-10.647455 0.09092474 -1.3451364
-10.647069 -0.088890232 -1.3859837
-10.75333 -0.3554092 -4.349885
-10.96229 -0.56399626 -4.0803676
-10.733482 1.2544056 -3.9987493
-10.887749 0.83950645 -4.7392073
-10.782156 -1.1239861 -4.152112
-10.756631 -0.088744469 -1.5835198
-10.763758 -0.048415113 -1.6631937
-10.822798 0.091791168 -1.7937281
-10.766209 0.071377233 -1.622575
-10.769918 0.11154224 -1.6623161
-10.653372 0.091072991 -1.3850102
-10.646164 0.13112584 -1.3849924
-10.847191 -1.1151012 -2.6591687
-10.634136 1.261282 -3.1057186
-10.64196 1.2611262 -3.1205516
-10.636075 1.2431089 -3.2005715
-10.786245 1.262409 -2.7973557
-10.687187 -1.1215986 -2.6627495
-10.768994 -1.1143683 -2.740927
-10.654293 -1.1254239 -2.9835744
-10.768105 -1.114484 -2.7009373
-10.638268 0.11060536 -1.2652348
-10.640282 0.17040758 -1.224903
-10.63448 0.15082391 -1.3051481
-10.79354 -1.1197751 -0.90722984
-10.795395 -1.1169074 -0.98719615
-10.79727 -1.1115386 -1.06715
-10.632723 -1.1112804 -0.87087446
-10.374077 -1.1357644 2.250104
-10.494323 -1.0991727 2.2530017
-10.298168 -1.1028085 2.8486705
-10.323231 -1.1249737 2.7291179
-10.364133 -1.1251093 2.6900396
-10.323158 0.27527976 3.5403135
-10.443483 0.23465337 3.515259
-10.438964 0.31468236 3.5154588
-10.245193 -0.33899456 3.4855521
-10.206669 0.14100219 3.5539153
-10.334589 -0.25885886 3.2976379
-10.245434 -0.09919855 3.5438917
-10.457605 -0.16082089 2.9404459
-10.413101 -0.49805564 2.9383669
-10.361979 0.035089143 3.5277555
-10.326597 0.020392679 3.5234797
-10.332003 0.14030719 3.5390065
-10.549025 -1.0817941 1.614152
-10.488531 -1.1426767 2.4927511
-10.484608 -0.74395853 2.7969141
-10.484097 -1.0036864 2.7332969
-10.485495 -0.69386625 2.7746382
-10.458673 -1.1280315 2.0520129
-10.341297 -1.1466213 1.929225
-10.406896 -1.1199086 2.5710053
-10.412508 -0.93813682 2.9593492
-10.367533 -1.0635061 2.8904281
-10.232602 -0.45881337 3.4548728
-10.286858 0.14055419 3.545573
-10.321989 0.035332322 3.5268915
-10.450178 0.4715451 2.7824092
-10.735147 -1.1283096 -3.0217924
-10.655165 -1.1683388 -2.0234385
-10.605179 -1.1680251 -2.0245504
-10.633226 -1.1681255 -2.0489326
-10.653864 0.1111334 -1.3999109
-10.770208 0.15154065 -1.6621246
-10.654134 0.19606851 -1.38451
-10.654533 0.25106561 -1.3842475
-10.651453 0.17108838 -1.3846867
-10.653831 0.28088182 -1.3441166
-10.679268 -0.81486076 -0.18825668
-10.869448 -1.1051641 -1.8584425
-10.670266 -1.1237954 -1.9029434
-10.694647 -1.1221595 -1.8297632
-10.630232 -1.1310453 -1.9038556
-10.848556 -1.1823679 -2.7393522
-10.71039 -1.2058975 -2.9425468
-10.770342 -1.1841353 -2.8211198
-10.891201 -1.184772 -2.8584394
-10.755644 -1.1685584 -2.1562343
-10.62451 -1.1054358 -0.51093709
-10.545452 -1.1046631 -0.55276078
-10.667292 -1.1001784 -0.62996352
-10.561599 -0.27017117 -0.98867124
-10.562572 -0.26248673 -1.0286251
-10.597456 -0.081576765 -0.7469154
-10.549397 -0.25160691 -0.66877902
-10.62399 -0.052535053 -0.5861277
-10.597219 -0.11407495 -0.74706936
-10.566637 -0.25230533 -0.54835337
-10.616236 -0.053048898 -0.46627635
-10.707718 0.8525185 -1.7653644
-10.761499 0.89181447 -1.6989315
-10.618027 0.98346537 -1.3016963
-10.61799 0.93103558 -1.3169425
-10.637864 0.090042129 -1.1453058
-10.632155 0.21027766 -1.1848948
-10.634735 0.12987559 -1.1051848
-10.627129 0.14935258 -0.98523599
-10.60145 0.16885774 -0.84069705
-10.629677 0.029522873 -1.0257397
-10.766538 1.2636509 -2.6377492
-10.741398 1.2571514 -2.5182166
-10.664143 -1.0284168 -0.46966237
-10.746258 -1.1134521 -0.58820021
-10.549109 -1.1064272 -0.7127285
-10.685766 -0.734716 -0.22774965
-10.605646 0.055463016 1.1537597
-10.824888 1.2629917 -2.6764925
-10.784034 1.2635367 -2.6373708
-10.84175 0.52872866 -1.830698
-10.843342 0.58833534 -1.8861001
-10.843876 0.66833061 -1.8866577
-10.530853 1.1298934 -0.94292641
-10.521517 1.1295815 -0.86312002
-10.786001 0.6881969 -0.97910786
-10.766629 0.88765144 -0.83359718
-10.777876 0.72806716 -0.93910015
-10.627506 0.69747955 -0.062455714
-10.631124 0.72514355 -0.10225713
-10.611177 0.60547906 -0.14327621
-10.453012 1.1277974 -0.38457114
-10.56141 0.92800885 -0.5955584
-10.561123 0.92795056 -0.58306175
-10.551788 0.92763847 -0.50325555
-10.731884 0.92478544 -0.17904586
-10.712362 0.98993009 -0.17919487
-10.637657 0.84471548 -0.021534085
-10.645121 0.80523294 -0.14157712
-10.65825 1.0423145 0.45247632
-10.682949 -0.055258039 -0.10465598
-10.683239 -0.015259057 -0.10446519
-10.683578 -0.095071092 -0.14483541
-10.685076 -0.014891081 -0.18444312
-10.420162 -0.055991594 0.44945723
-10.546467 0.55390644 2.1223722
-10.508377 0.55456924 2.0414476
-10.544048 0.11507279 1.8727744
-10.549115 0.23487262 1.908442
-10.550289 0.075327918 1.8077257
-10.55254 0.035810642 1.7000704
-10.50753 -0.060705248 2.0175905
-10.730886 1.2552569 -3.8787813
-10.683496 1.2547319 -3.9998336
-10.888632 -0.3153795 -4.2963438
-10.991631 -0.32520264 -4.2664409
-10.762232 -0.40221113 -4.2594004
-10.790066 -0.40369534 -4.2316422
-10.962839 -0.52895379 -4.0952578
-10.986128 -1.1075237 -4.3071294
-10.933344 -1.1247927 -2.9373469
-10.858644 -1.1335981 -3.1790962
-10.743101 -1.1372674 -3.381731
-10.782215 -1.1351345 -3.3408442
-10.816302 -1.2260756 -3.1002865
-10.947739 -0.44533294 -4.1479406
-10.736361 1.2582828 -3.4385715
-10.713867 1.2584296 -3.4390588
-10.631479 0.7708624 -1.3023648
-10.755291 0.85166734 -1.6592472
-10.832394 0.86850965 -1.8733239
-10.670731 1.2092458 -1.0193703
-10.729228 1.2536265 -1.9583106
-10.611841 1.2510595 -2.0808649
-10.571018 1.2566047 -2.0417776
-10.777941 1.2605249 -2.3574095
-10.617949 1.2565718 -2.3608432
-10.865726 1.2599458 -2.7155969
-10.827269 1.2622108 -2.7864635
-10.738276 1.2632788 -2.718379
-10.592464 0.60847843 -0.74385518
-10.598672 0.64862275 -0.78353846
-10.603827 0.54377413 -0.82391316
-10.60413 0.64867926 -0.80341935
-10.532058 1.1301341 -0.99541223
-10.625643 0.69033265 -1.1828365
-10.641232 0.61097944 -1.3428875
-10.627851 0.65031612 -1.1829703
-10.632511 0.73009175 -1.1424849
-10.652103 0.92706901 -1.0611076
-10.563817 -0.21730496 -1.0683982
-10.5647 -0.22212067 -1.1084124
-10.765239 -1.152087 -1.42817
-10.588467 -1.12714 -1.6721821
-10.645908 -0.24888504 -1.3867457
-10.51721 -1.0563405 0.36706316
-10.443323 -1.1234875 0.40506715
-10.523917 -1.0390806 0.40730697
-10.736101 -0.44216859 -4.2200875
-10.769789 -0.36321032 -4.3095021
-10.793524 -0.32325292 -4.3462796
-10.832535 -0.33123016 -4.3078494
-10.866091 -0.32273895 -4.2968659
-10.755852 -0.2851021 -4.4295745
-10.983206 -1.1079906 -4.1871667
-10.783131 -1.1238303 -4.1920996
-10.739491 1.244918 -4.2786236
-10.698635 1.245464 -4.2395024
-10.788848 -0.42636085 -4.1892476
-10.765186 -0.44497168 -4.1794381
-10.914179 -0.24674095 -4.3455458
-10.807674 -1.1822326 -2.7002521
-10.648607 -1.1811166 -2.7438021
-10.591148 -1.1281803 -1.9447284
-10.611412 -1.1672159 -2.3044791
-10.639187 0.11078873 -1.3052242
-10.553682 -1.1080077 -0.91268563
-10.671829 -1.1067584 -0.82994455
-10.456905 -1.1208667 2.1320233
-10.444412 0.43460095 3.528527
-10.404392 0.47479659 3.540314
-10.405003 0.5947755 3.5457761
-10.40519 0.63476455 3.5484297
-10.403704 0.31484801 3.5272
-10.363497 0.31505376 3.5363338
-10.445566 -0.23524074 3.5000637
-10.456247 -0.38831568 2.9396372
-10.430836 -0.45816362 2.93887
-10.413019 -0.78366971 2.8526282
-10.391815 -0.82368445 2.8919868
-10.442253 0.074610248 3.5271385
-10.32668 0.060365617 3.5311201
-10.505283 -0.66027433 1.9175012
-10.484749 -1.0385175 2.6931558
-10.411366 -1.1315705 2.3710051
-10.366907 -1.1196061 2.5700936
-10.41293 -0.94556093 2.9368277
-10.368357 -0.49902993 3.2875123
-10.359693 -1.0635113 2.9052534
-10.207555 1.0759126 3.5608022
-10.246716 0.95565373 3.5662024
-10.206487 0.91589814 3.5651829
-10.407187 0.99472696 3.5573175
-10.322447 1.0352428 3.5556343
-10.324333 0.43531209 3.5309327
-10.82852 -1.1125287 -1.819366
-10.813765 -1.1132281 -1.7869754
-10.775632 -1.1100649 -1.8678575
-10.774677 -1.1152486 -1.8278935
-10.852008 -1.1013906 -1.7060204
-10.747589 -1.1221436 -1.7811868
-10.63991 0.21079205 -1.3047469
-10.641781 0.25058848 -1.2645109
-10.871227 -1.1049334 -1.9384227
-10.695583 -1.1194754 -1.8697398
-10.750307 -1.1142973 -1.9011338
-10.618052 -1.1264044 -1.8715534
-10.81164 -1.1167728 -2.8600144
-10.889434 -1.1825025 -2.7784519
-10.567556 -0.2521224 -0.58834308
-10.63772 0.070036575 -1.1454012
-10.642105 0.33001417 -1.1441044
-10.639944 0.25021958 -1.1845334
-10.633317 0.37027168 -1.1841331
-10.762398 0.02807948 -0.9251709
-10.630884 0.069705397 -1.0655385
-10.630548 0.14951751 -1.0251675
-10.646968 0.21959655 -1.0644797
-10.60272 0.24899276 -0.87030739
-10.600641 0.2311018 -0.78541422
-10.758062 0.0072418898 -0.74281645
-10.62361 -1.1031199 -0.47093722
-10.661623 -0.9964698 -0.34954011
-10.664881 -1.0532322 -0.50977015
-10.610542 -1.1280724 0.65510386
-10.608793 -1.1184075 0.73512679
-10.612373 -0.77573103 0.69163185
-10.640303 -1.0970573 0.32969177
-10.617163 -1.1069077 -0.19102621
-10.606056 -1.1189096 0.85509318
-10.604324 -1.1067461 0.93512696
-10.623316 -0.29386738 -0.30717754
-10.611637 0.082714185 0.43198687
-10.653133 0.2349952 0.41613656
-10.608995 -0.29725495 0.42517668
-10.567085 -0.25688648 0.41189665
-10.622276 1.2551513 -2.560792
-10.780376 0.15150096 -1.6693928
-10.818524 0.54915828 -1.7913349
-10.777437 0.28863621 -1.0611655
-10.765194 0.88736451 -0.77111316
-10.764566 0.92717952 -0.73093361
-10.765937 0.84757334 -0.81629199
-10.622128 0.64501733 -0.062821567
-10.595335 0.56807411 -0.66395319
-10.594721 0.44864988 -0.78455037
-10.456174 1.1273928 -0.3044793
-10.516785 1.0871361 -0.34328341
-10.640378 0.80583948 -0.26171666
-10.750938 1.1267457 -0.61779779
-10.736092 1.1253306 -0.29805905
-10.472751 1.1270798 -0.26408869
-10.649747 0.84557974 -0.22130728
-10.626932 0.744793 -0.02224046
-10.619005 1.0028173 0.40638059
-10.723022 0.12731838 -0.70305896
-10.722251 0.14712638 -0.66297472
-10.71909 0.14753105 -0.74306661
-10.619268 0.52618122 -0.30349904
-10.611307 0.40528411 -0.1041826
-10.682996 -0.17506814 -0.14521718
-10.684496 -0.094888367 -0.18482429
-10.726205 -0.053860214 -0.46375352
-10.683914 -0.17488502 -0.18520498
-10.599127 -0.82559758 1.2562721
-10.598429 -0.85817981 1.276125
-10.605713 -0.45883852 1.4180026
-10.597132 -0.45897985 1.4653192
-10.514854 0.39455193 2.0333815
-10.496357 1.1124655 2.5163021
-10.5424 0.19415246 2.0731478
-10.552299 0.043255046 1.7126012
-10.811567 1.2545028 -3.9095383
-10.809999 1.2550181 -3.8370562
-10.690081 1.2633027 -3.8397102
-10.925573 -0.40345377 -4.1832466
-10.870428 -0.36435229 -4.2320328
-10.926712 -0.36333847 -4.2231159
-10.886478 -0.37560904 -4.2165456
-10.885371 -0.41072512 -4.176662
-10.962826 -1.1059771 -4.2569666
-10.742208 -1.1373831 -3.3417411
-10.7005 -1.127365 -3.2626209
-10.902214 -1.130886 -3.3381581
-10.899555 -1.1287317 -3.2181821
-10.836561 -1.1160345 -3.9797378
-10.95742 -1.1166705 -4.0170579
-10.874723 -1.1240168 -3.8988919
-10.917461 -1.1114209 -4.0179324
-10.978806 -1.1247898 -3.8565655
-10.915617 -0.83438903 -3.8571339
-10.651102 0.81110007 -1.3817502
-10.68576 1.2525246 -1.7992039
-10.785831 0.89201635 -1.7783921
-10.657055 1.2540941 -2.3199687
-10.812672 1.2519667 -2.1165347
-10.814317 1.2388998 -2.1964262
-10.705461 1.2635978 -2.7040882
-10.650713 0.86188745 -1.0214282
-10.618456 0.92905384 -0.90182734
-10.634174 0.64950591 -1.0227855
-10.651247 0.769633 -1.0743543
-10.634011 0.81027269 -1.1820924
-10.562807 -0.22998792 -1.0284698
-10.807354 -1.1120155 -1.5070407
-10.600983 -1.1118298 -1.231703
-10.801069 -1.0933037 -1.2270225
-10.721939 -1.1025296 -1.268893
-10.634617 0.28701848 -0.50430048
-10.600048 0.27591729 -0.74521041
-10.601186 0.44838721 -0.7393899
-10.612624 0.046603739 -0.38587856
-10.609401 -0.053380698 -0.3864122
-10.747579 -0.46368182 -4.1503854
-10.792728 -0.44405603 -4.1492095
-10.848534 -0.33262867 -4.297287
-10.696056 1.2488145 -4.1195517
-10.694357 1.2543832 -4.039607
-10.65039 -1.1808848 -2.8237813
-10.825521 0.58855605 -1.8714836
-10.907793 -0.43251085 -4.1463628
-10.845366 -0.41297394 -4.1775584
-10.827799 -0.43434787 -4.1483173
-10.937681 -0.44525915 -4.1456838
-10.924436 -0.44356799 -4.1433783
-10.804255 -0.45033884 -4.1385722
-10.782881 -0.16855842 -1.663307
-10.565569 -1.1131158 -1.4325783
-10.612129 -1.1674623 -2.2244439
-10.639406 -1.1673229 -2.3263626
-10.712917 -1.08187 -0.8688966
-10.416805 -1.1355636 2.1310482
-10.455023 -1.1287023 2.2119708
-10.325588 0.63531607 3.5292056
-10.405615 0.71475399 3.5512383
-10.204782 0.59594339 3.553951
-10.284979 0.59549534 3.5456822
-10.244919 0.61070991 3.5523741
-10.245106 -0.31902975 3.495621
-10.244945 -0.25911793 3.520828
-10.32529 -0.25953978 3.5049884
-10.320082 -0.4593429 3.4566853
-10.343994 -0.49920249 3.3770266
-10.36533 -0.45957148 3.4451196
-10.364229 -0.45932442 3.3775821
-10.401644 -0.84625852 2.892118
-10.365395 -0.17984441 3.5235975
-10.325507 -0.17958516 3.5177701
-10.28558 -0.09941484 3.5372217
-10.241577 0.035744026 3.5451577
-10.445822 -0.14029372 3.5153978
-10.366859 0.10011449 3.5345914
-10.345879 -1.1432842 1.7292895
-10.356827 -1.1381916 1.6895506
-10.60153 -1.1147486 1.0550609
-10.587002 -0.89783233 1.2156813
-10.60056 -1.1224153 1.0950174
-10.562679 -1.1395725 1.6542308
-10.473108 -1.1478485 1.4120886
-10.547741 -1.1394492 1.6513906
-10.51047 -1.1336552 1.5330327
-10.414286 -1.1029868 2.6912766
-10.437866 -1.1170913 0.64503771
-10.406951 -1.1272326 0.81050402
-10.285523 -0.6638509 3.3752494
-10.319353 -0.57891208 3.3362336
-10.382826 -1.0236198 2.890944
-10.408175 1.1147711 3.5452821
-10.367676 1.0749689 3.5567615
-10.204914 0.63592464 3.5591047
-10.285582 0.72296345 3.5536726
-10.205713 0.79589236 3.56722
-10.282713 0.23548634 3.5492933
-10.326456 0.91516906 3.5677764
-10.406226 0.83473206 3.5566986
-10.713039 -1.1686473 -2.0396547
-10.787609 -1.117394 -1.7802811
-10.539059 -1.1009512 -0.27281398
-10.615495 -1.1263971 -1.8691118
-10.557152 -0.2510913 -0.78863168
-10.598642 -0.13126469 -0.81463379
-10.590271 -0.29114622 -0.82806534
-10.558052 -0.25340697 -0.82863218
-10.58829 0.84832162 -0.70283651
-10.584291 0.76815838 -0.66328686
-10.64325 0.76543593 -0.18181431
-10.760271 -0.012285955 -0.8453837
-10.59635 0.32863522 -0.78506488
-10.60223 0.3237831 -0.82496309
-10.600424 0.24853311 -0.77033591
-10.596767 0.16843967 -0.74578083
-10.600975 0.36898398 -0.86479396
-10.633898 0.45026761 -1.1837509
-10.543652 -1.1000308 -0.4727596
-10.573368 -1.117268 0.53426844
-10.57376 -1.1347563 -0.05211252
-10.483347 -1.1187824 0.4060083
-10.603373 -1.1119128 0.97509462
-10.602498 -1.1070807 1.015105
-10.522297 -1.1364753 1.0131512
-10.607881 -1.1185749 0.77511555
-10.708559 -0.41873527 -0.46583736
-10.684252 0.12474346 -0.10379857
-10.684401 0.14473522 -0.10370302
-10.58614 -0.054925341 -0.026855946
-10.608228 0.32530659 -0.10462135
-10.600485 0.16555141 -0.14554495
-10.600229 0.1649809 -0.025521815
-10.41307 0.091951728 0.36995304
-10.609404 -0.21729195 0.43305606
-10.604565 0.037784457 1.1936655
-10.601464 0.038181216 1.1135707
-10.59762 0.072861478 1.6200991
-10.598619 0.037642956 1.2335365
-10.825191 0.57155335 -1.7439532
-10.655577 0.37109661 -1.3911742
-10.648249 0.2697776 -1.1042299
-10.640444 0.41059977 -1.263805
-10.636154 0.29043901 -1.2244455
-10.761127 0.050292417 -0.86258107
-10.785515 0.3685776 -1.0606123
-10.601219 0.52879345 -0.82404256
-10.6026 0.50109166 -0.78412771
-10.633769 0.6504631 -1.2228441
-10.76565 0.80008596 -0.81901836
-10.616549 0.56505769 -0.063316524
-10.600963 0.52822292 -0.70401776
-10.756131 0.62593812 -0.45993912
-10.630459 0.68558812 -0.19497871
-10.486387 1.1292907 -0.74889833
-10.713451 1.139924 -0.17847955
-10.737431 0.9653179 -0.29876393
-10.718685 1.1659349 -0.39829984
-10.684738 0.4443627 -0.022294223
-10.632428 0.52570373 -0.22317594
-10.615294 0.56273037 0.4267773
-10.459382 0.84430081 0.33696723
-10.685123 0.24473874 -0.10322601
-10.666622 0.24518444 -0.16866589
-10.755854 0.026769273 -0.64024973
-10.613853 0.28545541 -0.14468592
-10.615513 0.60582846 -0.22319704
-10.63265 0.48684543 -0.46341556
-10.631393 0.5664739 -0.38305625
-10.408636 -1.1382341 1.6107116
-10.596577 -0.43411797 1.4979193
-10.60021 -0.81790876 1.2113166
-10.399632 -1.1310725 1.1304069
-10.483315 -1.1235067 0.97230595
-10.601364 -0.65542561 1.2145247
-10.527754 0.19482376 1.9527676
-10.534567 0.059790015 1.8586709
-10.547245 0.035793297 1.7124481
-10.828979 -0.40919304 -4.1882029
-10.967896 -0.32346785 -4.2645941
-10.881926 -1.1105911 -4.2187724
-10.712969 -1.1257461 -3.8224778
-10.754725 -1.1282644 -3.901576
-10.753849 -1.125881 -3.8615789
-10.871439 -1.1244434 -3.7514296
-10.790245 -1.1315941 -3.7007451
-10.752975 -1.1234962 -3.8215818
-10.80974 -1.1236089 -3.9003377
-10.952936 -1.1222492 -3.8171234
-10.90556 -0.84432644 -3.8573852
-10.657434 0.61110991 -1.3950281
-10.653893 0.33107853 -1.3851448
-10.783159 0.85102236 -1.5660853
-10.82686 0.78854591 -1.8728752
-10.829092 0.74853188 -1.8725426
-10.814577 0.81218439 -1.8581212
-10.775294 1.2538769 -2.2373881
-10.811771 1.2472515 -2.0765104
-10.853476 1.2439231 -2.1556039
-10.652115 0.80225712 -1.1016911
-10.604811 1.0108727 -1.2618623
-10.598894 1.0107253 -1.2219883
-10.624852 0.89091408 -1.3019651
-10.56189 -0.23017195 -0.98848009
-10.598893 -0.13620596 -0.82715517
-10.811029 -1.1112798 -1.666997
-10.719183 -1.1030822 -1.1489259
-10.674566 -1.108707 -0.94992304
-10.383185 -1.1365886 1.8502007
-10.421329 -1.1397253 1.9310799
-10.538361 -1.139737 1.7336974
-10.616961 0.046953961 -0.46580026
-10.62183 0.2471122 -0.50477773
-10.620815 0.10710925 -0.50544459
-10.625295 0.12746495 -0.58527029
-10.611996 0.086418584 -0.34569967
-10.616189 0.066761509 -0.4257156
-10.615271 0.066578239 -0.38572541
-10.715126 0.10679697 -0.58330172
-10.704226 0.32688689 -0.58253992
-10.717693 0.33447927 -0.62220627
-10.71644 0.4066202 -0.54438317
-10.728218 0.40690309 -0.6216324
-10.609062 0.026432924 -0.3460418
-10.78771 -0.4465149 -4.1493421
-10.890301 -0.36453664 -4.2265482
-10.776556 1.2531319 -4.1403456
-10.950322 -0.36003423 -4.225069
-10.803163 -0.48295325 -4.098681
-10.77725 -0.16864774 -1.6359289
-10.608294 -1.1153591 -1.5516397
-10.63562 -1.1678146 -2.156405
-10.687707 -1.1814817 -2.7029223
-10.660508 -1.1676456 -2.2633767
-10.551846 -1.1083744 -0.83270735
-10.415854 -1.1407319 2.1710143
-10.36472 0.55500931 3.5472572
-10.36496 0.59500867 3.5474122
-10.325054 0.55530846 3.5313957
-10.281675 0.035519317 3.5410225
-10.286297 0.020582318 3.5376489
-10.258564 -0.019250661 3.5369375
-10.44628 -0.020340651 3.5283225
-10.446996 0.099657476 3.5287497
-10.405541 -0.1800594 3.516928
-10.407141 0.13988027 3.5330617
-10.344947 -1.1459521 1.7692676
-10.429506 -1.1432183 1.5711553
-10.52051 -1.1318111 1.0931523
-10.559624 -1.1272804 1.1340737
-10.578295 -0.93794137 1.255326
-10.560282 -1.0981572 1.3342643
-10.47298 -1.0632553 2.6527715
-10.440603 -1.1190401 0.52505916
-10.284964 -0.61898929 3.4154003
-10.330179 -0.57883614 3.2964492
-10.278646 -0.69866788 3.3349786
-10.365702 0.75496674 3.5580266
-10.242987 0.31569004 3.5587347
-10.286892 0.99540132 3.569721
-10.660759 -0.98915434 -0.30951631
-10.597256 0.10861845 -0.78605503
-10.623134 0.047670975 -0.62569755
-10.736551 0.10797413 -0.86288011
-10.598543 0.84881783 -0.82263154
-10.602962 0.7687847 -0.82289904
-10.616668 0.80887443 -0.86241055
-10.58713 0.68832713 -0.70359993
-10.635689 0.57044756 -1.2231687
-10.759592 -0.034888584 -0.82299823
-10.60475 0.48904163 -0.88165992
-10.542698 -1.1052145 -0.43279389
-10.606985 -1.1162419 0.8151148
-10.629375 -0.29317397 -0.46207762
-10.708882 -0.41367763 -0.47830978
-10.660162 -0.49501318 -0.12470722
-10.610029 -0.093195155 -0.42659229
-10.610111 -0.17357862 -0.34693778
-10.602695 -0.25390697 -0.26745695
-10.603506 0.14514044 -0.065547645
-10.593697 0.045408398 -0.10624236
-10.59278 0.045224741 -0.066254199
-10.410854 -0.055778634 0.41923648
-10.60745 0.043321192 1.0737245
-10.599511 0.020781584 1.5198975
-10.600789 0.039566413 1.3536313
-10.600889 0.037089035 1.3486197
-10.588696 -0.45766252 1.1775548
-10.802547 0.64648408 -1.8323827
-10.649197 0.33091629 -1.3439919
-10.720481 0.32754809 -0.74595827
-10.766698 0.32850051 -1.0162153
-10.72278 0.15077327 -0.90301102
-10.762045 0.050475508 -0.90256971
-10.708527 0.28780794 -0.78267491
-10.765312 0.87989998 -0.77864718
-10.626991 0.50017071 -0.10338557
-10.742177 0.44756359 -0.78116703
-10.774843 0.52827674 -0.98010015
-10.736518 0.4479863 -0.86131781
-10.728729 0.40804327 -0.86167991
-10.685414 0.28473753 -0.10303485
-10.666798 0.28516006 -0.16347772
-10.757625 0.57880759 -0.54014373
-10.717651 1.1657281 -0.35331222
-10.579164 0.96839136 -0.70249504
-10.680362 1.1665636 -0.47169617
-10.732803 0.92497021 -0.21903414
-10.604471 0.40495425 -0.024319708
-10.686913 0.36491793 -0.14264262
-10.644649 0.3263728 -0.38385651
-10.583324 0.60301459 0.4162249
-10.684786 0.32455188 -0.062856078
-10.756516 0.046872288 -0.66264915
-10.614515 0.68602842 -0.26286083
-10.629476 0.6464901 -0.38273174
-10.390411 -1.1452477 1.5302434
-10.391342 -1.1425809 1.4902661
-10.596231 -0.41920149 1.5179789
-10.393187 -1.1397448 1.4102979
-10.476833 -1.1371795 1.2521751
-10.519607 0.23470072 1.9927649
-10.546496 0.23486851 1.9133816
-10.517856 0.035643183 1.7917721
-10.89628 -1.2265763 -3.0985074
-10.959215 -1.1139393 -4.0970302
-10.913837 -1.1218827 -3.8580046
-10.794298 -1.1235728 -3.8806758
-10.708349 0.85264546 -1.7928565
-10.654355 0.73109257 -1.3857951
-10.785294 0.72663569 -1.6991434
-10.781883 0.6910044 -1.5618484
-10.656748 0.55605525 -1.3827937
-10.855206 1.243355 -2.2355833
-10.651081 0.84947956 -1.0414815
-10.615879 0.94059902 -1.2219205
-10.558088 -0.24840774 -0.82860792
-10.641006 -1.1071249 -1.2307627
-10.791962 -0.97073501 -1.2266674
-10.557356 -1.1072706 -1.0726407
-10.714663 -1.0940019 -0.9489342
-10.463218 -1.1296939 1.8520567
-10.42498 -1.1390551 1.7711227
-10.4659 -1.1366897 1.7320559
-10.621296 0.04730387 -0.54572076
-10.613157 0.24641259 -0.34493726
-10.716317 0.14447828 -0.62311149
-10.685366 0.025107361 -0.18425173
-10.719476 0.32734632 -0.70222056
-10.600534 0.045740247 -0.18610668
-10.611258 0.14565553 -0.18540049
-10.601357 -0.093893237 -0.26675153
-10.603518 -0.014099352 -0.22632426
-10.927589 -0.33824486 -4.2555323
-10.734331 1.2516207 -4.038722
-10.776936 1.2530081 -4.1578407
-10.883202 -0.4734534 -4.0968723
-10.690972 -1.1228954 -1.6698077
-10.633839 -1.1680462 -2.0764253
-10.550926 -1.108559 -0.79271889
-10.412279 -1.1314026 2.3310146
-10.365462 0.71496898 3.5578711
-10.285297 0.67546511 3.5534904
-10.24165 0.065724671 3.5502717
-10.406017 -0.10006247 3.5172117
-10.440418 -0.26020971 3.4998724
-10.367046 0.14010558 3.5372326
-10.326952 0.14032973 3.5414026
-10.442678 0.15459999 3.529947
-10.384061 -1.1414213 1.81019
-10.535188 -1.1393651 1.6536045
-10.469076 -1.1386043 1.5920832
-10.476355 -1.138222 1.4922237
-10.481415 -1.1338407 1.0522401
-10.518666 -1.1346467 1.1731184
-10.512278 -1.1358186 1.453043
-10.515965 -1.1301486 1.293108
-10.567104 -1.0978607 1.2544007
-10.571356 -1.1426018 0.61413831
-10.493372 -1.119163 0.5324356
-10.252823 -0.69865423 3.3744512
-10.326416 -0.5390712 3.3690233
-10.326084 0.83518976 3.5624697
-10.246659 0.14076085 3.5547435
-10.242321 0.19570161 3.5557725
-10.251367 0.435669 3.5518606
-10.283193 0.31548417 3.5496008
-10.24642 0.1007628 3.554601
-10.596626 0.14843233 -0.74587548
-10.728797 0.10745895 -0.74302852
-10.612087 0.64871496 -0.82324135
-10.593918 0.80846947 -0.74290168
-10.635397 0.5304485 -1.2233589
-10.626642 0.61013383 -1.1431723
-10.60308 0.44876701 -0.82186741
-10.767056 0.48833334 -0.98046255
-10.523247 -1.1313076 0.97318333
-10.488791 -1.1225009 0.73236984
-10.614446 -0.17322913 -0.42685944
-10.707695 -0.4114188 -0.42581311
-10.659615 -0.51509321 -0.10730666
-10.659301 -0.4951849 -0.087217748
-10.600086 0.14497538 -0.025615573
-10.603676 0.021546051 1.3374462
-10.586029 0.036245726 1.5533235
-10.595171 0.037482485 1.2734656
-10.654903 0.4283762 -1.3434126
-10.718443 0.36811775 -0.86210006
-10.627741 0.44540185 -0.15363491
-10.634975 0.40587252 -0.26367956
-10.627849 0.36554402 -0.18400782
-10.632893 0.64665508 -0.42266369
-10.644728 0.64694875 -0.50241256
-10.600643 0.61053628 -0.66363567
-10.72509 0.4467358 -0.58150923
-10.756721 0.58112299 -0.50014275
-10.716497 1.1804749 -0.29825526
-10.749357 1.1269491 -0.6578452
-10.60475 0.88896364 -0.86231488
-10.591627 0.92886966 -0.82242233
-10.614645 0.36290026 0.39083314
-10.685366 0.40454882 -0.06247437
-10.759291 0.049923286 -0.78260314
-10.720009 0.14771399 -0.78305531
-10.617352 0.60619694 -0.30317485
-10.912915 -1.1269979 -3.8180289
-10.793236 0.74904525 -1.8333123
-10.803073 0.70894617 -1.8378162
-10.783607 0.73129004 -1.6241407
-10.786806 0.68200499 -1.7793365
-10.820494 1.2544117 -2.4764755
-10.615979 0.93063384 -1.2294657
-10.607018 0.97085518 -1.2619959
-10.721038 -1.1002142 -1.228893
-10.79826 -1.1013557 -1.1070913
-10.636415 -1.1080441 -1.0308173
-10.534275 -1.1395324 1.6935937
-10.620235 0.027113028 -0.50582552
-10.608436 0.066246852 -0.30586308
-10.629171 0.16860344 -0.30491519
-10.634224 0.35933095 -0.46396634
-10.634569 0.40682894 -0.46373948
-10.718557 0.32716268 -0.66223109
-10.597601 -0.014246307 -0.18644869
-10.600776 -0.17389125 -0.26713276
-10.769147 -1.1188525 -1.587971
-10.691855 -1.1277121 -1.7098198
-10.41321 -1.1287349 2.2910366
-10.244905 0.63568175 3.5599692
-10.366632 0.95491511 3.5712941
-10.511405 -1.09901 1.6132212
-10.519577 -1.1344781 1.1331296
-10.516859 -1.1324815 1.2531087
-10.481594 -1.1377393 1.372314
-10.557909 -1.1126167 1.2141178
-10.520372 -1.0567451 0.44715613
-10.477836 -1.1198852 0.64594299
-10.490616 -1.1221668 0.65239137
-10.482446 -1.1164664 0.44600981
-10.265909 -0.73859185 3.3345771
-10.286247 -0.68121397 3.3351951
-10.32629 -0.53409684 3.3765388
-10.254926 0.19564538 3.5510433
-10.622072 0.027480416 -0.58580482
-10.622215 0.047487512 -0.5857091
-10.59999 0.14109898 -0.7858429
-10.599544 0.76861942 -0.78296626
-10.640768 0.49002635 -1.1434002
-10.525108 -1.1259735 0.89322716
-10.526021 -1.1258066 0.85323828
-10.528685 -1.1353029 0.73322755
-10.623907 -0.30425358 -0.22718996
-10.587927 0.036604077 1.4733474
-10.602321 0.03686808 1.393666
-10.594056 0.020736113 1.5397789
-10.605204 0.021349408 1.379993
-10.655611 0.52587146 -1.3429486
-10.656474 0.36971921 -1.103582
-10.624722 0.40537679 -0.14388537
-10.617561 0.32561827 -0.18442786
-10.636021 0.60682166 -0.46278629
-10.641357 0.52697217 -0.50304157
-10.600189 0.54803818 -0.66393423
-10.582582 0.96855658 -0.74242628
-10.769673 0.73213208 -1.7794988
-10.802805 0.66894835 -1.8375382
-10.717364 -1.1009506 -1.0689362
-10.623093 0.1459498 -0.26514876
-10.623526 0.20595469 -0.26486248
-10.603951 0.0459048 -0.2260381
-10.610644 0.026230253 -0.30599576
-10.605694 0.28589553 -0.22489351
-10.61161 0.28604299 -0.26476884
-10.630514 0.35359555 -0.30403477
-10.631945 0.17165525 -0.42487067
-10.642776 0.28657687 -0.42409357
-10.7181 0.32707065 -0.64223707
-10.709816 0.24760742 -0.74281931
-10.80829 -1.1093321 -1.547017
-10.4277 -1.1410533 1.6511452
-10.460447 -1.1382763 1.5318718
-10.599833 0.80861723 -0.78277653
-10.604191 0.6886313 -0.79323137
-10.767282 0.44843882 -1.0031481
-10.589478 0.036405787 1.5133951
-10.651939 0.49070692 -1.3031839
-10.716672 0.44660628 -0.54169226
-10.615948 0.28639215 -0.34468889
-10.723568 0.38558 -0.86190188
-10.63336 0.36664772 -0.42394069
0 0 0 1 0 0 0 1 0 0 0 1 0 0 0 0 0 1093 1 0 0
