ply
format ascii 1.0
comment PCL generated
element vertex 248
property float x
property float y
property float z
element camera 1
property float view_px
property float view_py
property float view_pz
property float x_axisx
property float x_axisy
property float x_axisz
property float y_axisx
property float y_axisy
property float y_axisz
property float z_axisx
property float z_axisy
property float z_axisz
property float focal
property float scalex
property float scaley
property float centerx
property float centery
property int viewportx
property int viewporty
property float k1
property float k2
end_header
0.2831583 -0.21869951 3.3344111
0.32292819 -0.17848963 3.3345008
0.30708456 0.12808159 3.3412991
0.30628824 0.3076849 3.3451192
0.26628923 0.60855424 3.3522594
0.26616931 0.64853853 3.3531089
0.26497746 0.9480474 3.3594766
0.26434755 1.0475887 3.3615975
0.18463945 1.1680806 3.3656774
-0.1637435 1.1301197 3.3715491
-0.22591162 1.1302085 3.3727422
-0.30526543 1.1305656 3.3742704
-0.56719661 1.4084064 3.3851755
-0.66723371 1.4255 3.3874545
-0.74720883 1.4251809 3.3889804
-0.78719544 1.4250201 3.3897431
-0.86679268 1.4075464 3.3908982
-1.0261197 1.4075838 3.3939521
-1.1468594 1.4464127 3.3970883
-1.3057885 1.4242971 3.3996651
-1.5063498 1.4228207 3.4034772
-1.5457139 1.4233384 3.4042425
-1.6263125 1.4223416 3.4057658
-1.6812272 1.4046285 3.4064429
-1.9052236 1.4047461 3.4107375
-1.9455891 1.4217399 3.411871
-1.9865972 1.4430562 3.4131083
-2.0651736 1.4041063 3.413789
-2.0657578 1.4034709 3.4137866
-2.3836839 1.1232717 3.4139428
-2.5237932 1.1626967 3.4174628
-2.583698 1.1625415 3.4186075
-2.6637888 1.1620957 3.4201329
-2.7864995 1.1605977 3.4224524
-2.9448771 0.83963609 3.4186878
-2.9191926 0.7201106 3.4156637
-2.9038274 0.64005637 3.4136732
-2.9425833 0.40759403 3.4094913
-3.0918992 0.27932197 3.4096351
-3.1016598 0.23940882 3.4089766
-3.1152489 -0.018411338 3.4037752
-3.1001599 -0.035821199 3.4031172
-2.8995678 -0.17761928 3.3962693
-2.8219256 -0.21738625 3.3939393
-2.7393241 -0.23941672 3.3918896
-2.6588955 -0.17337534 3.3917475
-2.6191792 -0.13336545 3.391834
-2.3161836 -0.011010617 3.3886201
-2.019022 -0.27114829 3.3774149
-1.8185428 -0.32997456 3.3723271
-1.5130334 -0.72967303 3.3580053
-1.515379 -0.76966703 3.357203
-1.5152254 -0.80965185 3.356353
-1.4976523 -0.82957411 3.3555942
-1.2971735 -0.88840115 3.3505063
-1.1766768 -1.1081933 3.3435411
-1.1366897 -1.1080353 3.3427782
-1.0567136 -1.107717 3.3412526
-0.77744198 -1.1023171 3.3360155
-0.71470428 -1.0063938 3.3368454
-0.63519096 -0.88612378 3.3378696
-0.15308547 -0.78028107 3.3308735
-0.053186178 -0.82004213 3.3281169
-0.13389206 -0.57991004 3.3347507
0.14367032 -0.25917482 3.3362265
-2.8149328 -1.0720403 3.3756995
-3.032299 -1.0575751 3.3801713
-3.0551357 -0.99272645 3.3819826
-3.0557086 -0.89806426 3.3839991
-3.0360601 -0.81768286 3.3853254
-2.6253643 -1.0125734 3.3733268
-2.615484 -1.0126671 3.3731356
-2.6151547 -1.0675129 3.3719673
-2.6549265 -1.0786436 3.3724937
-2.7748885 -1.0818137 3.3747253
-10.765116 0.67278528 3.5650063
-10.764459 0.53188181 3.5620086
-10.884521 0.52796191 3.5642262
-10.87198 0.59330332 3.5653701
-10.84481 0.65094632 3.5660706
-10.812545 0.67293578 3.5659182
-10.1649 -0.21887025 3.5346153
-10.204289 -0.5809257 3.5276999
-9.9231339 -0.53712356 3.5232403
-9.8512478 -0.53578401 3.5218914
-9.7316027 -0.53739846 3.5195644
-9.7318201 -0.49718407 3.5204206
-9.4205933 -0.21136197 3.5205119
-9.3731422 -0.21132642 3.5196033
-9.3335247 -0.21379158 3.5187919
-9.3235207 -0.21367973 3.5186026
-9.0113821 -0.48032704 3.5069726
-8.7432547 -0.69041979 3.4973838
-8.6695166 -0.80619335 3.4935181
-8.6494608 -0.88921857 3.491375
-8.4075251 -1.1161132 3.4819324
-8.3275948 -1.1238236 3.4802372
-8.2475271 -1.1200573 3.4787829
-8.2518969 -0.52757001 3.4914181
-7.7709055 -0.6836518 3.4788949
-8.2518682 -0.52474773 3.4914775
-8.5461721 -0.12489846 3.5055876
-8.5972586 0.03396596 3.509932
-8.6076908 0.12940958 3.5121539
-8.6153231 0.14204517 3.5125678
-8.7756615 0.20817049 3.5170412
-8.9753189 0.16728541 3.5200009
-9.017849 0.16675243 3.5208046
-9.0276031 0.12670434 3.520143
-9.2534161 -0.1470454 3.5186708
-9.3733606 -0.15283322 3.5208466
-9.4609823 -0.13091874 3.52299
-9.6846895 -0.01613085 3.5297084
-9.7760859 0.28070623 3.5377481
-9.77631 0.32081974 3.5386021
-9.7596006 0.4404965 3.5408173
-9.7580757 0.60045016 3.5441766
-9.7288103 0.72059524 3.5461612
-9.6943045 0.80078948 3.5471988
-9.7098894 0.87997127 3.5491748
-9.7100306 0.92064571 3.5500393
-9.7331152 0.99977994 3.5521581
-9.7363443 1.1197162 3.5547607
-9.658062 1.4001212 3.559201
-9.662859 1.4014688 3.5593214
-10.017799 1.1168661 3.5600936
-10.047786 1.1167291 3.5606654
-10.167762 1.1160063 3.5629489
-10.166603 0.91626036 3.5586953
-10.165465 0.71638262 3.5544391
-10.165019 0.63637096 3.5527356
-10.16481 0.59625602 3.5518818
-10.164351 0.51633108 3.5501797
-10.162986 0.27646986 3.5450721
-10.182101 0.11623875 3.5420442
-10.201857 0.076221466 3.541575
-10.165782 -0.058712602 3.5380251
-10.165328 -0.13863692 3.5363231
-10.165112 -0.17870864 3.53547
-5.8390236 -0.72566533 3.4409857
-5.2768321 -0.68180287 3.4311421
-5.8397493 -0.60603487 3.4435339
-6.1572237 -0.96383381 3.4420376
-6.2771797 -0.96435106 3.4443252
-6.3172216 -0.95453107 3.4453006
-6.4494047 -1.0053102 3.4467578
-6.4768705 -1.0104762 3.4471745
-6.5567513 -1.0284553 3.4483244
-6.7165442 -1.0594178 3.4507306
-6.7964993 -1.0649047 3.4521463
-6.8764391 -1.0728904 3.4535091
-6.9164009 -1.0781325 3.4541638
-7.0363617 -1.0813673 3.456394
-7.2793036 -0.61327255 3.4709656
-7.239892 -0.53431618 3.4718831
-6.9295139 -0.17227557 3.4736052
-7.0022602 -0.12775075 3.4759424
-7.0072308 -0.1327782 3.4759312
-5.8823462 -1.0053179 3.4358914
-5.9171276 -1.0616585 3.4353645
-5.9969101 -1.0573256 3.436985
-6.0770369 -1.0726345 3.4381962
-6.1170282 -1.0728794 3.4389572
-6.1969833 -1.0783665 3.4403732
-6.276844 -1.0801929 3.4418647
-6.3568268 -1.0806843 3.443387
-6.3967252 -1.0772684 3.4442239
-6.5166502 -1.0668478 3.4467425
-6.596684 -1.0784954 3.4480295
-6.7167387 -1.0853914 3.4501839
-6.8767843 -1.0925341 3.4530995
-6.9566603 -1.091862 3.4546442
-6.9966526 -1.0921065 3.4554055
-7.718668 1.411237 3.5222733
-7.6811743 1.4114783 3.52156
-7.623446 1.4134862 3.5204964
-7.7835159 1.4403769 3.5241334
-7.9032984 1.4122872 3.5258336
-7.9760113 1.4102676 3.527184
-7.9847546 1.4102552 3.5273514
-8.0635338 1.3990191 3.5286229
-7.9836245 1.4094447 3.5273125
-7.9761143 1.4095792 3.5271716
-7.9060278 1.4107193 3.5258527
-7.8934288 1.4114896 3.5256276
-7.8237085 1.4101294 3.5242627
-7.4047208 1.4126362 3.5162871
-7.0443311 1.3992925 3.5090985
-7.4043255 1.4148853 3.5163271
-7.4634533 1.4146901 3.5174561
-7.4072542 1.4124305 3.5163312
-4.8640766 0.59867436 3.4503593
-4.8250995 0.78611207 3.4535832
-5.0420346 0.82610095 3.4585874
-5.0807624 0.58588064 3.4542403
-5.0806923 0.57598001 3.4540293
-5.0441942 0.15982091 3.4445138
-5.0048099 -0.23301041 3.435437
-4.6277871 -0.63076019 3.4197862
-4.6177883 -0.63070381 3.419596
-4.620121 -0.19096059 3.4289563
-4.5818334 0.12905407 3.4350021
-7.8874445 -1.1609571 3.4710164
-7.6080112 -1.1445364 3.4660096
-7.448247 -1.110997 3.4636588
-7.236711 -1.0947421 3.4599497
-7.1963949 -1.0910079 3.4592562
-8.4079227 -1.1373037 3.4814911
-8.5681314 -1.1166054 3.4849994
-8.5680437 -1.1133665 3.4850664
-8.1554909 -1.1671097 3.4760225
-8.1679382 -1.1668227 3.4762671
-8.2379751 -1.167653 3.4775915
-8.3279781 -1.1475139 3.4797428
-8.3678837 -1.1445374 3.4805706
-8.0478992 -1.1655706 3.4739933
-8.1128979 -1.1660901 3.4752278
-1.9207497 0.16479182 3.3847671
-1.4217525 0.38670647 3.3799064
-1.3185108 0.19146492 3.3737919
-1.357728 -0.0086172521 3.3703046
-1.8189213 -0.31283793 3.3726974
-1.9204403 0.084821478 3.3830669
-7.5366879 1.414755 3.5188608
-7.6134858 1.4132931 3.5203013
-7.6085887 1.4126353 3.5201936
-8.1675434 -1.1195322 3.4772613
-8.0876303 -1.1247433 3.4756196
-7.7308645 -0.68301761 3.4781411
-7.6909885 -0.68099606 3.4774196
-7.5590577 -0.64218223 3.475714
-7.9679804 -1.1655067 3.4724634
-7.927804 -1.1639031 3.4717274
-8.3836498 1.4061353 3.5349078
-8.7829056 1.4080405 3.5425987
-8.3835487 1.4068241 3.5349205
-8.3735323 1.4070176 3.5347326
-1.9205146 0.10910018 3.3835826
-8.2360592 1.4079044 3.5321171
-8.2633772 1.4089334 3.5326624
-8.2683496 1.4090732 3.5327606
-8.3158407 1.4087682 3.5336642
-8.2756453 1.4104056 3.5329287
-8.2632818 1.4095807 3.5326743
-8.2234468 1.4087597 3.5318935
-8.218462 1.4087063 3.5317969
-8.1835585 1.4083276 3.5311201
-8.2236452 1.4074241 3.5318692
0 0 0 1 0 0 0 1 0 0 0 1 0 0 0 0 0 248 1 0 0
