ply
format ascii 1.0
comment PCL generated
element vertex 410
property float x
property float y
property float z
element camera 1
property float view_px
property float view_py
property float view_pz
property float x_axisx
property float x_axisy
property float x_axisz
property float y_axisx
property float y_axisy
property float y_axisz
property float z_axisx
property float z_axisy
property float z_axisz
property float focal
property float scalex
property float scaley
property float centerx
property float centery
property int viewportx
property int viewporty
property float k1
property float k2
end_header
-0.026750088 -1.0830765 -1.3886846
0.012133598 -1.0668178 -1.3777102
0.099748135 -0.78847009 -1.3476051
0.10854101 -0.66469413 -1.3424519
0.2128787 -0.30620301 -1.3059998
0.26473618 0.075563312 -1.2833534
0.25956154 0.095271289 -1.2843274
0.1718936 0.36349767 -1.3022883
0.18190861 0.48448873 -1.2968634
0.15535927 0.79968417 -1.2970982
0.030501842 1.0436798 -1.3257483
0.01414299 1.0636963 -1.3297681
-0.061776161 0.94552684 -1.3531178
-0.080004692 0.82617307 -1.3607479
0.11127567 0.58745885 -1.3138511
-0.010995865 0.24389952 -1.3548659
-0.20445442 0.13501644 -1.4100897
-0.21954679 -0.069288164 -1.4187539
-0.61314249 -0.34220058 -1.532251
-0.74721003 -0.27084863 -1.5672556
-0.89668512 0.2114225 -1.5973245
-0.8852005 0.2312957 -1.5937479
-0.9034276 0.31122112 -1.5969447
-0.90660334 0.31131208 -1.5978094
-0.90172768 0.21147716 -1.5986996
-0.9012475 0.20643485 -1.5986806
-0.98620176 -0.2714228 -1.6324978
-0.99073267 -0.32670224 -1.6349641
-0.98643208 -0.82401335 -1.644853
-1.2792377 -1.0557668 -1.7299255
-1.3923612 -1.048388 -1.7606368
-1.5004144 -1.0477753 -1.7901148
-1.5372682 -1.0476937 -1.8001716
-1.5715728 -1.0522441 -1.8096359
-1.6478009 -1.0499458 -1.8303901
-1.693573 -1.0526798 -1.8429437
-1.7583575 -1.0496991 -1.8605593
-1.840981 -1.0523512 -1.8831694
-1.8434825 -1.0527158 -1.8838601
-1.8892312 -1.0579498 -1.896463
-1.960433 -1.0574204 -1.9158847
-1.9972866 -1.0573375 -1.9259416
-2.0709896 -1.057174 -1.9460541
-2.1078205 -1.0595899 -1.9561603
-2.1726053 -1.0566077 -1.9737761
-2.2183971 -1.0568442 -1.9862795
-2.2920802 -1.0591786 -2.0064421
-2.3658049 -1.056515 -2.026505
-2.402657 -1.0564314 -2.0365615
-2.476362 -1.0562668 -2.0566745
-2.5017703 -1.0555016 -2.0635924
-2.5132141 -1.0561855 -2.066731
-2.6237695 -1.0559378 -2.0969
-2.6606221 -1.0558548 -2.1069565
-2.952661 -0.6644882 -2.1779583
-2.9775217 -0.55622828 -2.1823354
-2.9501753 -0.35682166 -2.1704357
-2.9497886 -0.31679624 -2.1694398
-2.9536328 -0.19699702 -2.167824
-2.9729438 -0.15713307 -2.1722078
-3.242645 -0.15451896 -2.2457609
-3.2541811 -0.15199286 -2.2488532
-3.291013 -0.15440646 -2.2589598
-3.3297663 -0.19496191 -2.2704389
-3.6188672 -0.31306076 -2.3519721
-3.6385345 -0.31452334 -2.3573725
-3.655699 -0.31547427 -2.3620784
-3.8006663 -0.30712003 -2.4014595
-3.8400614 -0.30254743 -2.4121099
-3.8744121 -0.30194974 -2.4214721
-3.9826984 -0.31656668 -2.4513526
-4.1552615 -0.30261382 -2.4981408
-4.2861805 -0.30561075 -2.5339398
-4.3760872 -0.33708429 -2.5591788
-4.5153346 -0.72057706 -2.6057153
-4.251935 -1.0787882 -2.5417926
-4.2018323 -1.0802666 -2.5281506
-4.2707853 -1.0927052 -2.5472469
-4.3983002 -1.1183884 -2.5826216
-4.4465957 -1.1189363 -2.5958154
-4.4684405 -1.1192151 -2.601784
-4.507596 -1.1191244 -2.6124687
-4.520299 -1.1187632 -2.6159277
-4.5330048 -1.118404 -2.6193876
-4.7336788 -1.0574386 -2.6728027
-4.8048611 -1.0592549 -2.6922712
-4.8671017 -1.0609474 -2.7092965
-4.954731 -1.0644193 -2.7332909
-4.9776373 -1.0631878 -2.7395155
-5.1389561 -1.0959361 -2.7842736
-5.1718092 -1.0966587 -2.7932565
-5.2047 -1.0948851 -2.8021941
-5.2937903 -1.0955663 -2.8265252
-5.3308306 -1.0931792 -2.8365817
-5.5160046 -1.1532841 -2.8884592
-5.5488195 -1.1565062 -2.8974874
-5.6365724 -1.1725914 -2.9217961
-5.7100749 -1.1580302 -2.9415336
-5.7601075 -1.157658 -2.9551811
-5.7794185 -1.152509 -2.9603372
-5.9464192 -1.1183021 -3.0051565
-5.9717984 -1.1172714 -3.0120606
-6.0094848 -1.1174502 -3.0223505
-6.0241446 -1.1169077 -3.0263395
-6.2100277 -1.1237125 -3.077225
-6.2377777 -1.1237946 -3.084801
-6.2539663 -1.1238439 -3.0892205
-6.2799902 -1.1253786 -3.0963573
-6.3102789 -1.1188042 -3.1044781
-6.3582959 -1.1149925 -3.1174989
-6.4062352 -1.116177 -3.1306095
-6.4431591 -1.1212852 -3.140801
-6.480083 -1.1263922 -3.1509924
-6.543148 -1.1255393 -3.1681859
-6.7476153 -1.2442125 -3.2266324
-6.8066897 -1.2729155 -3.2433944
-6.9261274 -1.3257434 -3.2771685
-7.0893464 -1.2920461 -3.3209672
-7.142344 -1.2762119 -3.3350797
-7.5278358 -1.3306661 -3.4415057
-7.5414782 -1.345699 -3.4455633
-7.6374054 -1.3761787 -3.4724236
-7.6853452 -1.3773642 -3.4855342
-7.9115477 -1.3116254 -3.5458107
-8.0073595 -1.2735653 -3.5711143
-8.0874367 -1.2691166 -3.5928714
-8.09231 -1.2689872 -3.5941985
-8.3534031 -1.099983 -3.6617007
-8.2054853 -1.0972252 -3.6212673
-8.1834717 -1.0981992 -3.6152806
-8.1164455 -1.1035535 -3.597106
-8.0834694 -1.1012665 -3.5880547
-7.9873257 -1.1146057 -3.5621104
-7.9388871 -1.1124946 -3.5488429
-7.8902736 -1.1079512 -3.5354733
-7.8395004 -1.1043506 -3.5215354
-7.7501173 -1.1106544 -3.4972799
-7.4693842 -1.1368499 -3.4212406
-7.3299556 -1.1093633 -3.3825741
-7.2692595 -1.0919127 -3.3656199
-7.12643 -1.0864735 -3.3265157
-7.0422812 -1.1047541 -3.3039548
-7.0162172 -1.1057179 -3.2968626
-6.9312387 -1.106921 -3.2736957
-6.8570027 -1.1216905 -3.2537625
-6.7788906 -1.1195841 -3.2323961
-6.6939883 -1.1157906 -3.2091389
-6.5870943 -1.1173433 -3.1799984
-6.5720463 -1.1143833 -3.1758254
-6.3492975 -0.72351456 -3.1063342
-6.7118139 -0.50242746 -3.2003598
-6.7902904 -0.52310729 -3.2222388
-6.9797568 -0.44534501 -3.2722211
-6.9983568 -0.40581298 -3.2764184
-7.0064402 -0.36546892 -3.2777271
-6.9950724 -0.35294193 -3.2743459
-6.8775578 -0.32510585 -3.2416527
-6.8476119 -0.31751913 -3.2333105
-6.7850547 -0.32482839 -3.2163992
-6.7625151 -0.32621878 -3.210278
-6.5140481 -0.3598313 -3.1432104
-6.4702253 -0.35220397 -3.1310799
-6.4332623 -0.34959471 -3.1209333
-6.3332357 -0.34783792 -3.0935936
-6.2184348 -0.32563379 -3.0617664
-6.1002126 -0.35109687 -3.0300655
-5.9783101 -0.34719267 -2.9967074
-5.9673715 -0.34611982 -2.9936979
-5.9041915 -0.35446718 -2.9766395
-5.6658163 -0.26359481 -2.9095569
-5.611445 -0.22990781 -2.8939676
-5.303781 -0.12164262 -2.8075869
-5.2548122 -0.11605728 -2.7940972
-5.2152147 -0.16179356 -2.7843072
-5.2078819 -0.18685097 -2.7828631
-5.1916285 -0.229323 -2.7793717
-5.1954889 -0.28204161 -2.7815981
-5.2092967 -0.32174665 -2.7862501
-5.227066 -0.4016754 -2.7928779
-5.2942634 -0.47091025 -2.8127587
-5.1962476 -1.0621583 -2.799159
-5.0145092 -1.0606027 -2.7495217
-4.9891009 -1.0613227 -2.7426028
-4.9522276 -1.0639071 -2.7325964
-4.6635876 -0.88149178 -2.6497583
-4.62253 -0.84094226 -2.63765
-4.5884643 -0.7903806 -2.6272278
-4.5689049 -0.35874963 -2.6122875
-4.5186138 -0.32072064 -2.5977154
-4.4703803 -0.31267691 -2.5843718
-4.3992801 -0.30086395 -2.5647032
-4.3763938 -0.29959702 -2.5584285
-4.3141541 -0.29790413 -2.5414035
-4.2798653 -0.29100513 -2.5318913
-4.240531 -0.28808042 -2.5210905
-4.0841422 -0.29330125 -2.4785228
-11.795944 0.10838675 -4.5744123
-11.838322 0.031559408 -4.5876875
-11.646107 -0.31983727 -4.5430422
-11.638296 -0.44941306 -4.5437927
-11.523162 -0.56894547 -4.5150275
-11.490564 -0.64808208 -4.5078912
-11.471407 -0.70301747 -4.5038843
-11.443869 -0.72730464 -4.4969082
-11.400312 -0.77840358 -4.4861569
-11.389161 -0.78523457 -4.4832654
-11.442539 -0.68667549 -4.4956417
-11.051517 -0.28398317 -4.3799601
-11.026661 -0.29708597 -4.3734674
-11.063435 -0.21467644 -4.381671
-11.074617 -0.20534682 -4.3845153
-11.553505 -0.34390843 -4.5183034
-11.636927 0.028702319 -4.5327835
-11.390227 0.23661298 -4.460825
-11.404505 0.27660811 -4.4638324
-11.446796 0.43499035 -4.4718518
-11.569487 0.63579118 -4.5008717
-11.456621 1.1481658 -4.4586687
-11.558913 1.2232805 -4.4849172
-11.573992 1.2498647 -4.488441
-11.537001 1.247336 -4.4784012
-11.466871 1.2546521 -4.4590974
-11.050986 1.2457999 -4.3457847
-2.5042739 -1.1584387 -2.0665655
-2.5295992 -1.1577852 -2.073463
-2.5434194 -1.1563582 -2.0772033
-2.5748041 -1.1328076 -2.0852456
-2.7240245 -1.0839032 -2.1248851
-2.7862148 -1.0808712 -2.1417916
-2.7977192 -1.0816468 -2.144949
-2.8460546 -1.0825419 -2.1581612
-2.9862959 -1.0567625 -2.1958647
-3.025671 -1.054687 -2.2065654
-3.0371346 -1.0528224 -2.2096527
-3.0715044 -1.0497253 -2.2189646
-3.1476498 -1.0575615 -2.2399216
-3.2188721 -1.054378 -2.25929
-3.2442806 -1.0536585 -2.2662086
-3.2950985 -1.0522194 -2.2800469
-3.3548374 -1.0533998 -2.2963779
-3.3662803 -1.0540333 -2.2995152
-3.3891666 -1.0553021 -2.3057899
-3.5251319 -1.0543228 -2.3428779
-3.7113621 -1.1186337 -2.3951373
-3.7827463 -1.0962043 -2.4141216
-3.8310835 -1.0917534 -2.4272156
-3.5618789 -0.67456758 -2.3444598
-3.8883152 -0.30809343 -2.4254036
-3.9851577 -1.0797017 -2.4689999
-4.0025535 -1.0798671 -2.4737515
-4.1270757 -1.0782542 -2.5077021
-4.1646423 -1.0782075 -2.5179543
-4.178947 -1.0789993 -2.5218763
-4.1868134 -1.0794355 -2.5240328
-1.6733541 -1.1495185 -1.8395795
-1.5222406 -1.1715975 -1.7988265
-1.4556937 -1.1510441 -1.7802061
-1.3548183 -1.1284404 -1.7521708
-1.2696705 -1.1279205 -1.7289194
-1.1318083 -1.0585957 -1.6897498
-0.98440123 -1.0589244 -1.6495245
-0.83438253 -1.1103203 -1.6097223
-0.82009125 -1.1107519 -1.6058313
-0.79292536 -1.1104132 -1.5984092
-0.78148174 -1.1097296 -1.5952706
-0.64357662 -1.0843385 -1.5570666
-0.53302002 -1.0845852 -1.5268972
-0.4847908 -1.076486 -1.5135536
-0.38820076 -1.0752845 -1.487164
-0.33305025 -1.0780759 -1.4721736
-0.31447554 -1.0779477 -1.4671011
-0.30303288 -1.0772641 -1.4639628
-0.22247314 -1.0808198 -1.4420542
-0.063601017 -1.0829949 -1.3987408
-1.7469797 -1.1522589 -1.8597355
-1.7838101 -1.1523808 -1.8697906
-1.8321452 -1.1532764 -1.8830028
-1.8436503 -1.1540523 -1.8861603
-1.8689756 -1.1533988 -1.8930578
-1.9311309 -1.1528668 -1.9100103
-1.9656446 -1.1551903 -1.9194821
-2.0416207 -1.1532308 -1.9401752
-2.0761344 -1.1555541 -1.9496468
-2.126785 -1.1542487 -1.9634421
-2.1612985 -1.1565711 -1.9729137
-2.1981294 -1.1566938 -1.9829689
-2.2349598 -1.156814 -1.993024
-2.2717891 -1.156936 -2.0030787
-2.2971148 -1.1562835 -2.0099764
-2.333945 -1.1564035 -2.0200315
-2.3684587 -1.1587284 -2.0295031
-2.4306135 -1.1581967 -2.0464556
-0.71695518 -0.66681224 -1.5678064
-0.3667202 -0.38624039 -1.4659734
-0.34837341 -0.38530904 -1.4609451
0.02042675 -0.66833985 -1.3665825
-0.26887655 -1.0552199 -1.4541498
-0.33208179 -1.0658464 -1.4716372
-0.41367531 -1.0670209 -1.4939331
-11.06039 -1.0848104 -4.4001961
-11.043886 -1.1210661 -4.3964982
-10.709599 -1.1209233 -4.3052564
-10.68515 -1.1042202 -4.2982116
-10.358464 -0.84218633 -4.2032185
-10.669817 -0.48046696 -4.2801514
-10.383983 -0.40052989 -4.2003584
-10.311346 -0.31969273 -4.1787353
-10.304508 -0.31217945 -4.1767015
-10.250587 -0.27843976 -4.1612344
-10.021027 0.028104603 -4.0917597
-10.04029 0.13440955 -4.0946531
-10.014759 0.2701124 -4.0846658
-10.059263 0.44978333 -4.0928154
-9.8733978 0.57595587 -4.0392799
-9.8433456 0.57600892 -4.0310764
-9.7741928 0.2191031 -4.0201411
-9.7478313 0.18845093 -4.013628
-9.7272758 0.11529261 -4.0096455
-9.7161312 0.058113575 -4.0078754
-9.7172222 0.035015702 -4.008687
-9.7154837 -0.0039439797 -4.0090795
-9.7138052 -0.083863497 -4.0103989
-9.9295225 -0.36222792 -4.0754681
-9.9825401 -0.56771386 -4.0945096
-9.9818878 -0.62019092 -4.095499
-9.6581535 -1.0904522 -4.0176015
-9.58424 -1.0853252 -3.9973135
-9.5459099 -1.0826652 -3.986793
-9.3728447 -1.1231816 -3.9404585
-9.4947367 -1.1291378 -3.9738598
-9.5206394 -1.1359363 -3.9810808
-9.6315374 -1.1411299 -4.0114641
-9.7991714 -1.1927519 -4.0583658
-9.9472599 -1.1809089 -4.0985212
-10.021369 -1.171241 -4.1185331
-10.095349 -1.1690676 -4.1386766
-10.154533 -1.1639463 -4.154716
-10.202715 -1.1552198 -4.1676726
-10.297026 -1.1281192 -4.1928105
-10.405462 -1.1246336 -4.2223291
-10.445044 -1.1231462 -4.233099
-10.47946 -1.1198066 -4.2424178
-10.51905 -1.1206596 -4.2532425
-10.563007 -1.1209869 -4.2652473
-10.573991 -1.1216942 -4.268261
-10.63977 -1.120898 -4.2861967
-10.664294 -1.1202344 -4.2928758
-8.3701153 1.2666844 -3.613615
-8.3016367 1.2664511 -3.5949299
-8.2685308 1.2677495 -3.5858655
-8.3454142 1.2708228 -3.606781
-8.4193869 1.270692 -3.6269736
-8.5193577 1.2712244 -3.6542478
-8.5263691 1.2708749 -3.6561689
-8.5892906 1.2664744 -3.6734405
-8.6592073 1.2670602 -3.6925101
-8.6373301 1.2706794 -3.6864586
-3.8933232 -1.0934465 -2.4442408
-3.8818605 -1.0953114 -2.4411535
-3.8908 -1.0954341 -2.4435964
-3.9390955 -1.0959806 -2.45679
-3.955564 -1.0951384 -2.461266
-4.0038586 -1.0956863 -2.4744596
-4.0611143 -1.0938569 -2.490046
-4.1004906 -1.0917838 -2.500747
-8.4153461 1.2660732 -3.6259737
-8.5043249 1.2673343 -3.6502311
-8.8302879 -1.0980511 -3.7918165
-8.7673674 -1.0936856 -3.7745461
-8.8193274 -1.0947893 -3.7887526
-8.4014139 -1.0983125 -3.6747673
-8.4644575 -1.0926814 -3.691849
-8.4904222 -1.0944834 -3.6989758
-8.5713768 -1.0975964 -3.7211404
-8.4973717 -1.0999653 -3.7009945
-8.4713459 -1.1031625 -3.6939623
-11.753378 0.15139663 -4.5618377
-11.781734 0.59068513 -4.5598049
-11.667391 0.63349485 -4.5276442
-8.2194166 1.2671286 -3.572474
-8.1974325 1.2685845 -3.5664415
-8.2454128 1.2677906 -3.5795548
-9.8679838 1.270704 -4.0223475
-10.02718 1.2362103 -4.0665646
-10.038136 1.2351038 -4.0695796
-10.071074 1.2367817 -4.0785327
-10.182032 1.2342304 -4.1088734
-10.192989 1.2331235 -4.1118889
-10.251832 1.2258956 -4.1281099
-10.325894 1.2308577 -4.1482134
-10.352001 1.2369438 -4.1552038
-10.448011 1.2421913 -4.1812916
-10.532963 1.2410487 -4.2045031
-10.569925 1.238534 -4.2146478
-10.606956 1.2410139 -4.2246995
-10.648079 1.2442981 -4.2358503
-10.706522 1.2509609 -4.2516537
-10.616499 1.2576113 -4.2269349
-10.598553 1.2565187 -4.2220612
-10.538433 1.256547 -4.2056513
-10.47821 1.2490796 -4.1893811
-10.441214 1.2490987 -4.1792827
-10.426132 1.2469019 -4.1752152
-10.371244 1.2449402 -4.1602783
-10.31913 1.2402637 -4.1461582
-10.260185 1.2399948 -4.1300764
-10.130935 1.2748657 -4.0940232
-10.119913 1.2730961 -4.0910544
-9.9530106 1.2748441 -4.0454617
-9.9460011 1.2751924 -4.043541
0 0 0 1 0 0 0 1 0 0 0 1 0 0 0 0 0 410 1 0 0
