ply
format ascii 1.0
comment PCL generated
element vertex 427
property float x
property float y
property float z
element camera 1
property float view_px
property float view_py
property float view_pz
property float x_axisx
property float x_axisy
property float x_axisz
property float y_axisx
property float y_axisy
property float y_axisz
property float z_axisx
property float z_axisy
property float z_axisz
property float focal
property float scalex
property float scaley
property float centerx
property float centery
property int viewportx
property int viewporty
property float k1
property float k2
end_header
0.82257605 -0.74040866 2.8256035
0.81015968 -0.78100497 2.8153775
0.76881695 -0.8229605 2.8054302
0.69290304 -0.93716645 2.7775552
0.65251255 -0.98255181 2.7667003
0.569664 -1.0919473 2.7402201
0.48975754 -1.1043251 2.7387602
0.32977819 -1.1008835 2.7431345
0.20977306 -1.0947776 2.7473269
-0.0074524879 -1.1317334 2.7425032
-0.069453239 -1.1645958 2.7353568
-0.4186902 -1.2016847 2.7333739
-0.55866766 -1.2205682 2.7315402
-0.67696023 -1.2296538 2.7317677
-0.71694732 -1.2296863 2.7326303
-0.87746406 -1.2369871 2.7342386
-0.95743489 -1.2347059 2.7365701
-1.077399 -1.2371497 2.7385514
-1.1176162 -1.2249224 2.7425885
-1.1348608 -1.220773 2.7440372
-1.3149936 -1.1640828 2.7626181
-1.3949678 -1.1641479 2.764343
-1.6183012 -1.2026598 2.7592499
-1.6777332 -1.211961 2.7581396
-1.7982202 -1.1840363 2.7679839
-1.838207 -1.1840687 2.7688465
-1.8776231 -1.1745842 2.7721572
-1.9581201 -1.1442807 2.7817457
-2.0769329 -1.1206515 2.7904429
-2.1176555 -1.1214442 2.7911248
-2.1780288 -1.128036 2.7907355
-2.3173835 -1.0951703 2.8022683
-2.3573592 -1.0858178 2.805557
-2.5173187 -1.0953326 2.806581
-2.6378627 -1.1143324 2.8042941
-2.6772866 -1.1118865 2.8057852
-2.788378 -1.1182089 2.8065701
-2.8283708 -1.1137149 2.808603
-2.9082313 -1.1162989 2.8096743
-3.1083097 -1.1080632 2.8161616
-3.1483016 -1.1059153 2.8175879
-3.1882925 -1.1061132 2.8184078
-3.2282863 -1.0992739 2.8210473
-3.2682791 -1.0947802 2.8230801
-3.3082757 -1.0809031 2.8275392
-3.3532705 -1.0693969 2.8314943
-3.513001 -1.0511066 2.8397024
-3.5877657 -0.99720865 2.8552663
-3.6276495 -0.94739068 2.8690157
-4.1477833 -0.93914682 2.8824761
-4.2278399 -1.0499531 2.8555703
-4.2678266 -1.0595343 2.8539639
-4.3879056 -1.0931273 2.8478937
-4.4280171 -1.093483 2.8486753
-4.6279721 -1.0921268 2.8533812
-4.7479568 -1.0645709 2.8631191
-4.7879477 -1.064769 2.863939
-4.8679247 -1.0768938 2.862546
-5.0393162 -1.1194553 2.8552744
-5.1592884 -1.1202612 2.8576791
-5.319252 -1.121336 2.8608854
-5.5190048 -1.1083317 2.8685985
-5.6389723 -1.1114838 2.8703964
-5.7190385 -1.1262333 2.8683267
-5.9189925 -1.1275768 2.8723345
-5.9590845 -1.1350193 2.8712835
-6.0390553 -1.1402488 2.8716731
-6.278995 -1.1442068 2.8758757
-6.3238893 -1.1349893 2.8792369
-6.5587296 -1.1317401 2.8851919
-6.5988207 -1.1391826 2.8841407
-6.6389017 -1.1513171 2.8818765
-6.8386822 -1.1265824 2.8926229
-6.9186687 -1.1247735 2.8948328
-6.9986506 -1.1253111 2.896436
-7.2387972 -1.1412706 2.8975401
-7.318779 -1.141808 2.8991432
-7.3986597 -1.1351717 2.9025989
-7.4586811 -1.1396146 2.9027574
-7.4787531 -1.1381903 2.9035628
-7.5587349 -1.1387277 2.9051659
-7.6184425 -1.1263297 2.909672
-7.7385216 -1.1319928 2.9108231
-7.7786026 -1.1441469 2.9085536
-7.858511 -1.1257751 2.9150441
-8.018362 -1.1243711 2.9188888
-8.0585604 -1.1366765 2.9165828
-8.098546 -1.1392956 2.9167764
-8.2184401 -1.123543 2.9234607
-8.3383961 -1.1314006 2.9240417
-8.3784771 -1.1435544 2.9217722
-8.4184675 -1.1438279 2.9225726
-8.5384283 -1.1493394 2.9237604
-8.6983862 -1.1527784 2.9263554
-8.8183365 -1.162982 2.9263296
-8.8582993 -1.1749845 2.9240968
-9.0982895 -1.1578572 2.9337523
-9.2182617 -1.1586771 2.9361534
-9.2981596 -1.1449969 2.9414306
-9.4582291 -1.1509333 2.9433823
-9.5781803 -1.1611366 2.9433568
-9.6580887 -1.1427648 2.9498472
-9.6979895 -1.1311574 2.9537175
-9.7781181 -1.120126 2.9583149
-10.038143 -1.1408219 2.9586275
-10.183668 -1.1251726 2.9658432
-10.295607 -1.1331975 2.9662063
-10.317905 -1.1166272 2.9709764
-10.365587 -1.086607 2.9797769
-10.380673 -1.0491756 2.9897835
-10.411287 -0.96504861 3.0122015
-10.411287 -0.95263284 3.0154119
-10.398501 -0.89617974 3.0297296
-10.371507 -0.56325036 3.115222
-10.39924 -0.45768142 3.1431212
-10.411671 -0.39258879 3.1602221
-10.451756 -0.30567411 3.1835673
-10.845088 0.0064777955 3.2728426
-10.906843 -0.002917476 3.2717586
-10.931844 -0.0078472272 3.2710285
-10.967491 0.056545258 3.2884538
-10.971886 0.064715087 3.2906618
-10.971893 0.068762839 3.2917087
-10.971857 0.098648548 3.2994349
-11.022675 0.54948735 3.4171081
-11.007741 0.55878597 3.4191871
-10.767617 0.70533097 3.4518468
-10.590654 1.002326 3.5247819
-10.595684 1.0398271 3.5345876
-10.60948 1.1630626 3.5667512
-10.528233 1.2117836 3.5775785
-10.448301 1.2432477 3.5839729
-10.368351 1.3088715 3.5991988
-10.329205 1.323369 3.6020947
-10.248365 1.2954865 3.5931249
-10.088343 1.291883 3.5887077
-9.8882771 1.361563 3.6023662
-9.8668041 1.3734148 3.6049628
-9.8492584 1.3830664 3.6070762
-9.7967196 1.3929322 3.6084826
-9.6443024 1.4313967 3.615108
-9.4618511 1.3901281 3.6004641
-9.4218102 1.394033 3.6006014
-9.3418732 1.3861709 3.5968277
-9.3018131 1.3818858 3.5948472
-9.2619152 1.3818879 3.5939786
-9.2219372 1.3797464 3.5925543
-9.0619259 1.3896732 3.5916357
-8.9819698 1.3853903 3.5887868
-8.7995434 1.427021 3.5955772
-8.7819967 1.4366727 3.5976906
-8.6619778 1.4022207 3.586169
-8.5420465 1.3922577 3.5809808
-8.4220142 1.3896146 3.577683
-8.3820915 1.3943889 3.5780478
-8.2747622 1.4111433 3.5800421
-8.222127 1.3953679 3.5748169
-8.0921545 1.3938174 3.5715852
-7.8622875 1.4732702 3.5871215
-7.8222961 1.4735148 3.5863135
-7.754827 1.4709451 3.5841796
-7.7423363 1.4698286 3.5836189
-7.5823426 1.4296963 3.5697577
-7.5423422 1.4317307 3.5694125
-7.5230589 1.4319546 3.5690503
-7.5023451 1.4331684 3.5689132
-7.4830523 1.4339662 3.5686991
-7.3831377 1.4272754 3.5647931
-7.2432537 1.4183896 3.5594487
-7.1633558 1.4091907 3.5553303
-7.0433712 1.3863704 3.5468166
-6.9634733 1.3771715 3.5426979
-6.9233913 1.3729286 3.5407279
-6.8834267 1.370132 3.5391343
-6.6836653 1.3489377 3.5293036
-6.6432257 1.3609149 3.5315194
-6.5633488 1.3493121 3.5267799
-6.4834719 1.3377092 3.5220401
-6.3637686 1.344656 3.521229
-6.3111973 1.3568902 3.5232472
-6.2837086 1.3664119 3.5251102
-6.2437172 1.3666208 3.5242932
-6.1637344 1.3646932 3.5220528
-6.1237435 1.3649018 3.5212357
-5.9636555 1.2956357 3.4998398
-5.8837776 1.281688 3.494494
-5.7235479 1.2732561 3.4888239
-5.6835361 1.2758684 3.4886279
-5.6437173 1.2762027 3.4878469
-5.6036377 1.276649 3.4870894
-5.5637341 1.2742753 3.4856067
-5.5237422 1.2721393 3.4841833
-5.4836612 1.270241 3.4828193
-5.4437599 1.2725565 3.482549
-5.4036627 1.2701163 3.4810448
-5.3237791 1.2567701 3.4758542
-5.1068344 1.2584345 3.4715593
-5.0668578 1.2574372 3.4704309
-4.9867821 1.2655637 3.4707878
-4.9468603 1.2744749 3.4722223
-4.8672395 1.2885125 3.4741175
-4.8272142 1.2723188 3.469059
-4.7072678 1.2323854 3.4561214
-4.6572614 1.1956856 3.4455433
-4.5473266 1.1545131 3.4325035
-4.50738 1.0742748 3.4108875
-4.5073695 1.0367382 3.4011819
-4.5098476 0.9616527 3.3818223
-4.5123258 0.88656729 3.3624625
-4.5123148 0.84903067 3.352757
-4.5073638 0.80675519 3.3417187
-4.3473077 0.58469003 3.2808166
-4.3076587 0.5569008 3.272768
-4.2677155 0.51479447 3.2610114
-4.247735 0.43684095 3.2404208
-4.1479778 0.10974239 3.1536753
-3.7550201 -0.047198679 3.1045387
-3.5250821 0.15909156 3.1528678
-3.4850068 0.28142086 3.1836236
-3.4050779 0.46949077 3.230509
-3.4002168 0.53506237 3.2473571
-3.467689 0.72777772 3.2986541
-3.4676924 0.76590973 3.3085134
-3.3627257 0.95767289 3.3558083
-3.0276606 1.2997515 3.4369564
-2.9074566 1.3240755 3.4406273
-2.7874799 1.3105793 3.4345248
-2.7476075 1.3082848 3.433063
-2.7223749 1.3086891 3.4326179
-2.6248021 1.3037701 3.4292209
-2.5053742 1.3295383 3.4332821
-2.4659457 1.331773 3.4330013
-2.4259536 1.3365018 3.4333529
-2.3784666 1.3388917 3.4329364
-2.3054416 1.3273771 3.4283688
-2.0645995 1.4005466 3.4420414
-1.9857273 1.4190917 3.4451184
-1.9449062 1.4123132 3.4424767
-1.9046512 1.4006944 3.4385958
-1.8260875 1.3933597 3.4349883
-1.7066977 1.3839381 3.4299519
-1.6255813 1.4030764 3.4331334
-1.5450361 1.4126825 3.4338629
-1.50562 1.4031873 3.4305491
-1.306787 1.4218433 3.4310422
-1.1459997 1.4198675 3.4270294
-1.0255077 1.3919749 3.4171932
-0.86613059 1.3825903 3.4112954
-0.78642488 1.39432 3.4125922
-0.74643779 1.394357 3.4117308
-0.66646361 1.3944309 3.410008
-0.56651402 1.3781013 3.403609
-0.38659763 1.3548079 3.3936677
-0.34717894 1.3476586 3.3909607
-0.30692434 1.3360398 3.3870797
-0.28721666 1.3312922 3.3854229
-0.18704367 1.2610793 3.3650873
0.18412161 1.151603 3.3286974
0.2226181 1.0889089 3.3116491
0.26329756 1.0288718 3.2952402
0.50126982 0.84947658 3.2436736
0.74035454 0.68986988 3.1971993
0.77935171 0.45516777 3.1356666
0.77898502 0.36949527 3.1135235
0.71332979 0.29187799 3.0948853
0.45922184 0.16151625 3.0667143
0.38624382 -0.051427353 3.0132463
0.39488316 -0.18250054 2.9791684
0.68571329 -0.44560403 2.9048073
0.69061327 -0.44737682 2.9042423
0.74353933 -0.47784927 2.8952107
0.80578613 -0.52424133 2.88186
0.81782532 -0.53343105 2.8792219
0.82600307 -0.56167972 2.8717399
0.82668352 -0.58998728 2.8644061
0.83598852 -0.64608008 2.8497005
-6.9288054 -0.060908444 3.1701207
-6.9888096 -0.064376444 3.170531
-6.9288163 -0.071045339 3.1675
-6.7231102 1.2551095 3.505903
-6.9230752 1.2751682 3.5154445
-7.0830917 1.3229098 3.5312736
-7.163487 1.317276 3.5315681
-7.2433805 1.3170965 3.5332618
-7.3083692 1.3237913 3.5364082
-7.4625678 1.2992926 3.5334325
-7.5634003 1.3222239 3.5415578
-7.5825553 1.3279407 3.543453
-7.6622992 1.3404233 3.5484173
-7.7425528 1.3527651 3.5533562
-7.9421797 1.3406215 3.5545645
-7.9825029 1.3330467 3.5534842
-8.022275 1.3274834 3.5529122
-8.1423531 1.3623703 3.5645475
-8.3324013 1.3350816 3.5616314
-8.3823128 1.3232086 3.5596488
-8.4223576 1.3157651 3.5585964
-8.5423241 1.3103397 3.5598066
-8.7022438 1.323597 3.5667174
-8.7822971 1.329983 3.5701122
-8.8297901 1.3320382 3.5716779
-8.9122715 1.3315334 3.573344
-8.9846544 1.3501792 3.5797415
-9.14221 1.3319161 3.5784512
-9.1822071 1.3275361 3.5781898
-9.3821449 1.3616605 3.5913675
-9.4896412 1.3280008 3.585006
-9.7114048 0.94242543 3.4901438
-9.6962633 0.82992226 3.4607258
-9.7311583 0.75464487 3.4420226
-9.7660542 0.63229126 3.4111476
-9.7809181 0.51721835 3.3817186
-9.6905613 0.017114207 3.2504466
-9.5405598 -0.070776276 3.2244549
-9.4606762 -0.088860437 3.2180393
-9.4432106 -0.094745912 3.2161372
-9.3408098 -0.10849325 3.2103522
-9.2608566 -0.11044449 3.2081063
-9.1005859 -0.05424051 3.2191474
-9.0206108 -0.049050968 3.2187474
-8.9406395 -0.041516434 3.2189536
-8.8206482 -0.052491892 3.2135024
-8.7818508 -0.089170054 3.2031739
-8.6029749 -0.29543465 3.1459472
-8.5404215 -0.33016604 3.1356049
-8.1801863 -0.64731109 3.0457594
-8.1403036 -0.66155457 3.041208
-8.1003551 -0.67853075 3.0359488
-8.0854063 -0.68742925 3.0333223
-7.7002783 -0.65603834 3.0330503
-7.5683432 -0.62276596 3.0387795
-7.4483333 -0.61582989 3.0379589
-7.4108715 -0.62060744 3.0359077
-7.4083271 -0.65676051 3.0265048
-7.2081904 -1.0563023 2.9188423
-6.9282532 -1.0546844 2.9131634
-6.6883078 -1.0532979 2.9082959
-6.6083832 -1.0651627 2.9034872
-6.5683894 -1.0672699 2.9020715
-6.4483571 -1.0565882 2.9022188
-6.3283796 -1.0605719 2.8985755
-6.288393 -1.0556638 2.8989737
-6.1285505 -1.0723777 2.8911707
-5.8885546 -1.0516486 2.8913031
-5.6485605 -1.0285809 2.8920403
-5.6137919 -0.52540147 3.0213823
-5.6488023 -0.48506626 3.0325737
-5.7288852 -0.32774878 3.0749931
-5.8889832 -0.13285311 3.1288712
-5.9292183 -0.097571388 3.1388698
-5.9392252 -0.088275142 3.1414914
-5.9315481 -0.05826655 3.1490829
-5.9264898 -0.048249241 3.1515629
-5.8990707 0.026741736 3.1703548
-5.8616462 0.23401546 3.2231314
-5.8585615 0.35504729 3.2543573
-5.8512034 0.45801127 3.2808189
-5.8586369 0.50510186 3.2931564
-5.8508406 0.61863232 3.3223405
-5.8560452 0.67440146 3.3368731
-5.9632912 0.92331928 3.4035678
-6.043272 0.97748822 3.4193156
-6.1232762 1.0539014 3.440815
-6.2832198 1.1347053 3.4651909
-6.4031858 1.1745982 3.4781184
-6.5631609 1.2517962 3.5015626
-0.43478298 -1.0546231 2.7717478
-0.22626781 -0.58812237 2.8878222
-0.22606182 -0.54641747 2.8986006
-0.24437952 -0.44754922 2.9245625
-0.22641802 -0.34413302 2.9509099
-0.34984493 -0.10101476 3.0164576
-0.46942377 0.025025614 3.0516503
-0.54924965 0.064274117 3.0635369
-0.78873801 0.10816011 3.0801001
-1.0282164 0.22590566 3.1157596
-1.1081545 0.2264311 3.1176367
-1.227973 0.28061777 3.1342566
-1.4273891 0.43653327 3.1789126
-1.9145479 0.47600168 3.199728
-1.9875383 0.35677442 3.170491
-2.0027525 0.31624612 3.1603436
-1.9508641 0.030685127 3.0853803
-1.9345155 0.0092273876 3.0794761
-1.9151342 -0.037846129 3.0668831
-1.939677 -0.14088723 3.0407758
-1.931159 -0.23433501 3.0164289
-1.9143584 -0.36639425 2.9819186
-1.6014609 -0.64756602 2.9024053
-1.5439794 -0.64751416 2.9011667
-1.4119074 -0.92068273 2.827661
-1.1945601 -1.0764191 2.7826607
-1.114965 -1.0864954 2.7783217
-1.074975 -1.0841165 2.7780659
-0.99500394 -1.0863976 2.7757342
-0.95501971 -1.0887115 2.7742653
-0.91522479 -1.0880756 2.7735629
-0.87504005 -1.0839541 2.7737532
-0.75412369 -1.0594212 2.7774627
-0.59416556 -1.0498947 2.7764418
-0.47477531 -1.0593503 2.7713966
-2.1650381 0.46623856 3.2026594
-2.5263016 0.20662013 3.1434023
-2.5482533 0.20767948 3.1441545
-2.5886793 0.17142716 3.1356618
-2.6283951 0.11726692 3.1225233
-3.1024675 0.050177813 3.1155028
-3.287467 0.40451142 3.2111468
-3.267487 0.45856696 3.2246878
-3.2476249 0.50778866 3.2369819
-3.0020461 0.7913487 3.3049486
-2.6470532 0.95273703 3.3389444
-2.6270723 0.95164293 3.3382263
-2.5671363 0.95442098 3.3376391
-2.5447149 0.95325023 3.336848
-2.3848789 0.91467088 3.3233919
-2.2653959 0.7962172 3.2901628
-9.7805233 0.020149007 3.2531905
-9.8355255 -0.030902576 3.241189
-9.9006357 -0.10299829 3.2239664
-9.9619446 -0.15699217 3.2113414
-10.331711 -0.22394684 3.2020836
-10.530588 0.0096009746 3.2668002
-10.499908 0.23382178 3.3241053
-10.32757 0.4737215 3.3823788
-10.070229 0.63069111 3.4173589
-9.9009686 0.59512681 3.4044771
0 0 0 1 0 0 0 1 0 0 0 1 0 0 0 0 0 427 1 0 0
