ply
format ascii 1.0
comment PCL generated
element vertex 541
property float x
property float y
property float z
element camera 1
property float view_px
property float view_py
property float view_pz
property float x_axisx
property float x_axisy
property float x_axisz
property float y_axisx
property float y_axisy
property float y_axisz
property float z_axisx
property float z_axisy
property float z_axisz
property float focal
property float scalex
property float scaley
property float centerx
property float centery
property int viewportx
property int viewporty
property float k1
property float k2
end_header
-11.876997 0.10198732 -4.4387951
-11.879324 0.063914016 -4.430573
-11.878563 0.031424269 -4.4236436
-11.870703 -0.014554352 -4.4140539
-11.679005 0.021768495 -4.4279356
-11.640399 0.15073223 -4.4567666
-11.637881 0.16263489 -4.459394
-11.601398 0.44242489 -4.5204363
-11.562945 0.56446892 -4.547781
-11.562925 0.58941889 -4.5531216
-11.563236 0.60597116 -4.556654
-11.245787 1.020689 -4.6555262
-11.004379 0.94467366 -4.6469493
-10.964657 0.9018718 -4.6390548
-10.884369 0.8622092 -4.6331244
-10.804464 0.83994782 -4.6309061
-10.72422 0.84368527 -4.634263
-10.684564 0.84278548 -4.635334
-10.60458 0.84069383 -4.637435
-10.404375 0.75944108 -4.6264248
-10.319538 0.62544423 -4.60045
-10.327357 0.4247849 -4.5572567
-10.35884 0.34972191 -4.5401888
-10.319685 0.37578356 -4.5470138
-10.28033 0.40903717 -4.5553846
-10.228122 0.45518017 -4.5669236
-10.142611 0.49930727 -4.579092
-10.15435 0.52372348 -4.5839438
-10.243212 0.74270177 -4.6279774
-10.285859 0.98602843 -4.6786947
-9.9683609 1.2654263 -4.7486072
-9.9633636 1.2654661 -4.748775
-9.8834877 1.2635218 -4.7509041
-9.7632856 1.2551129 -4.7529345
-9.6834183 1.2605294 -4.7566385
-9.5634546 1.2590964 -4.7601542
-9.4835882 1.2645129 -4.7638583
-9.4433384 1.2707043 -4.7664657
-9.2835102 1.2541597 -4.7680178
-9.1635046 1.2503371 -4.7710233
-8.9236574 1.2522501 -4.7790751
-8.8037348 1.2532065 -4.7831011
-8.7236214 1.2442863 -4.7837443
-8.6037807 1.2500217 -4.7887907
-8.4037018 1.2396686 -4.7929502
-8.0768003 0.94048071 -4.7393351
-8.0526085 0.81667161 -4.7136083
-8.0115547 0.73226601 -4.6968522
-7.9884119 0.69421417 -4.689446
-7.969593 0.65306336 -4.6812387
-7.8879251 0.49557304 -4.650135
-7.8822718 0.45738167 -4.6421418
-7.8597865 0.45756108 -4.6428967
-7.7774639 0.47029126 -4.6482439
-7.7423 0.55668712 -4.6678548
-7.7515717 0.58019871 -4.6725912
-7.7798514 0.63387406 -4.6831775
-7.8039975 0.67916459 -4.692101
-7.8743467 0.74530917 -4.7040157
-7.6839561 1.2334597 -4.8145547
-7.5900817 1.2504778 -4.821188
-7.4703007 1.2359245 -4.8218899
-7.43049 1.2457882 -4.8252697
-7.2705112 1.2422444 -4.8296089
-7.1507106 1.2503364 -4.8351579
-7.0932884 1.2531685 -4.8375936
-6.9110684 1.2641311 -4.845746
-6.7401929 0.71814227 -4.7343397
-6.7798405 0.69872361 -4.7289205
-6.7969623 0.67708957 -4.7237449
-6.7359624 0.43626153 -4.6741471
-6.9715023 0.15855546 -4.6072078
-6.6960554 0.42711687 -4.6734614
-6.3712492 -0.018009618 -4.5885463
-6.0157032 0.073169276 -4.6193891
-5.9728751 0.065059528 -4.6190181
-5.5672202 -0.24068496 -4.5665088
-5.5496826 -0.23899639 -4.5674291
-5.4084496 -0.19132343 -4.5821323
-5.367774 -0.19423316 -4.5828056
-5.3204665 -0.19908163 -4.5832753
-5.1373615 -0.23101 -4.5822763
-5.0473528 -0.22962013 -4.5854416
-4.7059355 -0.00044666231 -4.6453676
-4.6907372 0.0028134733 -4.6465497
-4.5290394 -0.15516967 -4.6178908
-4.0134358 0.049339101 -4.6780882
-3.9741111 0.10064705 -4.6903219
-3.9595156 0.085174486 -4.6874757
-3.9586442 0.061462954 -4.6824288
-3.9723959 0.022249609 -4.6735983
-3.849767 -0.30832544 -4.6067567
-3.8182838 -0.41318232 -4.5853186
-3.8075786 -0.495363 -4.5680718
-3.8076494 -0.5051918 -4.5659661
-3.8283536 -0.75675422 -4.5114675
-3.5075288 -1.0353272 -4.4620705
-3.4775834 -1.0328348 -4.4635582
-3.4375758 -1.0350777 -4.4643531
-3.3180382 -1.0405287 -4.4669952
-3.2776499 -1.0368925 -4.4690604
-3.077785 -1.0361795 -4.4755816
-2.9529035 -1.0333481 -4.4801664
-2.8469312 -1.0400044 -4.4821186
-2.7268653 -1.0485864 -4.4841075
-2.6868887 -1.0482663 -4.4854498
-2.5669265 -1.0496919 -4.4889674
-2.4068108 -1.0545801 -4.4930229
-2.3669424 -1.0552485 -4.4941502
-2.2816095 -1.0726638 -4.4931421
-2.1666479 -1.0822742 -4.4947481
-2.0864148 -1.092573 -4.4951005
-2.0465817 -1.0908562 -4.4967375
-1.944005 -1.0995779 -4.4981394
-1.8464251 -1.1083399 -4.4993734
-1.7658081 -1.1367338 -4.4958653
-1.6459188 -1.1415334 -4.4986582
-1.6058044 -1.1507552 -4.4979625
-1.4456582 -1.1661736 -4.4997659
-1.3254542 -1.1842972 -4.4997172
-1.1654811 -1.1877882 -4.5040669
-1.0852141 -1.2004727 -4.5039101
-0.96532059 -1.1971273 -4.5084462
-0.92530966 -1.1991929 -4.5092793
-0.8055892 -1.1839204 -4.5163622
-0.68583822 -1.179178 -4.521193
-0.52596903 -1.1755127 -4.5270715
-0.49827337 -1.1814606 -4.5266809
-0.46677256 -1.2037613 -4.522912
-0.46656561 -1.2146875 -4.5205803
-0.46646214 -1.217923 -4.5198908
-0.4801054 -1.2396681 -4.5148025
-0.49429655 -1.2457676 -4.5130448
-0.61378384 -1.2610207 -4.5059733
-0.73378801 -1.2574352 -4.5029168
-0.85367298 -1.2610197 -4.4983296
-0.93366194 -1.259426 -4.4961219
-0.9736371 -1.2598242 -4.4947629
-1.01373 -1.2652831 -4.4923172
-1.0936794 -1.2660794 -4.4895992
-1.1336937 -1.2640877 -4.4887505
-1.1736689 -1.2644857 -4.4873915
-1.213644 -1.264884 -4.486033
-1.2535 -1.2663367 -4.4844518
-1.3336091 -1.2575732 -4.4837747
-1.4937868 -1.2424365 -4.4819107
-1.5739751 -1.2288934 -4.482254
-1.6140299 -1.2245116 -4.4819155
-1.7345905 -1.1996979 -4.4833846
-1.7745261 -1.1963708 -4.4828238
-1.8547544 -1.1804377 -4.4836779
-1.8950076 -1.1702217 -4.4845815
-2.0150919 -1.1618564 -4.4825454
-2.0550661 -1.1622546 -4.4811864
-2.095161 -1.155483 -4.4813581
-2.1352148 -1.1511015 -4.4810195
-2.1752696 -1.1467198 -4.4806809
-2.2550616 -1.1448451 -4.4785399
-2.3355269 -1.126803 -4.4798374
-2.4951887 -1.1305046 -4.4739575
-2.5753765 -1.1230768 -4.4729924
-2.6154704 -1.1224204 -4.4718552
-2.6554451 -1.1228186 -4.4704962
-2.7354345 -1.121225 -4.4682889
-2.7754498 -1.1192333 -4.4674401
-2.8550415 -1.1293083 -4.4627476
-2.8950164 -1.1297065 -4.4613886
-3.0534568 -1.0890282 -4.4650459
-3.1599491 -1.0706692 -4.4655819
-3.1887524 -1.0705431 -4.4646912
-3.1999223 -1.0708117 -4.4642777
-3.2398951 -1.0709544 -4.4629736
-3.3483207 -1.0879991 -4.4558711
-3.4283035 -1.0859796 -4.4537544
-3.5085757 -1.0720174 -4.454185
-3.5597134 -1.0697099 -4.4530497
-3.7253294 -1.1219779 -4.4365859
-3.7479026 -1.117902 -4.436739
-3.798173 -1.0959077 -4.4398446
-3.9082103 -1.0798316 -4.4397788
-3.9883111 -1.0742288 -4.4384255
-4.0681219 -1.0805687 -4.434526
-4.1482491 -1.0725777 -4.4336829
-4.267786 -1.0946258 -4.4251552
-4.3479671 -1.0818586 -4.425333
-4.4676762 -1.0955472 -4.4185891
-4.5876899 -1.0889356 -4.4161797
-4.6370859 -1.0908864 -4.4141884
-4.6642551 -1.0861745 -4.414331
-4.7570686 -1.0602633 -4.4169192
-4.8097043 -1.0485228 -4.4177547
-4.8769507 -1.0455569 -4.4162469
-5.2064157 -1.1415962 -4.3851948
-5.2468023 -1.1473947 -4.3826671
-5.4066992 -1.1483999 -4.377357
-5.4466734 -1.1486512 -4.3760295
-5.4871373 -1.1496623 -4.3745236
-5.6066084 -1.1472628 -4.3712306
-5.7669945 -1.1490277 -4.3657422
-5.8469043 -1.1519241 -4.3625765
-6.0736208 -1.1682711 -4.3518538
-6.206748 -1.1493984 -4.3516512
-6.3264489 -1.1326368 -4.3514242
-6.4853692 -1.1770499 -4.3368554
-6.5055666 -1.1816423 -4.3352289
-6.6237411 -1.1982623 -4.3279066
-6.646039 -1.1944331 -4.3280153
-6.8984251 -1.1458086 -4.33038
-6.9660926 -1.1506994 -4.327177
-7.0060668 -1.1509507 -4.3258495
-7.1642261 -1.1664331 -4.3174968
-7.1818786 -1.1700172 -4.3161674
-7.2045746 -1.1746253 -4.3144579
-7.2222281 -1.1782094 -4.313128
-7.2848983 -1.1830689 -4.3100915
-7.404717 -1.2040529 -4.3017826
-7.4850788 -1.2101028 -4.2979269
-7.5246396 -1.2048069 -4.2978001
-7.5642385 -1.1971174 -4.2981839
-7.6680617 -1.1606219 -4.3026862
-7.7263699 -1.1525271 -4.3025608
-7.8480701 -1.1549098 -4.2981734
-7.9278936 -1.1627456 -4.2939529
-7.970366 -1.1630927 -4.2925253
-8.0077581 -1.1681871 -4.2902436
-8.0877066 -1.1688406 -4.2875562
-8.167614 -1.1718882 -4.2843575
-8.2476025 -1.1701475 -4.2821817
-8.3275089 -1.1731952 -4.2789831
-8.4074163 -1.1762428 -4.275785
-8.4473486 -1.1789637 -4.2739301
-8.4873238 -1.1792903 -4.2725863
-8.5672302 -1.1823379 -4.2693882
-8.6470947 -1.1877794 -4.2656789
-8.687068 -1.1881063 -4.2643352
-8.7270842 -1.1860389 -4.2635026
-8.8071156 -1.1819042 -4.2618375
-8.8672857 -1.1704237 -4.2623773
-8.8873148 -1.1681931 -4.2622166
-8.9274969 -1.1565495 -4.2634282
-9.1272421 -1.1653653 -4.2551765
-9.2068987 -1.1827774 -4.2489119
-9.2468309 -1.1854982 -4.2470574
-9.2868052 -1.185825 -4.2457137
-9.3267803 -1.1861516 -4.24437
-9.4066868 -1.1891991 -4.2411718
-9.5263166 -1.206938 -4.2335634
-9.6621532 -1.2298181 -4.2243385
-9.7247591 -1.2347782 -4.221282
-9.8220482 -1.2311249 -4.2189641
-9.9042349 -1.2238885 -4.2178941
-10.086538 -1.177995 -4.2219071
-10.126595 -1.1735336 -4.2215858
-10.166779 -1.1618898 -4.2227974
-10.322718 -1.1531265 -4.2197042
-10.482685 -1.1489918 -4.2154918
-10.562669 -1.1469245 -4.2133856
-10.602676 -1.1446961 -4.2125878
-10.672308 -1.1366856 -4.2120833
-10.762581 -1.1453396 -4.207355
-10.80184 -1.1336945 -4.2085962
-10.962588 -1.1365877 -4.2028551
-11.063896 -1.1307102 -4.2008848
-11.162109 -1.1314892 -4.1975889
-11.202539 -1.1303856 -4.1965365
-11.242222 -1.1198653 -4.1975241
-11.304935 -1.0558099 -4.2092347
-11.332899 -1.0249345 -4.2149515
-11.338118 -1.0163909 -4.2166138
-11.345483 -0.99518692 -4.2209167
-11.345875 -0.99396312 -4.2211666
-11.361082 -0.93201566 -4.2339396
-11.405995 -0.83142686 -4.2540364
-11.388239 -0.81630093 -4.2578392
-11.088717 -0.59021813 -4.3157687
-11.204215 -0.2695092 -4.3807259
-11.074188 -0.26503408 -4.3858266
-11.034184 -0.2637372 -4.3873787
-10.994284 -0.26608488 -4.3881478
-10.753803 -0.28696638 -4.3913412
-10.691195 -0.2961213 -4.391377
-10.194221 -0.44679764 -4.3749652
-10.127058 -0.42725796 -4.3812866
-10.08649 -0.4652192 -4.374455
-9.9919405 -0.58535755 -4.3517561
-9.9920244 -0.59083712 -4.3505807
-9.744112 -1.0598618 -4.2581005
-9.6241856 -1.0592034 -4.262063
-9.1869459 -0.94899744 -4.2995806
-9.1575756 -0.68141133 -4.3577847
-9.1503658 -0.66225171 -4.3621149
-8.9714317 -0.45918673 -4.4112759
-8.9543161 -0.41570443 -4.4211273
-8.9393806 -0.42679495 -4.4192295
-8.8837328 -0.50518262 -4.4042263
-8.5505228 -0.67329806 -4.3788638
-8.4708223 -0.65613049 -4.3850775
-8.4308462 -0.65591097 -4.3863983
-8.333086 -0.67688417 -4.3850245
-8.2580481 -0.7427941 -4.3733096
-7.7530465 -0.47048998 -4.4476786
-7.7245674 -0.37678647 -4.4686403
-7.4425268 -0.49425662 -4.4524865
-7.4025517 -0.49396169 -4.4538231
-7.0154438 -0.49578398 -4.4657679
-7.0028706 -0.4930926 -4.4667444
-6.9879613 -0.49558133 -4.4666872
-6.9472313 -0.58836061 -4.4481282
-6.7196431 -0.72648436 -4.4258194
-6.6446109 -0.7307089 -4.4273062
-6.5809932 -0.75183201 -4.4248123
-6.286696 -0.26947156 -4.5374231
-6.2872138 -0.23841837 -4.5440526
-5.3887849 0.71787179 -4.7773423
-5.3822737 0.72623247 -4.7793388
-5.5513692 1.2411766 -4.8841581
-5.6313591 1.2429485 -4.8819885
-5.7514043 1.2491894 -4.879499
-5.8714499 1.2554303 -4.8770099
-5.9113836 1.252733 -4.8751602
-6.1112547 1.2511907 -4.8684611
-6.1512299 1.2508821 -4.8671217
-6.3113308 1.2615921 -4.8643122
-6.4709425 1.2436366 -4.8553839
-6.661509 0.69745344 -4.732419
-6.580215 0.65954465 -4.7268963
-6.5631733 0.64565229 -4.7244658
-6.5366187 0.57771683 -4.7107725
-6.5776219 0.49139303 -4.6909914
-3.4075682 1.4082018 -4.9882131
-3.4496548 1.4166888 -4.9886885
-3.6062396 1.3354578 -4.9663143
-3.7258792 1.3067451 -4.956357
-3.8457854 1.304279 -4.9520087
-3.9257631 1.3066118 -4.9499598
-4.0457897 1.3452587 -4.9544063
-4.1634769 1.339592 -4.9494438
-4.2464271 1.3432182 -4.9475765
-4.2858939 1.3397765 -4.9455824
-4.3658476 1.3397232 -4.9430237
-4.4081078 1.3363609 -4.9409575
-4.485826 1.3444153 -4.9402046
-4.5482416 1.3396015 -4.9371858
-4.567626 1.3389331 -4.9364252
-4.7257357 1.3373543 -4.9310493
-4.8457885 1.3141855 -4.9222655
-4.8856926 1.3070005 -4.9194565
-5.0051861 1.3106638 -4.9164329
-5.0450654 1.3010927 -4.9131136
-5.2048998 1.293828 -4.906466
-5.2694077 1.2848015 -4.9024787
-5.463273 1.2989889 -4.8993378
-5.4708095 1.3013198 -4.8995967
-5.5900183 1.3301092 -4.9019594
-5.6299524 1.3274119 -4.9001098
-5.6698446 1.3223259 -4.8977504
-5.8304563 1.3390561 -4.8962131
-5.9078455 1.3587147 -4.8979545
-6.1500244 1.3620397 -4.8909497
-6.1901722 1.3562763 -4.8884368
-6.3104749 1.3544643 -4.8842158
-6.3500118 1.3568606 -4.8834686
-6.4702296 1.3687092 -4.882174
-6.5101223 1.3636231 -4.8798146
-6.550015 1.3585372 -4.8774548
-6.5899081 1.353451 -4.8750954
-6.6297593 1.3459764 -4.8722258
-6.7095451 1.3358042 -4.8675065
-6.8442245 1.3481622 -4.86586
-6.8715744 1.3521062 -4.8658323
-7.1090436 1.3183868 -4.8510494
-7.1490993 1.3228557 -4.8507295
-7.3896599 1.3389689 -4.8465128
-7.4692211 1.3394982 -4.8440909
-7.5094171 1.3432388 -4.8436108
-7.6829772 1.3295252 -4.835146
-7.7889543 1.3096075 -4.8275061
-7.8830013 1.3148903 -4.8256402
-8.0034466 1.3223981 -4.8234091
-8.0829144 1.3156856 -4.8194404
-8.1232052 1.3118838 -4.8173428
-8.28298 1.3034402 -4.8104448
-8.3227205 1.3113834 -4.8108788
-8.4030952 1.2918321 -4.8041334
-8.5628424 1.3035978 -4.8015614
-8.6031733 1.3021854 -4.799974
-8.682725 1.3002521 -4.7970252
-8.803009 1.3134398 -4.7960153
-8.8304176 1.3158027 -4.7956476
-8.9228592 1.3150653 -4.7925439
-8.9625998 1.3230087 -4.7929778
-9.0024509 1.3155214 -4.7901058
-9.0823174 1.3101048 -4.7864017
-9.2429705 1.3090316 -4.7810531
-9.3623438 1.3198204 -4.7795582
-9.402442 1.3266699 -4.7797465
-9.5223656 1.3257136 -4.7757206
-9.6425629 1.3188846 -4.7704291
-9.7545938 1.316692 -4.7663903
-9.802104 1.3187029 -4.7653069
-9.8819542 1.3177414 -4.7625566
-10.001936 1.3147194 -4.7580872
-10.089636 1.3296286 -4.7584834
-10.129613 1.3294793 -4.7571774
-10.209962 1.3392333 -4.7567048
-10.229994 1.3376176 -4.7557206
-10.330225 1.3338053 -4.7517114
-10.409861 1.3345561 -4.7493343
-10.489725 1.3270874 -4.7451911
-10.610414 1.3341019 -4.742847
-10.644754 1.3360696 -4.7421737
-10.770334 1.3676803 -4.7449374
-10.777885 1.3655975 -4.7442513
-10.970363 1.3617972 -4.7373047
-10.982998 1.3566134 -4.7357931
-11.010015 1.3456095 -4.7325768
-11.089729 1.3261902 -4.7258811
-11.169764 1.305722 -4.7189503
-11.529497 1.2199688 -4.6891351
-11.570084 1.2153313 -4.6868496
-11.489622 1.1749982 -4.6807814
-11.601955 0.61975706 -4.5583706
-11.681939 0.62184876 -4.5562696
-11.761497 0.60808039 -4.5507884
-11.761675 0.5774796 -4.5442333
-11.761904 0.56926024 -4.5424671
-11.711874 0.48503631 -4.5260358
-0.31009531 1.4261848 -5.0907583
-0.22946453 1.374549 -5.0822763
-0.37688351 1.373888 -5.0774374
-0.40407228 1.3709142 -5.0759349
-0.50920439 1.3637493 -5.0710516
-0.50945568 1.3759793 -5.0736609
-0.50221205 1.4015942 -5.0793738
-0.40493917 1.408254 -5.0838985
-7.7376399 -0.49430835 -4.4430718
-7.754602 -1.0116621 -4.331809
-7.8649902 -1.068664 -4.316092
-7.9048228 -1.0784426 -4.3127303
-3.3289757 1.3784512 -4.9843502
-3.1898067 1.3701698 -4.9870124
-3.1273673 1.3725975 -4.9895215
-3.0873175 1.3713026 -4.9905205
-3.0673776 1.3702515 -4.990931
-2.9537773 1.3491803 -4.9900408
-2.763638 1.3947064 -5.0058427
-2.5639973 1.4129801 -5.0161152
-2.4943137 1.4326141 -5.0225372
-2.4843116 1.4324249 -5.0228157
-2.3640761 1.4203 -5.0240517
-2.3216782 1.4256734 -5.0265527
-2.2839875 1.4113899 -5.0246968
-2.2436962 1.3983661 -5.0231934
-2.1634707 1.3799151 -5.0218005
-2.0831413 1.3543085 -5.0188799
-1.923449 1.3617537 -5.0255618
-1.8433533 1.3609716 -5.0279465
-1.7636476 1.3701711 -5.032455
-1.683764 1.3755724 -5.0361567
-1.6437192 1.3711175 -5.036479
-1.4839177 1.3795348 -5.0433722
-1.4039311 1.3777807 -5.0455456
-1.2843804 1.4049643 -5.0551724
-1.2841687 1.3987809 -5.0538559
-1.2937446 1.3782072 -5.0491476
-1.3231378 1.3455495 -5.0412216
-1.4436274 1.3665111 -5.0418687
-1.6432266 1.3539801 -5.0328269
-1.682888 1.3403255 -5.0286407
-1.8430386 1.3476324 -5.0251017
-1.8828368 1.3435186 -5.022953
-1.9227443 1.3384328 -5.0205932
-2.0026627 1.3354168 -5.0174012
-2.0828199 1.3490973 -5.0177751
-2.1629844 1.3546499 -5.0164089
-2.202673 1.3515083 -5.014472
-2.2776628 1.3533021 -5.0124664
-2.4024849 1.3451607 -5.0067468
-2.5224128 1.3442144 -5.0027227
-2.64217 1.331342 -4.9961519
-2.7219849 1.3211702 -4.9914322
-2.8471427 1.2879149 -4.9803267
-2.8881154 1.2923319 -4.9799666
-2.9215226 1.2957405 -4.9796319
-2.9681418 1.2994368 -4.9789371
-3.0880964 1.3017429 -4.9756088
-3.2081723 1.3159794 -4.9748297
-3.2486351 1.3169814 -4.9737549
-3.2951355 1.3148922 -4.9718261
-3.4082272 1.2858559 -4.962008
-3.4881563 1.2834166 -4.9589391
-3.6077709 1.2990102 -4.9584651
-3.648355 1.2944331 -4.9561925
-3.6871417 1.2883838 -4.9536619
-3.7669742 1.2764001 -4.9485536
-3.8471708 1.2710247 -4.9448476
-3.9272704 1.267778 -4.9416008
-4.0481238 1.2649837 -4.9371519
-4.1276159 1.2662874 -4.9348979
-4.1675205 1.2591027 -4.9320889
-4.292448 1.2590193 -4.9280901
-4.3673797 1.2595015 -4.925806
-4.4068947 1.2579138 -4.9242067
-4.4879417 1.2718483 -4.9246068
-4.608017 1.2860849 -4.9238276
-4.6883111 1.2727439 -4.9184141
-4.7670507 1.2613637 -4.9134693
-4.8096476 1.2586744 -4.9115367
-4.8473449 1.2538594 -4.9093051
-4.9271278 1.263368 -4.9087977
-5.0473261 1.2428423 -4.9005752
-5.1273522 1.2499472 -4.8995457
-5.2708349 1.2253721 -4.8897142
-5.3416963 0.70628905 -4.7763638
-5.3173704 0.57114589 -4.7482157
-5.3355517 0.52715534 -4.7382216
-5.4161563 0.40822119 -4.7101994
-5.4178829 0.53015584 -4.7362404
-5.4415255 0.61109889 -4.7528105
-2.7813325 -0.065694138 -4.692728
-2.7803612 -0.13380285 -4.6781826
-2.7803149 -0.13540667 -4.6778407
-2.7611208 -0.27029383 -4.6495843
-2.7628202 -0.31703433 -4.6395268
-2.7771649 -0.33960694 -4.6342387
-2.8061247 -0.37159646 -4.6264696
-2.825078 -0.39651424 -4.620533
-2.8625526 -0.39664796 -4.6193104
-2.8779972 -0.30940086 -4.6374907
-2.8788569 -0.24161993 -4.6519694
-2.8769116 -0.20343277 -4.6602039
-2.8994043 -0.091414243 -4.6834612
-2.8796771 -0.012597173 -4.7009583
-2.855798 0.063937053 -4.7180986
-2.7855544 0.21718554 -4.7531347
-2.7852516 0.20195617 -4.7498851
-2.7850313 0.18008755 -4.7452116
-2.7849855 0.17848377 -4.7448702
-2.7843947 0.14232536 -4.7371502
-2.7831345 0.050204352 -4.7174749
-2.7852874 0.02632986 -4.712297
0 0 0 1 0 0 0 1 0 0 0 1 0 0 0 0 0 541 1 0 0
