ply
format ascii 1.0
comment PCL generated
element vertex 509
property float x
property float y
property float z
element camera 1
property float view_px
property float view_py
property float view_pz
property float x_axisx
property float x_axisy
property float x_axisz
property float y_axisx
property float y_axisy
property float y_axisz
property float z_axisx
property float z_axisy
property float z_axisz
property float focal
property float scalex
property float scaley
property float centerx
property float centery
property int viewportx
property int viewporty
property float k1
property float k2
end_header
0.24186563 0.14353642 -3.7374914
0.24366188 0.17945644 -3.7253466
0.24083185 0.22716728 -3.7083206
0.2426281 0.26308736 -3.6961758
0.23874712 0.31290743 -3.6782384
0.23585081 0.36057225 -3.661217
0.22427654 0.38391009 -3.6511412
0.24795628 0.73165381 -3.5346451
0.21242476 0.38704917 -3.64802
0.205791 0.33516356 -3.6648703
0.19638157 0.27290401 -3.6848407
0.1962285 0.23908791 -3.696538
0.19912386 0.19142291 -3.7135594
0.19745779 0.15548778 -3.7257316
0.20552444 0.093967706 -3.7484431
0.18344688 -0.03880024 -3.7906852
0.17985439 -0.11064032 -3.8149748
0.16521025 -0.19481899 -3.8416467
0.16341305 -0.230739 -3.8537912
0.15982056 -0.3025791 -3.8780808
0.15159988 -0.36262843 -3.8974891
0.1643362 -0.46972471 -3.9368019
0.15611601 -0.52977407 -3.9562104
0.15649843 -0.57760102 -3.972857
0.15535355 -0.64932501 -3.9975262
0.15818405 -0.69703579 -4.0145521
0.15638733 -0.73295581 -4.0266967
0.15441132 -0.79900789 -4.0492573
0.15582705 -0.82286334 -4.0577703
0.15724277 -0.84671855 -4.0662832
0.14552116 -0.91809571 -4.0890179
0.13316536 -0.93744767 -4.0936079
0.13251352 -0.90164375 -4.0810833
0.1040988 -0.79509532 -4.0392714
0.12357283 -0.73857141 -4.0230155
0.14893007 -0.67345428 -4.0047894
-0.26102352 1.3950579 -3.2173586
-0.22235918 1.3857774 -3.2272072
-0.27449894 1.2867949 -3.2525804
-0.32666349 1.2252052 -3.2649858
-0.40203333 1.1758879 -3.2691567
-0.42080927 1.1891464 -3.2613399
-0.778934 1.3050449 -3.1597376
-0.81718731 1.2956715 -3.1564264
-0.93495035 1.2853322 -3.1398134
-1.0138412 1.2702041 -3.1315274
-1.1350217 1.2962998 -3.101697
-1.1864514 1.2937416 -3.0937629
-1.2524724 1.2926983 -3.0828013
-1.2844148 1.2888688 -3.0786507
-1.40732 1.277524 -3.0615041
-1.475441 1.2793665 -3.0491819
-1.5314345 1.288538 -3.0363989
-1.6098042 1.2846397 -3.0243092
-1.6563363 1.2823251 -3.0171309
-1.7272549 1.2810382 -3.0054138
-1.7702518 1.2863735 -2.9961898
-1.9233885 1.2668005 -2.9767108
-2.0068421 1.2634022 -2.9635758
-2.162957 1.2690812 -2.9348316
-2.2859304 1.277163 -2.9109387
-2.4809997 1.2652178 -2.8816235
-2.6423025 1.269151 -2.8525949
-2.7664907 1.2589139 -2.8348444
-2.8431025 1.264397 -2.8198037
-2.9622164 1.2521348 -2.8036256
-3.0455258 1.253778 -2.7887676
-3.1721539 1.2745576 -2.7598457
-3.2891898 1.278111 -2.7385409
-3.3679969 1.2655374 -2.7293837
-3.4070482 1.2659746 -2.7225344
-3.5249066 1.2538384 -2.7065279
-3.6028914 1.2569544 -2.6920724
-3.7208674 1.2425768 -2.6768229
-3.7600362 1.2407727 -2.6707306
-3.8381386 1.2416472 -2.657032
-3.9212129 1.2477732 -2.64066
-3.999903 1.2374409 -2.6307461
-4.0778875 1.240557 -2.6162906
-4.1221457 1.2417626 -2.6082819
-4.2785854 1.2390292 -2.5823984
-4.4008293 1.2433509 -2.5599341
-4.5138326 1.2237221 -2.547358
-4.5971422 1.225365 -2.5324998
-4.7191505 1.2341696 -2.5085218
-4.9146414 1.2318734 -2.4757893
-5.0322647 1.2242198 -2.4582691
-5.1547432 1.2240589 -2.4373186
-5.2721314 1.220888 -2.4182844
-5.3282347 1.2249178 -2.4072652
-5.36724 1.2250456 -2.4005311
-5.4061379 1.2274132 -2.393039
-5.5236921 1.2165978 -2.3766265
-5.5629129 1.2122461 -2.3714085
-5.6799297 1.2126294 -2.3512061
-5.7633882 1.2181675 -2.3349721
-5.8465242 1.2304249 -2.3164639
-5.9247499 1.2262009 -2.304512
-6.065352 1.2431825 -2.2745099
-6.1251178 1.2343624 -2.2673173
-6.1996007 1.2413055 -2.2521358
-6.2809248 1.2393531 -2.2388647
-6.3596883 1.2239304 -2.2307026
-6.4428248 1.2361877 -2.2121947
-6.5992765 1.2277399 -2.1882901
-6.7171535 1.2102053 -2.1741521
-6.8394027 1.2203506 -2.1496677
-6.9182739 1.2026883 -2.1422639
-7.001195 1.2194252 -2.1222396
-7.079421 1.2152011 -2.1102874
-7.1179967 1.2242881 -2.1005211
-6.9612217 1.2394551 -2.1221514
-11.42259 -0.89065111 -2.0954547
-11.502893 -0.98417532 -2.1141055
-11.501245 -1.0080969 -2.1226811
-11.070912 -1.0261728 -2.2027543
-10.98769 -1.1316924 -2.2536099
-10.942149 -1.1472092 -2.2667999
-10.903151 -1.1474249 -2.2735634
-10.786041 -1.1458325 -2.2930968
-10.585838 -1.1992558 -2.3459547
-10.306379 -1.1433066 -2.3744881
-10.183714 -1.1447562 -2.396029
-10.086633 -1.1448753 -2.4127207
-10.047627 -1.1450402 -2.4194674
-9.9884939 -1.1413554 -2.4283321
-9.7686148 -1.1403358 -2.4656901
-9.7351408 -1.1374037 -2.4704146
-9.6119738 -1.1532441 -2.4970307
-9.4514771 -1.153707 -2.524718
-9.2949047 -1.1431723 -2.5479198
-9.2506971 -1.1531506 -2.5589609
-9.1330204 -1.1402122 -2.5746584
-9.0492573 -1.1391612 -2.58866
-9.0157833 -1.1362293 -2.5933847
-8.8981056 -1.1232909 -2.609082
-8.8145628 -1.1267174 -2.6245985
-8.7313499 -1.1368607 -2.6423869
-8.4357128 -1.3066062 -2.7519398
-8.2128468 -1.2535198 -2.7717593
-7.9921255 -1.343459 -2.8407958
-7.9782267 -1.3583531 -2.8483431
-7.9335794 -1.3593761 -2.8563552
-7.8556781 -1.3619446 -2.8706064
-7.7723546 -1.369849 -2.8876376
-7.6769514 -1.3728786 -2.9050505
-7.6025219 -1.3582556 -2.9127464
-7.5757985 -1.3467995 -2.913358
-7.2940736 -1.285615 -2.940465
-7.2554011 -1.2924157 -2.9494555
-7.208055 -1.3050836 -2.9619677
-7.0884781 -1.3040873 -2.9821308
-6.9991183 -1.3066224 -2.9983358
-6.7462239 -1.2876428 -3.0351298
-6.4898849 -1.146035 -3.0300014
-6.4505544 -1.1394395 -3.0344605
-6.3221941 -1.1420771 -3.05739
-6.2451153 -1.1537919 -3.074671
-6.2004991 -1.1636447 -3.0857391
-6.1833878 -1.1627128 -3.0883508
-6.1540546 -1.1611152 -3.0928278
-6.1218381 -1.1504536 -3.0946569
-6.0594115 -1.1203325 -3.0949214
-5.8890634 -1.1031748 -3.1181896
-5.8522053 -1.1031197 -3.1244919
-5.7691822 -1.1178864 -3.1438506
-5.7560086 -1.1183287 -3.1462634
-5.6419187 -1.1428516 -3.1743326
-5.5553241 -1.1200069 -3.1812646
-5.5358896 -1.1126443 -3.1820455
-5.3339424 -1.1090168 -3.2154238
-5.1984897 -1.0986603 -3.2350647
-5.1693568 -1.1025897 -3.2414236
-5.0234523 -1.0541931 -3.2496696
-4.814796 -1.0777704 -3.2936301
-4.7351766 -1.0729938 -3.3056295
-4.7069817 -1.0427868 -3.299993
-4.1363878 -1.0751511 -3.4090757
-4.0954752 -0.99638498 -3.3887858
-4.0881314 -0.9960475 -3.3899283
-3.8988097 -0.97169423 -3.4139562
-3.6994262 -0.74524534 -3.3696461
-4.0244513 -0.33219779 -3.1707041
-4.0591059 -0.33549663 -3.165904
-4.2496114 -0.39905128 -3.1552639
-4.4760103 -0.42773575 -3.1263785
-4.64643 -0.71560454 -3.1969495
-4.7219229 -0.89274442 -3.2454131
-4.7089281 -1.017378 -3.2908504
-0.94008732 -1.2334149 -4.0121412
-0.86182261 -1.2317204 -4.0249772
-0.70507956 -1.223855 -4.0491333
-0.6225853 -1.2409662 -4.0692139
-0.54431963 -1.2392718 -4.0820498
-0.45693207 -1.2415129 -4.0978146
-0.48265409 -1.15564 -4.0636325
-0.49111223 -1.118029 -4.0491428
-0.65229607 -1.1115658 -4.0192575
-0.73468494 -1.0922163 -3.9984188
-0.85203028 -1.0936385 -3.9787858
-0.93452454 -1.0765274 -3.9587049
-1.1692152 -1.0793719 -3.9194393
-1.2867718 -1.0852712 -3.9013224
-1.3651438 -1.089204 -3.8892441
-1.4433031 -1.0886598 -3.8756504
-1.6043806 -1.0799583 -3.8450074
-1.7696877 -1.052451 -3.8071191
-2.0482168 -1.0474101 -3.757601
-2.2348387 -1.0769459 -3.7358332
-2.3541424 -1.0582956 -3.7089055
-2.4773417 -1.0690974 -3.6915202
-2.5997298 -1.0621506 -3.6681213
-2.725528 -1.0461359 -3.6409936
-2.9085758 -0.70281851 -3.4905763
-2.8503551 -0.54163438 -3.4446819
-2.6552789 -0.40101951 -3.4293904
-2.6550057 -0.3614268 -3.4157112
-2.6586442 -0.29631329 -3.3925133
-2.7898653 -0.28838021 -3.3672574
-3.0347021 -0.26559991 -3.3173678
-3.3668752 0.096698463 -3.1347938
-3.3887577 0.18953058 -3.0988572
-3.402859 0.20006081 -3.092788
-3.4417031 0.20369014 -3.0848677
-3.6836565 0.16130468 -3.0580645
-3.7638962 0.13325584 -3.0540266
-3.9519415 0.10407287 -3.0318923
-4.021728 0.12034908 -3.0142806
-4.091979 0.072867692 -3.0186927
-4.3982186 -0.15333916 -3.0445919
-4.4556026 -0.15770717 -3.0362642
-4.4874768 -0.15801977 -3.030906
-4.605185 -0.1297922 -3.0009317
-4.628747 -0.15994631 -3.0073445
-4.7252474 -0.28389442 -3.0337644
-5.1892047 -0.17119232 -2.9151192
-5.2137785 -0.13739693 -2.899188
-5.2278786 -0.12686349 -2.8931181
-5.2701383 -0.087560743 -2.8722444
-5.3029065 -0.10457091 -2.8725214
-5.7067184 0.0017218888 -2.7664137
-5.7216258 0.013517976 -2.7597673
-5.755168 0.0079902112 -2.7559309
-6.0613437 0.10637093 -2.6693118
-6.1496043 0.13062999 -2.6457639
-6.152492 0.12244222 -2.6481073
-6.439661 -0.31061387 -2.7489884
-6.4787717 -0.31274396 -2.7430189
-6.5594378 -0.31713721 -2.7307069
-6.6674414 -0.29999918 -2.7062418
-6.706223 -0.29543108 -2.6980066
-6.7905622 -0.30745727 -2.6877108
-6.8688931 -0.31395015 -2.6765273
-6.9922338 -0.32587367 -2.6595068
-7.0724888 -0.32774332 -2.6463904
-7.2371593 -0.313997 -2.6133821
-7.354382 -0.31815445 -2.5947185
-7.3940411 -0.3314482 -2.5925252
-7.5892577 -0.34032837 -2.5621223
-7.6283741 -0.34240231 -2.5561326
-7.6543422 -0.37125272 -2.5616806
-7.7141318 -0.46368057 -2.5834694
-7.7112675 -0.47046 -2.5863109
-7.631043 -0.61071318 -2.6486938
-7.6300812 -0.61302483 -2.6496601
-7.8876171 -1.0864203 -2.7696087
-7.9952211 -1.125702 -2.7647719
-8.1067076 -1.1283044 -2.7465532
-8.2143497 -1.1026683 -2.7192035
-8.2485771 -1.1044831 -2.7139626
-8.3928165 -1.1121308 -2.6918755
-8.5964508 -1.0975131 -2.6518822
-8.6405602 -1.0927657 -2.6426713
-8.6826382 -1.0828295 -2.6320097
-8.7624493 -1.0757412 -2.6158638
-8.8457718 -1.0678369 -2.5988328
-9.0073261 -1.0640804 -2.5698223
-9.0854473 -1.0659895 -2.5570855
-9.1702251 -0.52455664 -2.3548393
-9.047718 -0.48556858 -2.362334
-9.0479889 -0.36945888 -2.3220341
-9.0417452 -0.30875531 -2.3020601
-9.024313 -0.2463868 -2.2834277
-9.0465078 -0.14136991 -2.2432137
-9.2091923 0.0051571429 -2.1645129
-9.2622252 0.0011880696 -2.1567931
-9.2776461 0.001527667 -2.1540308
-9.3240948 -0.00093513727 -2.1469178
-9.469223 0.039420277 -2.1080365
-9.5840158 0.035566777 -2.0896845
-9.6702709 -0.13201553 -2.1329889
-9.6882629 -0.15083352 -2.1364267
-9.9117088 -0.36472666 -2.1722569
-9.9205322 -0.36750495 -2.1717067
-9.9838943 -0.3943558 -2.1701484
-10.286842 -0.6241343 -2.1978502
-10.360619 -0.62015462 -2.1838171
-10.409827 -0.62193477 -2.1759944
-10.480394 -0.64398634 -2.1715364
-10.522417 -0.65419996 -2.1678698
-10.553097 -0.66586339 -2.1666515
-10.562207 -0.6696645 -2.1664069
-11.013178 -0.76344669 -2.1215737
-11.350323 -0.82663113 -2.0856547
-11.385121 -0.85633779 -2.0899854
-3.425292 1.3183585 -2.7012448
-3.7090645 1.3229566 -2.6509809
-3.7485859 1.3144283 -2.6471591
-3.8220682 1.3033277 -2.6384046
-4.0322409 1.3212678 -2.5961382
-4.0714092 1.3194637 -2.5900459
-4.1496291 1.3180971 -2.5771043
-4.2278495 1.3167301 -2.5641625
-4.2671351 1.3126849 -2.5588272
-4.3452377 1.3135594 -2.5451286
-4.3891439 1.3214892 -2.5348492
-4.4628611 1.3059058 -2.5276084
-4.5020299 1.3041017 -2.5215158
-4.5804849 1.2982523 -2.510088
-4.6194181 1.300931 -2.5024819
-4.7024927 1.3070569 -2.48611
-4.7808299 1.3034488 -2.4739251
-4.9860301 1.3161376 -2.4343324
-5.0647202 1.3058054 -2.4244182
-5.2023163 1.3098553 -2.399415
-5.3043518 1.3069563 -2.3829198
-5.5049715 1.2689563 -2.3616855
-5.5829825 1.2692119 -2.3482172
-5.7886901 1.2848954 -2.3074992
-5.9054914 1.2897583 -2.2857807
-6.018136 1.2624618 -2.2759242
-6.0846066 1.2655909 -2.2634389
-6.1289525 1.273241 -2.253181
-6.2512012 1.2833863 -2.2286968
-6.3686481 1.2748108 -2.2115266
-6.4256463 1.2728418 -2.2024336
-6.4910045 1.2827164 -2.1878004
-6.5301175 1.2806044 -2.1818244
-6.6083436 1.2763807 -2.169872
-6.6874299 1.2542387 -2.1639843
-6.7222652 1.2441634 -2.1615026
-11.335844 0.90059805 -1.4893357
-11.317163 0.94955564 -1.4755669
-11.274034 0.99979794 -1.4655457
-11.240252 1.0496465 -1.4540578
-11.195303 1.1120961 -1.440117
-11.185522 1.11261 -1.4416162
-11.156487 1.0582502 -1.4654418
-11.146105 1.0388482 -1.4739486
-11.181894 0.92175734 -1.5084038
-11.196903 0.84180439 -1.5335481
-11.200249 0.80967712 -1.5441123
-11.221778 0.57334197 -1.6223536
-11.241529 0.45279446 -1.6607578
-11.241233 0.37211946 -1.6887773
-11.236639 0.3213326 -1.7071722
-11.22266 0.22611532 -1.7425802
-11.208375 0.18541864 -1.7591389
-11.201918 0.16788074 -1.7663267
-11.228088 0.22125152 -1.7433351
-11.243402 0.28434989 -1.7188336
-11.243784 0.3087481 -1.7103097
-11.244089 0.32008055 -1.7063285
-11.249857 0.36775342 -1.6888118
-11.252989 0.40335563 -1.6759319
-11.344244 0.62967002 -1.5818213
-11.432434 0.71144426 -1.5383461
-11.352079 0.85176885 -1.5034795
-3.3125234 1.3335046 -2.7153349
-3.1902802 1.3291829 -2.7377992
-3.1508765 1.3354696 -2.7423778
-3.1166801 1.3425249 -2.7457967
-3.0775115 1.344329 -2.7518892
-3.0064421 1.342122 -2.7648435
-2.8718774 1.3459123 -2.7866085
-2.7938564 1.3374895 -2.8029101
-2.5959759 1.3529117 -2.831502
-2.5038135 1.3238667 -2.857378
-2.3862584 1.3297142 -2.8755128
-2.2732661 1.3472915 -2.8887985
-2.194896 1.3511899 -2.9008882
-2.1574221 1.3575376 -2.9051147
-2.0725703 1.3497993 -2.9223502
-1.9896369 1.3419678 -2.9392893
-1.916039 1.353104 -2.9480515
-1.7983794 1.3611975 -2.9654253
-1.7200093 1.3650959 -2.977515
-1.6809282 1.364799 -2.9843206
-1.5195217 1.363112 -3.0125885
-1.4412556 1.3647642 -3.025439
-1.362782 1.3709085 -3.036768
-1.1528563 1.3522028 -3.0792575
-1.0746942 1.3516092 -3.0928688
-0.88322783 1.3753308 -3.1174834
-0.83916759 1.3722881 -3.1260948
-0.4624486 1.3768284 -3.189132
-0.4278264 1.3905075 -3.1903276
-0.36438465 1.3839482 -3.2034826
-8.6265583 1.3180988 -1.8092649
-8.4703093 1.3218384 -1.8347666
-8.3868837 1.3162485 -1.8510129
-8.264123 1.3171965 -1.871739
-8.1810274 1.304883 -1.8902595
-8.157383 1.3011932 -1.8955941
-8.0641155 1.3020846 -1.9112813
-8.0403643 1.300698 -1.9158356
-7.9272346 1.2925974 -1.9380469
-7.8465548 1.296837 -1.9504144
-7.7672119 1.3017821 -1.9623082
-7.7075295 1.2974361 -1.974051
-7.6500845 1.3035263 -1.9817921
-7.6094069 1.3092985 -1.9867675
-7.5673213 1.3147438 -1.9920979
-7.5942307 1.3201897 -1.9855946
-7.6308217 1.3131471 -1.9817605
-7.686317 1.3105394 -1.9731464
-7.7112727 1.3116952 -1.9684656
-7.7517271 1.3073227 -1.9630432
-7.8295221 1.3121766 -1.9480177
-7.8762751 1.3196934 -1.9373932
-7.9623523 1.3003678 -1.9293299
-8.3924055 1.2820284 -1.8619294
-8.4891043 1.2720143 -1.8488164
-8.5281115 1.2721999 -1.8420618
-8.6455727 1.2637923 -1.8248309
-8.7238073 1.2596811 -1.8128381
-8.8409386 1.2579969 -1.7933327
-8.9191742 1.253886 -1.7813399
-9.0179291 1.2555562 -1.7638233
-9.0361958 1.2544432 -1.7610763
-9.1143208 1.2525733 -1.7483253
-9.1535473 1.2482765 -1.7430872
-9.231781 1.2441654 -1.7310945
-9.2914095 1.2477539 -1.7196236
-9.3490238 1.2402401 -1.712347
-9.3882504 1.2359434 -1.7071087
-9.4869871 1.2373819 -1.6896758
-9.6041155 1.2356374 -1.6701918
-9.6667118 1.2424618 -1.6570901
-9.7109098 1.2523484 -1.6460822
-9.8332319 1.2603652 -1.6223234
-9.9456129 1.2400154 -1.6101038
-9.990799 1.2297312 -1.6059194
-10.029587 1.2343994 -1.5976485
-10.093002 1.2499769 -1.5813715
-10.220625 1.2654536 -1.5541176
-10.30361 1.2800082 -1.5348388
-10.387144 1.2833569 -1.5193509
-10.539936 1.2521132 -1.5039772
-10.558855 1.3109614 -1.4803308
-10.519299 1.3219818 -1.4832946
-10.499519 1.3274919 -1.4847765
-10.478056 1.3240412 -1.4896539
-10.402166 1.3236659 -1.5028
-10.243035 1.335628 -1.5259455
-10.063612 1.3493713 -1.5519539
-10.019525 1.3372434 -1.5637199
-9.9417295 1.3323897 -1.5787452
-9.8632746 1.340983 -1.5892218
-9.78018 1.3286695 -1.6077423
-9.7410622 1.3307251 -1.6137387
-9.6240406 1.330168 -1.6340022
-9.5798435 1.3202815 -1.6450101
-9.5019379 1.3176689 -1.6592773
-9.3063517 1.3279463 -1.6892593
-9.2671261 1.3322432 -1.6944973
-9.1888905 1.3363541 -1.7064903
-9.1396122 1.3145254 -1.7225097
-8.9344158 1.2897124 -1.7663053
-8.8222542 1.3055799 -1.7800411
-8.7487698 1.3283567 -1.784748
-8.7043533 1.3229525 -1.7942395
0.2150507 -0.13279557 -3.8286922
0.22223663 0.010884643 -3.7801132
0.2258296 0.08272469 -3.7558236
-1.6186137 -1.2037114 -3.8854694
-1.4969335 -1.2188563 -3.9115894
-1.4184561 -1.2126851 -3.9229095
-1.1835542 -1.2053636 -3.9606595
-1.8184538 -1.1880225 -3.8457556
-1.9787903 -1.1636522 -3.8098075
-2.0565267 -1.1541544 -3.7931824
-2.2562602 -1.1362271 -3.7527108
-2.3737111 -1.1398878 -3.7338359
-2.4565237 -1.1294919 -3.7160287
-2.5347888 -1.1311862 -3.7031927
-2.5739744 -1.1331527 -3.6971538
-2.7695851 -1.1362692 -3.664685
-2.8568387 -1.1115445 -3.6411486
-3.1023717 -1.086658 -3.5904093
-3.1415401 -1.0884578 -3.5843155
-3.2287648 -1.0614108 -3.559979
-3.5037675 -1.0897012 -3.5226209
-3.5823395 -1.0977843 -3.5119472
-3.7045832 -1.0934644 -3.4894836
-3.7823317 -1.0858557 -3.4735112
-3.8215001 -1.0876555 -3.4674172
-3.9391232 -1.0952966 -3.4498928
-4.0176954 -1.1033796 -3.4392192
0.19888115 -0.45607606 -3.937995
0.20889759 -0.36010671 -3.9064422
0.21069431 -0.32418659 -3.8942971
0.21249151 -0.28826657 -3.8821526
0.2178812 -0.18050638 -3.8457184
-8.3326359 1.2802364 -1.8728019
-8.2546206 1.2798649 -1.8863111
-8.1761665 1.2884582 -1.8967874
-8.1188154 1.2920703 -1.9053717
-8.0979328 1.2925693 -1.9087802
0 0 0 1 0 0 0 1 0 0 0 1 0 0 0 0 0 509 1 0 0
