ply
format ascii 1.0
comment PCL generated
element vertex 278
property float x
property float y
property float z
element camera 1
property float view_px
property float view_py
property float view_pz
property float x_axisx
property float x_axisy
property float x_axisz
property float y_axisx
property float y_axisy
property float y_axisz
property float z_axisx
property float z_axisy
property float z_axisz
property float focal
property float scalex
property float scaley
property float centerx
property float centery
property int viewportx
property int viewporty
property float k1
property float k2
end_header
-10.852058 0.57673663 3.6759148
-10.685886 0.067759871 3.562535
-10.68596 0.028001368 3.5540028
-10.525412 -0.22715069 3.4952462
-10.520397 -0.24385902 3.4915352
-10.485474 -0.29056072 3.480643
-10.362715 -0.4724133 3.4385588
-10.34506 -0.5186379 3.4281981
-10.327368 -0.60312861 3.4096227
-10.285042 -0.66801441 3.3946435
-9.9248371 -0.68204194 3.3826845
-9.7726002 -0.96966159 3.3171651
-9.7725315 -0.99849749 3.3109739
-9.73279 -0.85938424 3.3398471
-9.7328529 -0.83910036 3.3442028
-9.7332134 -0.67491859 3.3794532
-9.7259579 -0.61888087 3.3913014
-9.6936226 -0.50691211 3.4145322
-9.3342133 -0.22157985 3.4668503
-9.254446 -0.21069349 3.4672055
-8.9344482 -0.36239445 3.4266937
-8.9069271 -0.38133216 3.4219451
-8.7538328 -0.60397804 3.3703511
-8.7534409 -0.67465001 3.3551717
-8.7459631 -0.70475459 3.3485239
-8.702673 -1.0731068 3.2683818
-8.6926365 -1.0969493 3.2630146
-8.6527042 -1.1053054 3.2602291
-8.5727577 -1.1301206 3.2529163
-8.4124908 -1.1939622 3.2352316
-8.3315134 -1.169085 3.2385597
-8.2529411 -1.1533414 3.2399874
-8.1605625 -1.1435788 3.2397881
-8.1181583 -1.1351786 3.2405376
-8.0531883 -1.1337112 3.2392387
-7.9731603 -1.1382161 3.2362838
-7.8931427 -1.1095256 3.2404544
-7.8128848 -1.1003613 3.2404277
-7.772964 -1.1015437 3.2391822
-7.692965 -1.1153318 3.2342353
-7.5730014 -1.1144928 3.2314353
-7.4528484 -1.1442071 3.2220724
-7.2411633 -1.120537 3.2218943
-7.1613317 -1.1053853 3.2231636
-7.1213436 -1.1051244 3.2222261
-6.9538202 -1.1125389 3.2164731
-6.9212618 -1.1160631 3.2149079
-6.8813496 -1.1049086 3.2163105
-6.7614541 -1.1003892 3.2143023
-6.7215366 -1.0940064 3.2146807
-6.561511 -1.10147 3.2091033
-6.4816113 -1.0900545 3.2095687
-6.4015999 -1.0956402 3.2063823
-6.2639523 -1.116544 3.1984758
-6.1215005 -1.1108427 3.1961608
-5.9215736 -1.0976088 3.1940351
-5.8016911 -1.0811607 3.1945875
-5.561779 -1.06528 3.1920364
-5.4018135 -1.0658311 3.1879444
-5.3618484 -1.0629114 3.1875782
-5.3219218 -1.0016841 3.1997287
-5.2820072 -0.94734102 3.210402
-5.5624099 -0.62783867 3.2859488
-5.562408 -0.62598461 3.2863467
-5.4233541 -0.22435306 3.3691025
-5.2984347 -0.18536517 3.374368
-5.243547 -0.15741245 3.3790045
-4.9811645 -0.15973023 3.371989
-4.8611822 -0.18119645 3.3644006
-4.8136845 -0.20005947 3.3591719
-4.7411704 -0.24395318 3.3479486
-4.6210499 -0.49404049 3.2912834
-4.6309819 -0.61999583 3.2644939
-4.6209445 -0.66626108 3.2543137
-4.1810069 -0.73724562 3.228148
-3.6610198 -0.9273687 3.1744208
-4.1410613 -0.67608672 3.2402835
-4.1410713 -0.65090573 3.2456889
-4.1410818 -0.63416207 3.2492831
-4.1411014 -0.62132668 3.2520387
-4.1411252 -0.6013155 3.2563348
-3.7014198 -0.32056558 3.3056746
-3.1440303 -0.3979342 3.2752209
-3.2487552 -0.75908095 3.2003024
-3.3012204 -0.79564059 3.193758
-3.501123 -0.84210467 3.1887505
-10.842203 0.63987541 3.6892226
-10.869637 0.58468628 3.6780579
-10.80965 0.65354902 3.691349
-10.436734 0.2954163 3.605212
-10.249496 0.4194985 3.6271949
-10.162115 0.49811387 3.6418991
-9.7578964 0.43081152 3.6174111
-9.508894 0.81723398 3.694171
-9.4164009 0.81585497 3.6915772
-9.3764334 0.81814307 3.6910753
-9.2966785 0.93853712 3.7149367
-9.2967587 0.97504413 3.722775
-8.9774075 1.2645148 3.7769763
-8.8974199 1.2640568 3.7748911
-8.6574402 1.3119079 3.7792008
-8.5774164 1.3283206 3.780736
-8.5374393 1.3357707 3.781342
-8.6174088 1.330438 3.7821839
-8.7773819 1.3436915 3.7890027
-8.8573847 1.325265 3.787035
-8.9773626 1.3216716 3.7892439
-9.034852 1.3260609 3.7916143
-9.0573492 1.3282983 3.7926536
-9.1773167 1.3298668 3.7959704
-9.2573576 1.3254135 3.7970028
-9.3771915 1.332399 3.8014791
-9.4571857 1.3438095 3.8059156
-9.5771389 1.3358104 3.8071785
-9.5771847 1.321835 3.8041797
-9.6167984 1.0167819 3.7396843
-9.6167002 1.0133852 3.7389526
-9.6564054 0.85449207 3.7058327
-9.6563797 0.81924248 3.6982658
-4.5563784 -0.0072253793 3.3941715
-4.5013046 -0.13455883 3.3654714
-4.1811371 -0.52436179 3.2738466
-3.7014217 -0.30784762 3.3084044
-3.3992631 0.17830308 3.4052503
-3.1019993 0.39796752 3.4450169
-3.0221028 0.58376265 3.4829128
-3.0221224 0.62253934 3.4912367
-2.9821825 0.70483798 3.50791
-2.8223033 0.82909924 3.5306108
-2.660012 0.86630583 3.5345657
-2.6125014 0.86690879 3.533515
-2.179038 1.1661767 3.5869846
-2.0790856 1.1520354 3.5814662
-1.9794707 0.99513018 3.5453119
-1.7400594 0.91104686 3.5213161
-1.3396597 1.0725267 3.546031
-1.1002862 0.91239858 3.505713
-1.0203142 0.9125675 3.5037627
-0.98039365 0.83610463 3.4863584
-0.70106149 0.67555833 3.444958
-0.58110428 0.67581171 3.4420323
-0.54111814 0.67589623 3.4410572
-0.16470289 0.32016587 3.3553491
0.16395807 0.16607197 3.3141084
0.18716002 0.17054497 3.314492
0.22129202 0.16328059 3.3120849
0.30679274 0.11115642 3.2987723
0.36585426 -0.15541564 3.2400856
0.38086319 -0.17210269 3.236131
0.38068533 -0.19765086 3.2306514
0.2609973 -0.28739119 3.2143619
0.2355814 -0.74611306 3.1165287
0.34060144 -0.81507915 3.0991163
0.6297574 -0.87548214 3.0789676
0.62006664 -0.94704676 3.0638471
0.61983728 -0.97120744 3.0586667
0.61943769 -0.99888444 3.0527358
0.6169939 -1.0366665 3.0446866
0.5799098 -1.0431273 3.0442209
0.45996046 -1.0555527 3.0445337
0.41997242 -1.0691158 3.0426157
0.25966501 -1.113655 3.0370376
0.17999935 -1.1088817 3.0400414
0.059723854 -1.0866685 3.0477972
0.020158291 -1.0696599 3.0524311
-0.30052853 -1.1152372 3.0506144
-0.62692475 -1.1795158 3.0449252
-0.7071867 -1.2038637 3.0416927
-0.74761105 -1.2120228 3.0409455
-0.98752356 -1.2101331 3.0473111
-1.0270731 -1.2045332 3.0494957
-1.2674265 -1.2131104 3.0536253
-1.3469596 -1.2052023 3.0572984
-1.3869433 -1.2028943 3.0587871
-1.6265414 -0.99279678 3.1098366
-1.8041153 -0.9956916 3.1136265
-2.2660956 -1.0842509 3.1060936
-2.3464952 -1.0805351 3.1088886
-2.4669032 -1.1032115 3.1070123
-2.621181 -1.1240753 3.1063664
-2.7011733 -1.1371349 3.1055503
-2.7411613 -1.1373645 3.1064944
-2.9010861 -1.1448177 3.1088674
-3.0210521 -1.1431144 3.1122131
-3.1010385 -1.1268301 3.1176956
-3.2610056 -1.1038287 3.1266067
-3.5009701 -1.0660592 3.1406751
-3.5634813 -1.0368389 3.1485
-3.5809915 -1.0303357 3.150331
-4.5813928 0.030399159 3.402869
-4.5938358 0.048725769 3.4071119
-4.6614237 0.11000507 3.4219446
-4.7014389 0.15005963 3.4315364
-4.8214655 0.37724876 3.483284
-4.8215199 0.49156994 3.5078244
-4.8215251 0.49408132 3.5083637
-4.8615975 0.65197688 3.5432513
-4.9416938 0.84134138 3.5858881
-4.9417114 0.86449671 3.5908589
-4.9817352 0.9257015 3.6049907
-5.0417085 0.90622699 3.6023004
-5.1016812 0.88675237 3.5996099
-5.1587319 0.87263513 3.597997
-5.2785683 0.84442526 3.5949187
-5.3386278 0.8292402 3.5931511
-5.3985505 0.80640817 3.5897388
-5.4384894 0.79804116 3.5889349
-5.478466 0.78106546 3.5862842
-5.4934564 0.77380306 3.5850978
-5.7183571 0.73318732 3.5819666
-5.9633436 0.80924916 3.6043792
-6.0383835 0.8868351 3.6228971
-6.1583891 0.92691278 3.634481
-6.2784367 1.0077856 3.6548223
-6.4785261 1.1667224 3.6939087
-6.4184804 0.88542438 3.6320364
-6.4184542 0.8471694 3.6238244
-6.3984356 0.843225 3.6224804
-6.3584471 0.84346402 3.6215384
-6.1582961 0.77592468 3.6020689
-5.9981604 0.54328674 3.5481553
-5.9980955 0.46474475 3.5312946
-5.9979854 0.27702552 3.490998
-5.803453 -0.15255907 3.3939552
-5.8025556 -0.5047853 3.3183277
-5.8024583 -0.57609934 3.3030179
-5.8022032 -0.80036098 3.2548738
-6.0819654 -1.0499923 3.2082403
-6.121953 -1.0502533 3.2091777
-6.2019243 -1.0555468 3.2100279
-6.281971 -1.0499469 3.2132185
-6.3619471 -1.050469 3.2150931
-6.6017284 -1.0690506 3.2170613
-6.721837 -1.0552038 3.2230172
-6.8817101 -1.0695273 3.2239141
-6.96176 -1.0615417 3.2276168
-7.0017481 -1.0618026 3.2285542
-7.2822409 -0.59918267 3.3348234
-7.2422619 -0.53161669 3.3483334
-7.2423077 -0.52629936 3.3494759
-6.9302697 -0.18336913 3.415334
-6.9227552 -0.15206054 3.4218678
-6.9228659 -0.13929893 3.4246099
-6.9228344 -0.1284477 3.4269383
-7.0027962 -0.14089854 3.4262521
-7.0077896 -0.14570267 3.4253449
-1.5584018 -0.670789 3.1772628
-1.8821123 -0.31091636 3.2625508
-1.9833727 -0.31382638 3.2644417
-2.1858573 -0.77555686 3.1703615
-2.0662038 -0.87740231 3.1455281
-1.562995 -0.70099097 3.1708941
-9.2947788 -0.1368134 3.4840658
-9.4147511 -0.13286994 3.4878926
-9.6845627 -0.028477192 3.5170031
-9.775198 0.2806313 3.5856047
-9.7752686 0.3204118 3.5941453
-7.2823057 -0.55649775 3.3439872
-7.5622382 -0.62482518 3.3362749
-7.7340975 -0.66526312 3.3318641
-7.774044 -0.66959423 3.3319268
-8.1326656 -0.57758015 3.3605864
-8.1739941 -0.56498301 3.3643172
-8.2541103 -0.52157062 3.3756258
-8.4067249 -0.38009101 3.4097855
-8.4392767 -0.34205824 3.4187579
-8.5750256 -0.11264902 3.4713728
-8.5952206 0.011556208 3.4985352
-8.5977821 0.049798787 3.5068076
-8.5979261 0.096161827 3.5167627
-8.6079559 0.14865081 3.5282788
-8.6155243 0.16060324 3.5310323
-8.7755032 0.22253163 3.5482993
-8.8005943 0.23192541 3.5509391
-8.8380833 0.23166813 3.5518153
-9.0154419 0.18915932 3.5470965
-9.017889 0.18410777 3.546073
-9.0278301 0.14576899 3.5380907
0 0 0 1 0 0 0 1 0 0 0 1 0 0 0 0 0 278 1 0 0
