ply
format ascii 1.0
comment PCL generated
element vertex 457
property float x
property float y
property float z
element camera 1
property float view_px
property float view_py
property float view_pz
property float x_axisx
property float x_axisy
property float x_axisz
property float y_axisx
property float y_axisy
property float y_axisz
property float z_axisx
property float z_axisy
property float z_axisz
property float focal
property float scalex
property float scaley
property float centerx
property float centery
property int viewportx
property int viewporty
property float k1
property float k2
end_header
0.63790131 -0.12562564 0.079977751
0.63570404 -0.24692798 0.044490337
0.28993273 -0.63588041 0.012343884
0.28289461 -0.81571555 -0.03935647
0.28537369 -0.85238647 -0.050842285
0.26314688 -1.0753504 -0.1116873
0.224751 -1.0799564 -0.10380042
0.14896631 -1.0729994 -0.083468318
-0.054353714 -1.0823164 -0.037228584
-0.38670588 -1.0293953 0.058591366
-0.13863087 -0.65256745 0.11068559
-0.1293273 -0.56531531 0.13434994
0.031569481 -0.36735374 0.1543479
0.10805702 -0.32479215 0.14854944
0.16764355 -0.26669723 0.15143681
0.19022417 -0.24421214 0.1526705
0.22694302 -0.21322204 0.15302181
0.24980307 -0.19042732 0.15427995
0.27904177 -0.18946712 0.14751768
0.63080311 -0.11534044 0.084742546
-1.0309052 -1.0948975 0.19441366
-0.82545233 -1.104054 0.1421746
-0.74865913 -1.0948447 0.12639964
-0.59478569 -1.0718074 0.096151829
-0.51089621 -1.0729145 0.075603247
-0.47264433 -1.0706193 0.067064881
-2.0668693 -1.0038915 0.47113311
-1.8137412 -1.0771492 0.38837004
-1.7384229 -1.0683148 0.37283921
-1.8078992 -1.0747844 0.3876642
-1.5022469 -1.0717872 0.31488276
-1.4332719 -1.0638082 0.30062687
-1.395164 -1.0638222 0.29143763
-1.3046122 -1.0821737 0.26416302
-1.3427196 -1.0821598 0.27335227
-1.4187908 -1.0798224 0.29238164
-1.4568987 -1.0798085 0.30157089
-0.5472436 -1.0351882 0.095565677
-0.7133913 -1.0378622 0.13481832
-0.78471756 -1.0524995 0.14766395
-0.93048573 -1.069688 0.1776948
-1.0140862 -1.0639621 0.19954503
-1.159277 -1.0719132 0.23217952
-1.1976728 -1.0765179 0.24006689
-10.843565 0.71181619 3.0960038
-11.0732 0.61779988 3.1234374
-11.073339 0.61549067 3.1227856
-11.015746 0.53174078 3.0840368
-10.963895 0.13262197 2.9530327
-10.975613 0.08113724 2.9405704
-10.945292 0.049374163 2.923831
-10.926146 0.030470178 2.9136033
-10.726324 -0.21156453 2.7935753
-10.636131 -0.61123109 2.6531675
-10.736195 -0.79426813 2.6229382
-10.732091 -0.81979692 2.6143694
-10.663695 -0.92364025 2.5670507
-10.637635 -1.0116594 2.5346348
-10.549757 -0.99504995 2.5183854
-10.511982 -0.98177373 2.5132222
-10.507231 -0.91861331 2.5308306
-9.9260235 -0.87404573 2.4039757
-9.9494133 -1.086486 2.3465354
-9.9498215 -1.0934139 2.3445768
-9.965559 -1.1765313 2.3236909
-9.9258347 -1.1736064 2.3149846
-9.6971283 -1.1379721 2.2704401
-9.5296059 -1.1529549 2.2256136
-9.4156342 -1.1545739 2.1976624
-9.3774614 -1.1520346 2.1892157
-9.2927475 -1.143361 2.1713724
-9.1860561 -1.1301007 2.1495938
-9.1017504 -1.1283549 2.129792
-9.0100279 -1.1391792 2.1044703
-8.8961926 -1.1431078 2.075866
-8.773715 -1.1388226 2.0476177
-8.6976423 -1.1383624 2.0294187
-8.5829887 -1.1284349 2.0047314
-8.4995003 -1.140545 1.9810125
-8.3868895 -1.1652571 1.9465324
-8.0159197 -1.3692133 1.796559
-7.942646 -1.4740125 1.7477809
-7.8559494 -1.3739353 1.7565995
-7.8382969 -1.3566593 1.7574742
-7.5631547 -1.2269527 1.7296693
-7.4616127 -1.2323009 1.7036067
-7.2817883 -1.2284203 1.6614159
-7.3663898 -1.1891692 1.6934618
-7.4339838 -1.1721624 1.7148036
-7.4634757 -1.1661075 1.7237097
-7.6455607 -0.71480978 1.9015968
-7.416172 -0.43809643 1.9284691
-7.3175168 -0.38177481 1.9214132
-7.307477 -0.37842119 1.919989
-7.2291431 -0.36247176 1.905844
-7.2949786 -0.33309066 1.9304361
-7.5047731 -0.34428525 1.977679
-7.6151896 -0.32825801 2.0090513
-7.7876282 -0.3507762 2.0439281
-7.8255281 -0.34869695 2.0536804
-7.9095621 -0.34582415 2.0747881
-8.0158453 -0.35215664 2.0985253
-8.1071587 -0.33440429 2.1258056
-8.1836395 -0.34179237 2.142046
-8.4129448 -0.36164707 2.1914201
-8.5810127 -0.35590142 2.2336354
-8.6446629 -0.37007457 2.2447686
-8.7015247 -0.38462061 2.2541552
-9.2099009 -0.38163584 2.3775752
-9.2411242 -0.34690911 2.3954117
-9.3487425 -0.34100479 2.423104
-9.7687054 -0.50851899 2.4745893
-9.9751377 -0.029133379 2.6666846
-9.8466778 -0.53258538 2.4862373
-9.8465481 -0.53899992 2.4843011
-9.9239826 -0.83940625 2.4137688
-10.435519 -0.63468939 2.5978489
-10.438509 -0.58732116 2.6126337
-10.441226 -0.53533435 2.6287246
-10.44092 -0.46092513 2.6507444
-10.463407 -0.40495837 2.6727819
-10.435917 -0.16841871 2.7363894
-5.2989616 -1.1225489 1.2149312
-5.2142467 -1.113868 1.19709
-5.1312652 -1.109087 1.1785085
-5.0544138 -1.1209034 1.1564766
-4.8181777 -1.1012243 1.1053798
-4.5888309 -1.0896336 1.053542
-4.4543056 -1.125836 1.0103682
-4.3708591 -1.1341702 0.98778051
-4.2872648 -1.1402013 0.96584111
-4.2419205 -1.148548 0.95243347
-4.1965752 -1.1568948 0.93902558
-4.1129818 -1.162926 0.9170863
-3.9623461 -1.1905129 0.87258756
-3.9240971 -1.1881973 0.86405599
-3.8966966 -1.1792771 0.86010015
-3.709204 -1.1717565 0.81714195
-3.6256099 -1.1777877 0.79520249
-3.503767 -1.1815032 0.76473159
-3.319618 -1.1592627 0.72694987
-3.2360244 -1.1652936 0.70501059
-3.1595261 -1.1606623 0.68794733
-3.0830283 -1.1560311 0.67088425
-2.8761837 -1.1140631 0.63348967
-2.8308389 -1.1224098 0.62008196
-2.7949805 -1.120239 0.61208361
-2.7543409 -1.1177787 0.60301876
-2.5604496 -1.0365093 0.58041573
-2.4683697 -1.0256445 0.56144762
-2.4123228 -1.0202813 0.5495311
-2.3344879 -1.0176235 0.53155982
-2.6344018 -0.68968666 0.70121878
-2.472069 -0.47350204 0.72628129
-2.411236 -0.414621 0.72910166
-2.3312771 -0.35459405 0.72765237
-2.369097 -0.34995538 0.73814541
-2.4672573 -0.31995836 0.7707116
-2.5341229 -0.29417902 0.79448265
-2.5435421 -0.29244182 0.79726875
-2.6705184 -0.28754008 0.82932919
-2.7928038 -0.29073393 0.85785526
-2.8312013 -0.28777701 0.86798823
-2.8451011 -0.28931177 0.87088275
-2.9457996 -0.29999653 0.89198154
-2.9912922 -0.29395288 0.90474111
-3.1131351 -0.29023743 0.93521208
-3.2659836 -0.29719689 0.96998662
-3.3494298 -0.28886271 0.99257421
-3.5095217 -0.28746289 1.0315768
-3.5792189 -0.30736274 1.0424671
-3.746702 -0.29990679 1.0850494
-3.9069414 -0.30081007 1.1234035
-3.9824781 -0.28052616 1.147633
-4.0589762 -0.2851575 1.1646961
-4.1807137 -0.30210415 1.1890066
-4.2362866 -0.31464529 1.1986775
-4.5637479 -0.28667158 1.2859113
-4.5860553 -0.3028914 1.2864722
-4.4161997 -0.48241633 1.1922274
-4.3531103 -0.61422431 1.1378846
-4.5715752 -1.0507245 1.0609357
-4.6863222 -1.0576714 1.0865304
-4.8677015 -1.0242845 1.1401615
-5.135592 -1.042797 1.1992342
-5.3109589 -0.68002832 1.3492161
-5.3275933 -0.63972342 1.3651928
-5.3549023 -0.62464261 1.3762528
-5.3722296 -0.61353564 1.3837271
-5.4487095 -0.62091494 1.3999699
-5.5401607 -0.60549247 1.4265916
-5.7004023 -0.60538566 1.4652462
-6.0525885 -0.42406178 1.6039722
-6.1272855 -0.38376653 1.6339408
-6.1724029 -0.3743861 1.6476007
-6.2115188 -0.37564015 1.6566564
-6.3639178 -0.34800678 1.7015941
-6.3853893 -0.34943262 1.706346
-6.4583783 -0.35226423 1.7230977
-6.532897 -0.35232633 1.7410405
-6.6035123 -0.37264955 1.7520264
-6.6324415 -0.38273245 1.7560054
-6.6285291 -0.40238675 1.7492267
-6.6258411 -0.4091455 1.746572
-6.6122322 -0.45504284 1.729664
-6.7628994 -0.98424697 1.6088481
-6.7639799 -0.98527586 1.608803
-6.8850722 -1.109651 1.6010605
-6.938755 -1.1454587 1.6033676
-6.7226505 -1.2663873 1.5153739
-6.5896101 -1.2695072 1.482381
-6.5490775 -1.2701743 1.4724133
-6.2894306 -1.1767653 1.4375657
-6.1683054 -1.1781262 1.4079669
-6.1414733 -1.17767 1.4016351
-6.103941 -1.1805693 1.3917277
-6.0452919 -1.1820486 1.3771523
-5.9738145 -1.1903324 1.3574646
-5.6871448 -1.1191745 1.3094969
-5.5459661 -1.1189303 1.2755411
-5.4888678 -1.1190561 1.2617413
-5.3751688 -1.1253091 1.2324799
-5.3288984 -1.123782 1.2217808
-8.5272141 1.2432004 2.6954732
-8.611928 1.2345623 2.7133269
-8.6875906 1.2410282 2.7334836
-8.8140202 1.2503126 2.7667136
-8.8549719 1.258383 2.7789805
-8.9686699 1.2646189 2.8082366
-9.0071144 1.2574626 2.8153777
-9.1289082 1.2647556 2.8468995
-9.0141191 1.2769897 2.8228643
-8.8924608 1.2673881 2.7906902
-8.7852221 1.2899143 2.7715311
-8.7546005 1.3027455 2.7679601
-8.621954 1.2954705 2.7338281
-8.5257034 1.3156701 2.7166266
-8.3096199 1.353039 2.6756396
-8.0289183 1.3579109 2.6094289
-7.8252654 1.32822 2.5515265
-7.7980781 1.328679 2.54511
-7.7396069 1.3355715 2.5330634
-7.6936111 1.3324357 2.5210457
-7.6062403 1.3461562 2.5040607
-7.5103006 1.3554225 2.4836879
-7.3239288 1.3434101 2.4352
-7.2478571 1.3438703 2.4170012
-7.2105017 1.3325539 2.4046373
-7.169548 1.3245149 2.3923793
-7.026402 1.3340375 2.3607044
-7.0097275 1.3317833 2.3560159
-6.8757033 1.3332993 2.3241622
-6.8519821 1.332577 2.3182304
-6.6526709 1.376195 2.2831414
-6.6440969 1.3747472 2.2806449
-6.603641 1.3639843 2.2676983
-6.5223131 1.3498209 2.2438903
-6.3712568 1.3322669 2.2022693
-6.2187042 1.3401151 2.1678298
-6.0587349 1.335393 2.1278703
-5.9749737 1.3279016 2.1054573
-5.8529043 1.3252589 2.0752501
-5.769279 1.3154581 2.0521839
-5.6547627 1.3230762 2.026844
-5.6161819 1.3325434 2.0203559
-5.5397015 1.3399315 2.0041156
-5.4179044 1.3326701 1.9726027
-5.1589231 1.358493 1.917848
-5.1137171 1.348194 1.9038939
-4.9537539 1.3447835 1.8643255
-4.8769617 1.3539954 1.8485515
-4.8317556 1.3436967 1.8345976
-4.7030897 1.3253949 1.7981511
-4.5881901 1.3345931 1.773188
-4.4876299 1.3620517 1.7571031
-4.3352747 1.3321596 1.7115054
-4.3140459 1.3288316 1.7054005
-4.2378292 1.3288039 1.6870219
-4.0961246 1.357226 1.6613059
-4.0464249 1.3425944 1.6449823
-3.834013 1.3209096 1.5873462
-3.7954731 1.3278255 1.5801104
-3.6878152 1.3449991 1.5592607
-3.5733464 1.3472677 1.532344
-3.5201781 1.3405428 1.5175321
-3.4513478 1.3461808 1.502616
-3.3609345 1.325583 1.4747078
-3.3229704 1.3232592 1.4648675
-3.2151682 1.3427428 1.444669
-3.1770599 1.3427291 1.4354796
-2.9339261 1.3266959 1.3721167
-2.8574216 1.3312882 1.3550403
-2.761647 1.3393377 1.3343458
-2.697171 1.3324974 1.3167742
-2.5941539 1.3325715 1.2919661
-2.5172181 1.3440934 1.2768434
-2.47911 1.3440797 1.2676541
-2.4408579 1.3463757 1.2591159
-2.3190031 1.342979 1.2287368
-2.1134024 1.3361993 1.1771679
-1.9212782 1.361539 1.1383841
-1.8281825 1.364826 1.1169213
-1.6856742 1.3488616 1.0778325
-1.5635319 1.3500844 1.0487556
-1.411099 1.3500293 1.0119984
-1.2821455 1.3363475 0.97685438
-1.1297121 1.3362924 0.94009715
-1.0911727 1.3432083 0.93286139
-0.96960592 1.3351917 0.90117991
-0.89324522 1.3374741 0.88345242
-0.8028326 1.3168763 0.85554439
-0.75023985 1.3009119 0.83812785
-0.32565498 1.3494943 0.75021541
-0.24884224 1.3590263 0.73453146
-0.011633873 1.372555 0.68137419
0.18676472 1.3743989 0.63410181
0.23193932 1.3640974 0.62015462
0.30794668 1.3597922 0.60055637
0.43114424 1.3797786 0.57679641
0.38645887 1.259048 0.55171955
-0.085000992 1.1340904 0.62825298
-0.1274972 1.0109004 0.6019184
-0.14522028 0.89470518 0.57168949
-0.17115593 0.85857439 0.56721282
-0.25330591 0.65900922 0.5277586
-0.28439331 0.52559376 0.49563789
-0.29234982 0.64286542 0.53237593
-0.30919743 0.68945146 0.55026889
-0.3142972 0.73804772 0.56592739
-0.3178792 0.82674873 0.59312779
-0.32696867 0.86925232 0.60793883
-0.32668114 0.87387204 0.60924113
-0.31797886 0.99729443 0.64379019
-0.32442808 1.0342987 0.65633196
-0.72170258 1.262081 0.81971997
-0.80501747 1.2723938 0.84286326
-0.8958621 1.286062 0.86881799
-0.9417882 1.2848116 0.87951618
-1.0422034 1.2596627 0.8962521
-1.0797372 1.2689159 0.90804625
-1.2085457 1.2849078 0.94384122
-1.3233023 1.2780195 0.96945572
-1.3687968 1.2836986 0.98210746
-1.4447255 1.2883458 1.0017884
-1.618885 1.3123268 1.0508864
-1.719445 1.2848681 1.0669713
-1.7578409 1.280262 1.0748582
-1.8865061 1.2985638 1.1113044
-2.00155 1.2870556 1.1356164
-2.1161625 1.2824771 1.161882
-2.1545587 1.2778713 1.169769
-2.2313509 1.2686592 1.1855431
-2.3149533 1.2743521 1.207384
-2.3914578 1.2697599 1.2244604
-2.4679618 1.2651675 1.2415365
-2.609231 1.2627974 1.2748828
-2.7121031 1.2650317 1.3003414
-2.8137767 1.2554566 1.3220047
-2.8536596 1.2580415 1.3323852
-3.0060928 1.2580966 1.3691424
-3.1657679 1.2661268 1.4100132
-3.3397834 1.2924175 1.4597623
-3.378036 1.2901214 1.4683006
-3.5236583 1.2752717 1.4989907
-3.6385584 1.2660732 1.5239538
-3.7598381 1.2787095 1.5569378
-3.798234 1.2741036 1.5648247
-3.8508263 1.290068 1.5822412
-4.0035472 1.2855031 1.617696
-4.1568437 1.271699 1.6505463
-4.2024817 1.2750683 1.6625469
-4.278986 1.270476 1.6796231
-4.3170938 1.2704897 1.6888124
-4.3858509 1.2755675 1.7068925
-4.4763379 1.2854496 1.7316366
-4.6817951 1.2945393 1.7838569
-4.8035064 1.300246 1.8148873
-4.9498477 1.2738466 1.8423214
-5.0522399 1.2685888 1.8654399
-5.1077366 1.2717333 1.8797498
-5.1360011 1.2760804 1.8878531
-5.296515 1.2715652 1.9252011
-5.3346872 1.2690258 1.9336476
-5.4183121 1.2788265 1.9567139
-5.5024819 1.2793901 1.9771686
-5.608901 1.2707483 2.0002527
-5.6470733 1.2682089 2.0086994
-5.7468672 1.2684709 2.0328305
-5.8827066 1.2793987 2.0688167
-5.9623771 1.275661 2.0869098
-6.0823455 1.256179 2.1100411
-6.1739316 1.2693127 2.1360157
-6.2810321 1.2491245 2.1558356
-6.3266211 1.2591553 2.1698022
-6.440865 1.2561558 2.1964478
-6.5250344 1.2567192 2.2169027
-6.6013789 1.2516406 2.2337959
-6.7768621 1.2699564 2.2815309
-6.875865 1.2487445 2.2990954
-6.9217262 1.2541566 2.3117561
-6.9596262 1.256236 2.3215084
-7.0891123 1.2714489 2.3572354
-7.1353817 1.2699331 2.3679378
-7.2345204 1.2464119 2.3848493
-7.2805176 1.2495148 2.3968573
-7.4594932 1.248746 2.4397674
-7.5496883 1.2561734 2.4637122
-7.5544596 1.2558559 2.4647682
-7.694849 1.2645836 2.5011976
-7.771739 1.2502706 2.5154805
-7.8557711 1.2531765 2.5365975
-7.9705601 1.2409421 2.5606325
-8.0626888 1.244905 2.5840149
-8.2151051 1.2393669 2.6191072
-8.2988644 1.2468899 2.6415296
-8.3749352 1.2464296 2.6597283
-8.4126978 1.2508171 2.6701326
-8.4507341 1.2505869 2.6792321
-1.1381326 -1.105172 0.21720779
-1.2286844 -1.0868205 0.24448252
-1.6239552 -1.0660474 0.34592235
-1.7004595 -1.0706382 0.36299908
-1.6165705 -1.0717453 0.34245062
-10.952055 1.2783362 3.2903643
-10.95302 1.283601 3.2921598
-10.703735 1.3245969 3.2442474
-10.556426 1.3992577 3.2309098
-10.533703 1.4214454 3.2320209
-10.411627 1.4186621 3.2017703
-10.330537 1.4239687 3.1838009
-10.238968 1.4252484 3.1621101
-10.157816 1.4336998 3.1450596
-10.073509 1.4178978 3.1200471
-9.699934 1.3867396 3.0207529
-10.083556 1.4078144 3.1194749
-10.235779 1.3194187 3.1299186
-10.449509 1.2822434 3.1703959
-10.612523 1.0398395 3.1377125
-10.604368 0.9192071 3.0999289
-10.599382 0.88273001 3.0878963
-10.606361 0.80452299 3.0663571
-10.595788 0.72498775 3.0401931
-10.598616 0.65782559 3.0209327
-10.582359 0.47040001 2.9613643
-10.555624 0.41572073 2.9386849
-10.561713 0.30086294 2.9060493
-10.451674 0.053558201 2.8060968
-9.9847565 0.090056032 2.7043929
-9.9363089 0.15247333 2.7112484
-9.9372492 0.13002029 2.7048082
-9.9652538 0.017745823 2.6782217
-10.909058 1.2281321 3.2650938
-10.741751 1.0021157 3.1576591
-9.5795193 1.3562969 2.9826903
-9.5399704 1.381902 2.9807606
-9.5844555 1.3927745 2.9947112
-9.6192589 1.3958672 3.0040181
0 0 0 1 0 0 0 1 0 0 0 1 0 0 0 0 0 457 1 0 0
