ply
format ascii 1.0
comment PCL generated
element vertex 529
property float x
property float y
property float z
element camera 1
property float view_px
property float view_py
property float view_pz
property float x_axisx
property float x_axisy
property float x_axisz
property float y_axisx
property float y_axisy
property float y_axisz
property float z_axisx
property float z_axisy
property float z_axisz
property float focal
property float scalex
property float scaley
property float centerx
property float centery
property int viewportx
property int viewporty
property float k1
property float k2
end_header
0.15839052 0.71408308 -0.800098
0.13354445 0.67988992 -0.78985292
0.12999487 0.64034188 -0.78482896
-0.074692249 0.36683598 -0.70126861
-0.57774591 0.43687156 -0.57213944
-0.61522055 0.5904305 -0.57775658
-0.63589811 0.70929062 -0.58436137
-0.63423061 0.74909246 -0.58890134
-0.67175484 0.86021924 -0.59014672
-0.69301319 0.9397763 -0.59255725
-0.40941 1.3126048 -0.70770484
-0.40060949 1.3137122 -0.71020347
-0.32561684 1.3197218 -0.73114306
-0.22428846 1.332926 -0.75995821
-0.19563437 1.3346671 -0.76790208
-0.13816977 1.3359847 -0.78360969
-0.045791626 1.3516411 -0.8102513
0.020473003 1.354066 -0.82845742
0.11335421 1.3523811 -0.85345429
0.15983105 1.3503002 -0.86583537
0.18863535 1.3484818 -0.87345427
0.26144075 1.3522002 -0.89356571
0.27009726 1.3582622 -0.89653414
0.24326515 1.3698038 -0.89044839
0.14797926 1.3766291 -0.86532801
0.064042568 1.3744667 -0.84235972
0.0089817047 1.3680084 -0.82677549
-0.057211399 1.3631061 -0.80833429
-0.11212826 1.3516933 -0.79228002
-0.23367119 1.3502419 -0.7591942
-0.26394129 1.3481649 -0.7507779
-0.31016874 1.3424221 -0.73766083
-0.3477025 1.3406707 -0.72730976
-0.37464094 1.3318981 -0.71910852
-0.41993809 1.320479 -0.70566064
-0.7052412 1.3169718 -0.62798601
-0.8332634 1.3160641 -0.59320003
-0.86225462 1.3232541 -0.58608216
-0.9085598 1.3199862 -0.57319838
-0.97955608 1.3180907 -0.55376428
-1.0168123 1.3167281 -0.54352838
-1.0721655 1.3115549 -0.52799684
-1.202157 1.3182145 -0.4934544
-1.2467422 1.3165991 -0.48120636
-1.4359064 1.3935424 -0.43784767
-1.4928579 1.4119518 -0.42430514
-1.6143825 1.4101312 -0.3911863
-1.6519923 1.4108547 -0.38106865
-1.8402522 1.4201024 -0.33100194
-1.9801824 1.4442668 -0.29556412
-2.0264874 1.440999 -0.28268033
-2.139317 1.4431697 -0.25232762
-2.1769271 1.4438933 -0.24220997
-2.2897568 1.446064 -0.21185714
-2.4563591 1.4013779 -0.16211975
-2.5402737 1.3988336 -0.13911849
-2.6067986 1.4042722 -0.1216495
-2.6444087 1.4049957 -0.11153185
-2.6626751 1.4069237 -0.10677981
-2.7002797 1.4076347 -0.096662343
-2.7572384 1.4071665 -0.081179082
-2.8392777 1.3990141 -0.05810982
-2.9144871 1.4004363 -0.037874937
-2.980968 1.4054433 -0.020373523
-3.1025097 1.4039919 0.012712181
-3.1777186 1.4054141 0.032946944
-3.2153232 1.4061253 0.043064415
-3.4355965 1.303682 0.11327845
-3.4731293 1.3019158 0.12363082
-3.5485978 1.2896178 0.14534521
-3.432833 1.286155 0.11432976
-3.3200912 1.2864988 0.083742559
-3.2650301 1.2929571 0.068158209
-3.2562301 1.2940645 0.065659761
-3.2099693 1.2994153 0.052573919
-3.1058841 1.2936974 0.024955153
-3.0307469 1.2947525 0.0044853091
-3.0018706 1.2904567 -0.0028986335
-2.9557538 1.3007622 -0.016454339
-2.8717444 1.3004472 -0.039187729
-2.8154185 1.2926065 -0.053646147
-2.7778852 1.2943579 -0.063997209
-2.7213984 1.3000801 -0.079892337
-2.694124 1.3018517 -0.087465346
-2.5926664 1.3074291 -0.11553228
-2.55498 1.3042307 -0.12541634
-2.4596167 1.2965519 -0.1504702
-2.3840134 1.2827306 -0.16953832
-2.2167211 1.305143 -0.21717495
-2.170186 1.3009864 -0.22935849
-2.1414244 1.3012211 -0.23717672
-2.068882 1.3115135 -0.25789219
-1.9064569 1.2810723 -0.2987811
-1.8599989 1.2793903 -0.31119794
-1.813771 1.285133 -0.32431513
-1.7872593 1.2868446 -0.33167535
-1.7066054 1.2878922 -0.35363942
-1.6087148 1.3018721 -0.3816027
-1.5444841 1.2957989 -0.39838475
-1.4902978 1.2972465 -0.41321737
-1.46697 1.2949865 -0.41930681
-1.4204359 1.2908298 -0.43149024
-1.3565879 1.2971307 -0.44943959
-1.2323098 1.284737 -0.48184472
-1.1310053 1.2952641 -0.51037854
-1.0271001 1.2965264 -0.53866547
-0.70491886 0.97672033 -0.59312552
-0.73728085 0.81358838 -0.56760031
-0.70845175 0.69847023 -0.56358868
-0.69347477 0.66068745 -0.56376654
-0.68449259 0.50416768 -0.55012423
-0.67399073 0.23123583 -0.52493685
-0.61336803 0.00266698 -0.51788825
-0.62314129 -0.061458297 -0.50865346
-0.75954771 -0.3441326 -0.44265467
-0.75749111 -0.4109593 -0.43634814
-0.51504087 -0.48406801 -0.49454063
-0.73249531 -1.004701 -0.38213748
-0.77825785 -1.0076871 -0.36942965
-0.92581606 -1.0483786 -0.32526332
-1.0848756 -1.051914 -0.28179663
-1.1399527 -1.0566303 -0.26638693
-1.2815442 -1.0547248 -0.22821265
-1.3830037 -1.0601996 -0.20015579
-1.5046818 -1.057034 -0.16750735
-1.5801299 -1.0481601 -0.14797312
-1.6929598 -1.0459869 -0.11762059
-1.7018075 -1.0449946 -0.1153248
-1.7306459 -1.0427874 -0.10773665
-1.797246 -1.0349057 -0.090498149
-2.1396079 -0.63583964 -0.038710237
-2.1370692 -0.16508344 -0.087750316
-2.1256511 -0.13088253 -0.094357371
-2.1237059 -0.12246787 -0.095748782
-2.1538904 -0.16604863 -0.083092809
-2.6572452 -0.30051863 0.067122996
-2.7402771 -0.31484354 0.09109515
-3.0259688 -0.20582929 0.15731782
-3.0967231 -0.031032398 0.15853781
-3.1166766 0.0089599341 0.15983731
-3.2968068 0.1435208 0.19482988
-3.3641744 0.13863918 0.21358722
-3.4195437 0.10314611 0.23223734
-3.538475 0.051456079 0.26977569
-3.5680676 0.03836219 0.27913994
-3.8846366 0.019589216 0.36685523
-3.8983066 0.0049920678 0.37205893
-4.0059381 -0.31364235 0.43395346
-4.0351124 -0.39372683 0.45008498
-4.4168882 -0.61879909 0.57666016
-4.4767499 -0.59906173 0.59085476
-4.5698867 -0.61953843 0.61819708
-4.7524238 -1.078002 0.71475244
-4.6396103 -1.0801353 0.6844002
-4.5381446 -1.0732808 0.65619993
-4.489192 -1.0829797 0.64393055
-4.471664 -1.0782877 0.63869858
-4.0118251 -1.0782818 0.51408619
-3.5240571 -1.0531565 0.37932524
-3.490169 -1.0779556 0.37268907
-3.4476247 -1.0966928 0.36308447
-3.3015409 -1.1213719 0.32603201
-3.1342719 -1.0771861 0.27616537
-3.0966671 -1.0778973 0.26604789
-2.9508078 -1.1146458 0.23029602
-2.8098881 -1.1333685 0.19403118
-2.6970747 -1.1355019 0.16367894
-2.6681983 -1.1397977 0.156295
-2.6074207 -1.1421752 0.14006907
-2.5785065 -1.1468575 0.13271451
-2.5119824 -1.1522642 0.11524248
-2.483068 -1.1569464 0.10788786
-2.4367626 -1.153713 0.09500742
-2.3904569 -1.1504794 0.082126915
-2.3354554 -1.1432881 0.066483438
-2.2978454 -1.1440126 0.056365907
-2.2602355 -1.1447369 0.046248436
-2.1676242 -1.13827 0.020487368
-2.1011002 -1.1436768 0.0030153394
-2.0171845 -1.1411676 -0.019982636
-1.8841364 -1.151981 -0.054926693
-1.7741334 -1.1375983 -0.086213708
-1.5976067 -1.1286223 -0.13497269
-1.3916235 -1.0666325 -0.19715923
-1.2787175 -1.0712808 -0.22727817
-1.1860299 -1.0672889 -0.25280553
-1.0907435 -1.0724277 -0.27809936
-1.0268183 -1.0687038 -0.29580516
-0.89407492 -1.0696167 -0.33168346
-0.77315855 -1.0480316 -0.36666757
-0.718081 -1.0433153 -0.38207752
-0.65148115 -1.0511971 -0.39931589
-0.62501287 -1.0516988 -0.40643698
-0.61387062 -1.0519215 -0.40943354
-0.57618427 -1.0551209 -0.41931754
-0.5384984 -1.0583204 -0.42920142
-0.45443058 -1.0607616 -0.45173222
-0.37303734 -1.0515968 -0.47473031
-0.039628983 -1.1051424 -0.55958086
-0.010688782 -1.1030999 -0.56763333
0.095088959 -1.1051351 -0.59608895
0.1818347 -1.1192801 -0.61814326
0.19418144 -1.105742 -0.6228798
0.20010757 -1.0634228 -0.6288324
0.19933605 -1.0230541 -0.63276953
0.16087675 -0.92022669 -0.632909
0.15893984 -0.91107583 -0.63332409
0.18991232 -0.64038801 -0.66952008
0.20221472 -0.60004413 -0.67699772
0.20578289 -0.515993 -0.68659765
0.20760679 -0.41475365 -0.69749039
0.22077942 -0.27065378 -0.7158609
0.2228446 0.054090664 -0.74977547
0.22797251 0.06648472 -0.75243813
0.51871061 0.45578262 -0.87121075
0.53667879 0.5363133 -0.88435131
0.23836517 0.71963191 -0.82234031
0.19639635 0.71855068 -0.81085616
-10.766922 1.2480989 2.1057043
-10.623981 1.3178058 2.0598092
-10.607437 1.3154522 2.0555677
-10.497796 1.321883 2.0251956
-10.469481 1.3197303 2.0177436
-10.422611 1.3156601 2.0054605
-10.286137 1.2890791 1.9712074
-10.262291 1.2824559 1.9654257
-9.93363 1.2776161 1.8768587
-9.8879528 1.2827921 1.8639493
-9.7744045 1.2765186 1.8338232
-9.7369061 1.2758768 1.8237271
-9.6811199 1.2831248 1.8078654
-9.6528473 1.2810133 1.8004206
-9.4743252 1.2689089 1.753286
-9.4367418 1.2657919 1.7434216
-9.3343973 1.2788182 1.7143493
-9.287755 1.2821214 1.7013704
-9.213007 1.2882634 1.6804836
-9.1758423 1.2975225 1.6694613
-9.1019869 1.2957458 1.6496296
-9.0542021 1.2995421 1.6362904
-8.9980812 1.2968892 1.6213546
-8.8882618 1.3049048 1.5907714
-8.8011894 1.2901995 1.568686
-8.744812 1.2909271 1.5533335
-8.6887741 1.2907494 1.5381663
-8.6794643 1.2897439 1.5357466
-8.6605015 1.2886379 1.5307217
-8.6511908 1.2876322 1.5283017
-8.5762758 1.2888238 1.5078781
-8.5295506 1.2896519 1.4951308
-8.4640284 1.2943242 1.4768952
-8.3986816 1.293141 1.4593084
-8.3235989 1.2893823 1.4393477
-8.2110996 1.2874568 1.4090595
-8.1643744 1.2882847 1.3963122
-8.0893755 1.287001 1.3761201
-8.0052338 1.2896624 1.353045
-7.9008656 1.2648951 1.3273064
-8.0507803 1.2649871 1.3679222
-8.0600071 1.2635174 1.3705735
-8.1441488 1.260856 1.3936486
-8.2852554 1.274794 1.4304554
-8.3319807 1.2739661 1.4432026
-8.4162903 1.2762552 1.4658146
-8.4628496 1.2704768 1.4790251
-8.5751801 1.2674518 1.5097764
-8.5844917 1.2684573 1.5121963
-8.7061319 1.2664378 1.5453672
-8.7721558 1.2766168 1.5622134
-8.8755951 1.2849624 1.5893872
-9.006464 1.2814732 1.6252098
-9.090354 1.2713861 1.6489793
-9.174161 1.2588239 1.6729805
-9.1833878 1.2573543 1.6756316
-9.2492437 1.2625828 1.692941
-9.3242426 1.2638664 1.7131332
-9.4174442 1.2547848 1.7393224
-9.5016699 1.2545987 1.762166
-9.6142521 1.2589995 1.7922227
-9.7358932 1.2569798 1.8253939
-9.8018341 1.2646837 1.8424716
-9.8484764 1.2613807 1.8554504
-9.9517069 1.2548548 1.8840954
-10.265633 1.2617848 1.9684544
-10.53801 0.99766457 2.0693941
-10.566195 0.85882473 2.0912924
-10.565012 0.82417548 2.0945308
-10.492021 0.56076872 2.1018059
-10.486719 0.48217413 2.1084418
-10.483634 0.36599627 2.1195385
-10.485968 0.28207806 2.1287904
-10.523582 0.20175028 2.1472342
-10.486637 -0.089698136 2.1671574
-10.040889 -0.34460622 2.0725462
-10.034604 -0.34187099 2.0705621
-9.955924 -0.5023011 2.0657187
-9.6336765 -0.65504026 1.9940808
-9.5868664 -0.65665317 1.9815614
-9.5775557 -0.65762472 1.9791381
-9.1636982 -0.62579048 1.8637171
-8.9443617 -1.0980088 1.8527813
-9.056097 -1.10769 1.8840549
-9.1503115 -1.0978087 1.9085712
-9.187726 -1.0996424 1.9188986
-9.2344522 -1.1005044 1.9316494
-9.2533302 -1.1018062 1.9368987
-9.3091984 -1.1066468 1.9525356
-9.3742075 -1.1154659 1.9710584
-9.4398956 -1.1151546 1.9888272
-9.5428314 -1.1216271 2.0173867
-9.561368 -1.122159 2.0224645
-9.6082621 -1.118071 2.0347524
-9.6830921 -1.1217383 2.0554075
-9.7487812 -1.1214269 2.0731766
-9.7674026 -1.1194838 2.078023
-9.9251776 -1.1324452 2.1221099
-9.9631987 -1.1450057 2.1337032
-9.9819632 -1.1446909 2.138756
-10.004867 -1.1411548 2.1445994
-10.054274 -1.1372148 2.1575835
-10.141188 -1.1436288 2.1817951
-10.21627 -1.139871 2.201756
-10.549606 -1.051914 2.2830524
-10.554588 -0.9737078 2.2763698
-10.581193 -0.81287634 2.26706
-10.573167 -0.77343631 2.2608342
-10.569828 -0.73391616 2.2558701
-10.719654 -0.39247313 2.2614014
-10.793946 -0.35007429 2.277179
-10.83375 -0.33285373 2.2861965
-10.969858 -0.058395259 2.2948906
-10.972555 0.020805404 2.2874868
-10.978359 0.056347087 2.285409
-10.979088 0.074168846 2.2837758
-10.977657 0.30665472 2.2595093
-10.983599 0.34713313 2.2569613
-11.051496 0.49415329 2.2602601
-11.035624 0.50217521 2.2551353
-10.842497 0.81550753 2.1706171
-10.846056 0.84364724 2.1686912
-10.857784 0.91637957 2.1643989
-10.869682 0.99406171 2.1596441
-10.801386 1.1596372 2.1241298
-10.795874 1.2040669 2.118073
-10.771305 1.2411534 2.1076059
-8.3608551 -0.36255604 1.6191173
-8.3911514 -0.30101067 1.6210057
-8.437624 -0.3092978 1.6344507
-8.4830017 -0.34976023 1.6509033
-8.4899292 -0.35540122 1.6533599
-8.5117836 -0.39873952 1.6637338
-8.6164951 -0.54048955 1.706669
-7.170743 1.2637668 1.1295661
-7.2922149 1.2567623 1.1632032
-7.3206568 1.2638574 1.170182
-7.3865132 1.2691187 1.1874881
-7.433239 1.2682565 1.2002388
-7.5080695 1.2645893 1.2208939
-7.5540595 1.2581133 1.2340219
-7.6014366 1.26039 1.2466267
-7.6666422 1.2625139 1.2640786
-7.7517118 1.2762743 1.2857183
-7.6493678 1.2893008 1.2566462
-7.546669 1.2867361 1.2290791
-7.4901428 1.2882032 1.2136105
-7.4716702 1.2854533 1.208887
-7.3591719 1.2835292 1.1785986
-7.2841725 1.2822462 1.1584064
-7.2092581 1.2834386 1.1379828
-7.1716747 1.2803222 1.1281182
-7.0966754 1.2790394 1.1079259
-7.021677 1.2777567 1.0877337
-6.9564981 1.2816256 1.0696737
-6.8908944 1.2837894 1.0516734
-6.8341794 1.2745496 1.0372531
-6.8808208 1.2712125 1.0502353
-6.9272938 1.2629254 1.0636802
-7.0021243 1.259258 1.0843352
-7.0487657 1.255921 1.0973173
-7.9406824 -1.3891529 1.610698
-8.0145483 -1.455193 1.6374981
-8.1445007 -1.3507413 1.6619854
-8.3817854 -1.1101047 1.7015711
-8.531868 -1.105064 1.7417241
-8.5691986 -1.1093727 1.7522831
-8.6441975 -1.1080899 1.7724752
-8.6908388 -1.1114269 1.7854574
-8.737649 -1.1098142 1.7979767
-8.7850533 -1.1015459 1.8099735
-8.8318634 -1.0999329 1.8224928
-8.6001244 -0.74607658 1.723349
-8.6111012 -0.69889092 1.721477
-6.8231053 -1.1779983 1.2861576
-7.0318747 -1.3014302 1.3554099
-7.0493646 -1.3026859 1.3602786
-7.2914071 -1.2409512 1.4195287
-7.3856616 -1.224486 1.4433796
-7.5180869 -1.2429634 1.4811635
-7.9030972 -1.3548702 1.5969915
-7.7896852 -1.0867467 1.5387186
-7.8380404 -1.0908297 1.5522418
-8.1698055 -0.69765222 1.601763
-8.3429155 -0.47664756 1.6259743
-7.5852032 -1.1345642 1.4882174
-7.5010624 -1.1318623 1.4651387
-7.3982949 -1.1204712 1.4361196
-7.2406778 -1.0851139 1.3897754
-7.1656795 -1.0864064 1.3695842
-6.8042526 -1.0968369 1.2727123
-6.7724843 -1.0824057 1.2626213
-6.4758272 -0.84233654 1.1575722
-6.634057 -0.46156704 1.1613414
-6.6628556 -0.44128299 1.1670623
-6.8107977 -0.37632227 1.2004809
-6.8833542 -0.35080656 1.2175221
-6.8804975 -0.34955835 1.2166198
-6.7325754 -0.33601901 1.1751437
-6.725544 -0.33614016 1.1732508
-6.7025032 -0.33991072 1.1673942
-6.5917187 -0.34259856 1.1376488
-6.5543032 -0.34076995 1.1273217
-6.5168881 -0.33894131 1.1169947
-6.2259755 -0.09068986 1.0126619
-6.2309275 0.023450822 1.0022804
-6.2407408 0.067866296 1.0003777
-6.2437763 0.087913215 0.99914128
-6.2229362 0.094977468 0.99276811
-6.1564703 0.072155848 0.97710055
-6.0661912 0.029434487 0.9570238
-5.7014794 0.093885034 0.85157067
-5.4683452 -0.33616447 0.83256477
-5.2618904 -0.35120654 0.77816248
-5.2338696 -0.34594756 0.77002889
-5.1866384 -0.3599239 0.75866532
-5.2326059 -0.38307127 0.77349955
-5.4685922 -0.61004949 0.86076277
-5.1574173 -1.0641178 0.82307565
-5.1111565 -1.058767 0.80998981
-5.0647521 -1.0583706 0.79737395
-4.9403744 -1.0769237 0.76557451
-4.8563652 -1.0772386 0.74284112
-6.5539937 1.2846721 0.96028596
-6.6008039 1.2862852 0.97280538
-6.6474452 1.282948 0.98578751
-6.7215128 1.2676754 1.0074277
-6.6932392 1.2655305 0.99998617
-6.6465135 1.2663926 0.98723543
-6.6183248 1.2667227 0.97956264
-6.5715151 1.2651098 0.96704328
-6.4591007 1.2656606 0.9365235
-6.3940067 1.2720047 0.91823214
-6.3374605 1.267715 0.90334922
-6.3190079 1.2707219 0.89803988
-6.1876755 1.2660021 0.86293489
-6.1221156 1.2640684 0.84536749
-6.0565958 1.2687073 0.82713574
-5.9723706 1.2689278 0.80428898
-5.916419 1.2712934 0.78888357
-5.7948627 1.2758229 0.75547779
-5.756897 1.2669036 0.74610561
-5.6632328 1.2677752 0.72063404
-5.5604711 1.2685279 0.69270927
-5.523056 1.2703615 0.68238175
-5.588913 1.2756228 0.69968802
-5.6357231 1.2772356 0.71220738
-5.7299371 1.2871169 0.73672366
-5.860148 1.2813327 0.77260357
-5.8677506 1.2812043 0.77467704
-5.9382949 1.2865459 0.7932452
-6.0175743 1.2806659 0.81533301
-6.1232157 1.2855738 0.84345669
-6.2024364 1.2786591 0.86563492
-6.2614951 1.2879391 0.8806861
-6.3199396 1.2872773 0.89659196
-6.366581 1.2839403 0.90957409
-6.4415793 1.285223 0.92976618
-5.0201488 1.2788808 0.54522383
-5.138835 1.2654511 0.57876611
-5.2228913 1.2602803 0.60207564
-5.2979746 1.264038 0.62203652
-5.2167397 1.2735577 0.5990448
-5.2079678 1.2750741 0.59651202
-5.0954452 1.2828029 0.56522554
-5.7950535 -0.63653672 0.95195121
-6.2082891 -0.99902117 1.1011654
-6.3964615 -0.80153394 1.1318741
-6.1594348 -0.35809314 1.0220956
-5.524179 -1.1598375 0.93229592
-5.4583211 -1.1651244 0.91499215
-5.2267928 -1.0882854 0.84435803
-5.1799836 -1.0898873 0.83183765
-5.1140418 -1.0976491 0.81476533
-5.1047316 -1.0986046 0.8123405
-4.9577589 -1.0865704 0.7712763
-4.8826218 -1.0855154 0.75080651
-5.5710268 -1.1516982 0.94415534
-5.7855353 -1.1834247 1.0055437
-5.808856 -1.1850988 1.0120353
-5.8206911 -1.1828188 1.0150083
-5.8891835 -1.1635292 1.0315878
-6.0756636 -1.1793964 1.0837519
-6.1934071 -1.1596553 1.1136316
-6.2542276 -1.160683 1.1302189
-6.3064775 -1.1579661 1.144099
-6.3809052 -1.1564239 1.1641097
-6.5040503 -1.1421051 1.1960101
-6.5893798 -1.1549069 1.2204485
-6.682662 -1.161603 1.2464149
-4.5347481 1.2995948 0.4115575
-4.4474359 1.2805818 0.38984954
-4.4098315 1.2798707 0.37973216
-4.2128644 1.272468 0.32711646
-4.0347214 1.3049645 0.2755037
-4.10113 1.3074942 0.29323989
-4.1473908 1.3021432 0.30632573
-4.1937957 1.301747 0.31894165
-4.2402725 1.3038281 0.33132264
-4.3064656 1.2989258 0.34976387
-4.342907 1.2976077 0.3597745
-5.5574188 -1.1542681 0.94073164
-3.7802179 1.2964021 0.2074151
-3.8090222 1.2982205 0.21503407
-3.8266227 1.2960058 0.22003108
-3.9594405 1.3010651 0.25550377
-3.9305639 1.2967693 0.24811977
-3.9681687 1.2974803 0.25823718
-3.5878797 1.2866111 0.15629905
-3.6474781 1.2924252 0.17185247
-3.6120555 1.2908179 0.16241837
0 0 0 1 0 0 0 1 0 0 0 1 0 0 0 0 0 529 1 0 0
