ply
format ascii 1.0
comment PCL generated
element vertex 420
property float x
property float y
property float z
element camera 1
property float view_px
property float view_py
property float view_pz
property float x_axisx
property float x_axisy
property float x_axisz
property float y_axisx
property float y_axisy
property float y_axisz
property float z_axisx
property float z_axisy
property float z_axisz
property float focal
property float scalex
property float scaley
property float centerx
property float centery
property int viewportx
property int viewporty
property float k1
property float k2
end_header
0.0057725906 0.33944535 -5.4240313
-0.0038142204 0.21833941 -5.4151778
0.005862236 0.26083007 -5.4186888
-2.8140366 0.40434727 -5.2476201
-2.8137829 0.39975435 -5.247324
-2.7316365 0.13704237 -5.2347202
-2.8253007 -0.023393273 -5.2177997
-2.8432133 -0.10154232 -5.2113347
-2.8490617 -0.22031775 -5.2028794
-2.8591669 -0.29762754 -5.1969724
-2.860461 -0.30988884 -5.1960554
-2.8148627 -0.56598616 -5.1815577
-2.809643 -0.58586144 -5.1805406
-2.8094075 -0.60575563 -5.1792021
-2.8089361 -0.64554405 -5.1765256
-2.6278193 -1.073611 -5.1590199
-2.6677201 -1.0738301 -5.1564465
-2.8476322 -1.0449755 -5.146872
-2.8859074 -1.0418421 -5.1446304
-3.0457163 -1.0150917 -5.1362023
-3.2463949 -1.0661811 -5.1198578
-3.3253722 -1.0905794 -5.1131334
-3.525552 -1.0622647 -5.1022229
-3.724849 -1.0679934 -5.0890527
-3.8444626 -1.0684465 -5.0813513
-4.0458479 -1.0598533 -5.0690217
-4.2459402 -0.99843907 -5.0603681
-4.6453567 -1.102506 -5.0276752
-5.2060537 -1.0554838 -4.9949183
-5.2467952 -1.0740647 -4.9910417
-5.2855015 -1.0806535 -4.9881115
-5.5160737 -1.0708858 -4.97399
-5.6407075 -1.0717175 -4.965941
-5.6450973 -1.0706849 -4.9657297
-5.806778 -1.078146 -4.954854
-5.9009809 -1.1160963 -4.9462314
-5.9651947 -1.1154628 -4.9421563
-6.0161977 -1.0770556 -4.9414988
-6.3247523 -1.0373584 -4.9244123
-6.1094618 -0.76203334 -4.9569478
-6.2987952 -0.40925872 -4.9688048
-6.5375752 -0.38953167 -4.9548345
-6.8529081 -0.42578202 -4.932147
-6.9733143 -0.48913193 -4.9201164
-7.0833249 -0.45855236 -4.9151421
-7.1757636 -0.45509839 -4.9094491
-7.2578125 -0.45971692 -4.9038734
-7.3701577 -0.48824066 -4.8947287
-7.7299948 -0.55518472 -4.8670993
-7.7673845 -0.55546463 -4.8646827
-7.8979673 -1.1342578 -4.8169346
-7.8178816 -1.1560673 -4.8205867
-7.8398538 -1.1885999 -4.8169646
-7.9773064 -1.1647301 -4.8097739
-8.1783075 -1.1686411 -4.7966185
-8.2582865 -1.1543007 -4.7924652
-8.3374557 -1.1539907 -4.7874093
-8.3781128 -1.1427482 -4.7855668
-8.4580555 -1.1308973 -4.7812467
-8.5774899 -1.1467304 -4.7725105
-8.6983852 -1.1597006 -4.7638755
-8.6976643 -1.1179019 -4.7667651
-8.9852657 -0.80721772 -4.7694573
-9.2966814 -1.1744391 -4.7245059
-9.4559984 -1.1905708 -4.713192
-9.5752554 -1.218852 -4.7036204
-9.7116261 -1.2098302 -4.6954889
-9.7356586 -1.2086563 -4.6940279
-9.7499199 -1.20771 -4.6931777
-9.8554058 -1.209703 -4.6862774
-9.9351721 -1.2103 -4.6811218
-9.9957905 -1.211957 -4.6771216
-10.054919 -1.2113466 -4.6733713
-10.094702 -1.2114941 -4.6708102
-10.115438 -1.2128526 -4.6693883
-10.490652 -1.1175845 -4.6518078
-10.633026 -1.095988 -4.6441469
-10.712763 -1.0989217 -4.638834
-10.754187 -1.104488 -4.6357989
-10.833891 -1.1099095 -4.6303186
-10.854183 -1.082655 -4.6308718
-10.834084 -1.0007913 -4.6377296
-10.731133 -0.76350302 -4.6604733
-10.943954 -0.44053417 -4.6687965
-11.12275 -0.41311318 -4.6591964
-11.202751 -0.4094677 -4.654314
-11.44634 -0.5770005 -4.6272964
-11.401331 -0.40820599 -4.6416655
-11.400345 -0.23160449 -4.6537428
-11.407251 -0.207122 -4.6549649
-11.686054 0.024833195 -4.6528659
-11.777767 0.10927168 -4.6527286
-11.68634 0.14905681 -4.6612978
-11.322971 0.43784502 -4.7042451
-11.2976 0.55582064 -4.7138977
-11.284264 0.67889279 -4.7231255
-11.205568 0.79872513 -4.7363238
-11.127167 0.95854264 -4.7522235
-11.087973 1.2004467 -4.771193
-10.848366 1.2421186 -4.7893929
-10.838394 1.242146 -4.7900343
-10.768983 1.2416532 -4.7944522
-10.529522 1.2678813 -4.8115921
-10.449702 1.2833736 -4.8177648
-10.410133 1.2955828 -4.8211327
-10.289476 1.2850119 -4.8281507
-10.249395 1.2854643 -4.8307519
-10.202234 1.2836055 -4.8336496
-10.089754 1.286075 -4.8410311
-10.042664 1.2822661 -4.8437915
-9.9630394 1.2927928 -4.8496137
-9.8832359 1.2908792 -4.8546009
-9.6838531 1.2948031 -4.8676538
-9.5644169 1.3105936 -4.8763871
-9.4429541 1.2968229 -4.8832393
-9.4031067 1.2995982 -4.8859835
-9.2850523 1.3001634 -4.8935924
-9.2051783 1.2932733 -4.8982458
-9.1264162 1.3037362 -4.9040084
-9.0440102 1.2922302 -4.9085102
-8.9643497 1.3002691 -4.9141655
-8.8829489 1.2986519 -4.9192753
-8.806448 1.3036095 -4.9245186
-8.7665281 1.3014088 -4.9269285
-8.6851282 1.2997913 -4.9320388
-8.5655489 1.3056291 -4.940104
-8.5250521 1.3121108 -4.9431419
-8.4074688 1.2965291 -4.9496222
-8.2862206 1.2976871 -4.9574761
-8.2463713 1.3004624 -4.9602203
-8.2048187 1.2960696 -4.9625864
-8.0469885 1.3043864 -4.9732733
-7.8841162 1.2961756 -4.9831591
-7.7923064 1.3089914 -4.9899187
-7.7110195 1.3173664 -4.9957008
-7.5513115 1.3060515 -5.0051727
-7.5114651 1.3088206 -5.0079165
-7.4300356 1.3072441 -5.013031
-7.5096941 1.2992181 -5.0073767
-7.8001394 1.0031526 -4.9686108
-7.8387156 0.84188592 -4.9551663
-7.7106919 0.60871243 -4.9475141
-7.7097812 0.59502637 -4.9466414
-7.7069459 0.5520041 -4.9438963
-7.745965 0.51458985 -4.938849
-7.6991601 0.063003629 -4.9111304
-7.2157435 0.034031272 -4.9401598
-7.1770654 0.05508934 -4.9440722
-7.0012903 0.1608723 -4.9625406
-6.9031057 0.26210263 -4.9757233
-6.8439121 0.36668399 -4.9866338
-6.8060889 0.68543202 -5.0107427
-6.805964 0.73089457 -5.0138435
-6.8023224 0.81901783 -5.0200715
-6.7877831 0.90835553 -5.0270815
-6.7815952 0.93859446 -5.0295353
-7.0758729 1.3012633 -5.0353355
-7.1540451 1.303538 -5.0304775
-7.2354026 1.3001387 -5.0250287
-7.3136106 1.3049014 -5.0203376
-7.3502703 1.3078061 -5.0181842
-7.270577 1.3133444 -5.0236716
-7.1908116 1.3139067 -5.0288248
-7.1509295 1.3141878 -5.0314016
-7.0711999 1.3172379 -5.0367222
-6.9912925 1.3078486 -5.0412073
-6.9115987 1.3133866 -5.0466948
-6.8350916 1.3132507 -5.0515919
-6.7919517 1.3142301 -5.0544248
-6.7504401 1.3148603 -5.0571299
-6.717144 1.3187208 -5.0595274
-6.6358924 1.3295836 -5.0654769
-6.4781694 1.3427985 -5.0764899
-6.3969536 1.3561494 -5.0826063
-6.3171887 1.3567115 -5.08776
-6.2373524 1.352298 -5.0925794
-6.1558523 1.3457457 -5.0973601
-5.9951911 1.3820498 -5.1101322
-5.8731823 1.3462787 -5.1155229
-5.8683963 1.3459591 -5.115808
-5.7965045 1.3413442 -5.1201043
-5.6718068 1.3103604 -5.1259933
-5.5877504 1.3053014 -5.1310391
-5.4722519 1.3018147 -5.1382089
-5.3525338 1.2976822 -5.1456046
-5.2867284 1.3089951 -5.1505942
-5.2712822 1.3085451 -5.1515541
-5.1688046 1.3059646 -5.1579504
-5.0475245 1.3189787 -5.1666131
-5.0059276 1.3220329 -5.169488
-4.9660664 1.324526 -5.172214
-4.8862867 1.3220508 -5.1771617
-4.7666655 1.3245556 -5.1850028
-4.7281122 1.3272492 -5.1876583
-4.6071062 1.3196054 -5.1948981
-4.5672455 1.3220984 -5.1976242
-4.5308385 1.3209815 -5.1998825
-4.4944119 1.3173777 -5.2019734
-4.41471 1.3248506 -5.207593
-4.2111855 1.3694038 -5.2236753
-4.1688714 1.3768711 -5.2268968
-3.9324293 1.3643018 -5.2412038
-3.9180112 1.3633513 -5.242064
-3.7280631 1.3277584 -5.2518234
-3.6484492 1.3325536 -5.2572551
-3.6119545 1.3341143 -5.2597017
-3.5685811 1.332756 -5.2623906
-3.4108944 1.3446532 -5.2733116
-3.3744488 1.3385626 -5.2752347
-3.2530715 1.3391417 -5.2830577
-3.1316943 1.3397211 -5.2908807
-3.0519729 1.3447068 -5.2963319
-3.0138292 1.3441514 -5.2987404
-2.8606455 1.3733171 -5.3105478
-2.8527577 1.3745216 -5.3111353
-2.7647974 1.3769313 -5.3169398
-2.6926847 1.3947268 -5.3227749
-2.5302002 1.4055847 -5.3339334
-2.4878054 1.4058125 -5.3366675
-2.4189444 1.3931363 -5.3402209
-2.3389354 1.3761584 -5.3441968
-2.2988863 1.3639395 -5.3459339
-2.2532425 1.352326 -5.3480706
-2.1722388 1.3459133 -5.352829
-2.1335106 1.3504827 -5.3556232
-2.0527139 1.3614765 -5.3615527
-1.8184509 1.4123157 -5.3800335
-1.8158894 1.4125233 -5.3802118
-1.6548481 1.3654896 -5.3873396
-1.5751057 1.3708918 -5.3928208
-1.4932852 1.3899641 -5.3993649
-1.5340028 1.3642646 -5.3950057
-1.6159716 1.3576257 -5.3892975
-1.6946902 1.3603019 -5.3844318
-1.8185492 1.3323183 -5.3745852
-1.8585095 1.3370771 -5.3723464
-1.8984098 1.3368627 -5.3697729
-1.9782114 1.3364338 -5.3646264
-2.0577888 1.328933 -5.3590131
-2.2885966 1.0642772 -5.3262081
-2.2064276 0.82462823 -5.3151751
-2.3264008 0.82320857 -5.3073845
-2.3271446 0.90336394 -5.3127899
-2.3686013 1.063266 -5.3210092
-2.6574316 1.3147629 -5.3195958
-2.6962786 1.3201401 -5.3174706
-2.8177457 1.3231627 -5.3098869
-2.9009209 1.314567 -5.3039684
-2.9746714 1.3252244 -5.299964
-3.0602272 1.3149242 -5.2937765
-3.0729043 1.3145413 -5.2929378
-3.1391289 1.3164366 -5.2888198
-3.2510233 1.2999116 -5.2805204
-3.3289886 1.2930002 -5.2750502
-3.4122612 1.2968395 -5.2699714
-3.5736356 1.3111762 -5.2605982
-3.6567721 1.2976067 -5.254344
-3.7780521 1.2845927 -5.2456813
-3.8569591 1.2715849 -5.2397366
-3.9754434 1.2780445 -5.2325778
-4.0968404 1.2522144 -5.2230358
-4.1765232 1.2422546 -5.2172484
-4.4450645 1.0114353 -5.1843257
-4.3013897 0.57051051 -5.1635442
-4.3254642 0.44656 -5.1535683
-4.4322548 0.28585368 -5.1357875
-4.4750919 0.24910381 -5.1305404
-4.4938631 0.22097039 -5.1274228
-4.4957457 0.21788488 -5.1270924
-4.5978589 0.082143933 -5.11131
-4.6230345 0.055284344 -5.1078682
-4.6629257 0.0084739476 -5.1021256
-4.6958337 -0.024899274 -5.0977454
-4.6980247 -0.027223542 -5.0974464
-4.733439 -0.074572712 -5.0919547
-5.1722255 -0.22613573 -5.0535059
-5.2512035 -0.18462452 -5.0512652
-5.4187651 0.052583687 -5.0566568
-5.3456125 0.47065696 -5.0897884
-5.3336821 0.50806308 -5.0930977
-5.3285341 0.55352247 -5.0965204
-5.3297358 0.55454528 -5.0965133
-5.4268427 0.68688983 -5.0992889
-5.4661632 0.7615943 -5.1018496
-5.4841523 0.91358143 -5.1110349
-5.448833 1.0645939 -5.1235728
-5.1356378 1.2738813 -5.1578946
-4.9761562 1.278879 -5.1684618
-4.8930779 1.2999094 -5.17522
-4.7751155 1.2919049 -5.18224
-0.89741325 1.4267577 -5.4400797
-0.93842745 1.4259249 -5.4373927
-0.97735023 1.4259405 -5.4348979
-0.93752146 1.4439498 -5.4386768
-2.8131416 0.51940465 -5.2555046
-2.8182001 0.52179551 -5.2553425
-2.8879273 0.56499118 -5.2538099
-2.8478925 0.44215867 -5.2480211
-2.8689857 0.15790413 -5.2273312
-2.9229798 -0.024413794 -5.2114663
-2.9558849 -0.13498518 -5.2018342
-3.0280945 -0.28518423 -5.186986
-3.4901898 -0.51939815 -5.1414204
-4.0104451 -0.42366797 -5.1145701
-4.0436449 -0.30750164 -5.1203437
-4.0500422 -0.18815532 -5.1280522
-4.1055326 0.045757934 -5.1404061
-4.1274471 0.51221377 -5.1707325
-4.1277971 0.55697918 -5.1737556
-4.1646132 0.61032248 -5.1750236
-0.53634214 1.4343157 -5.463748
-0.49576378 1.4364709 -5.4664969
-0.41650391 1.4353472 -5.4715033
-0.28738451 1.4018619 -5.4775052
-0.27725935 1.3808504 -5.4767251
-0.32686615 1.3799616 -5.4734836
-0.36079407 1.3850996 -5.4716573
-0.44543171 1.387712 -5.4664078
-0.48775053 1.3890182 -5.4637828
-0.52527475 1.3925141 -5.4616141
-0.52769375 1.3939061 -5.4615536
-8.9110889 -0.078750595 -4.8237696
-9.0259953 -0.27970257 -4.802731
-9.0646935 -0.44099838 -4.7892766
-9.142684 -0.56226557 -4.7760258
-9.346818 -0.68414396 -4.7546444
-9.4658623 -0.72736275 -4.7440701
-9.5184717 -0.77016747 -4.7377849
-9.9815273 -0.92792201 -4.6973586
-10.103415 -0.77197266 -4.700151
-10.109365 -0.5826208 -4.7126508
-10.318851 -0.58632106 -4.6989651
-10.650558 -0.36781949 -4.6925578
-10.365166 0.040755458 -4.7386537
-10.361543 0.082146011 -4.7417016
-10.361751 0.1082402 -4.7434635
-10.363337 0.13066053 -4.7448869
-10.357694 0.20281169 -4.7501569
-10.325524 0.31960905 -4.7601652
-10.282991 0.39662021 -4.7681317
-10.206223 0.68382883 -4.792593
-10.207934 0.88332599 -4.8060541
-10.213604 0.92261231 -4.8083634
-9.8414345 1.2690698 -4.8557982
-9.7217827 1.2699313 -4.8635297
-9.6014395 1.2643728 -4.8708687
-9.5615559 1.26466 -4.873446
-9.441514 1.2662178 -4.8812499
-9.3630438 1.2874448 -4.8877258
-9.243392 1.2883062 -4.8954573
-9.1618137 1.2742485 -4.8997326
-9.0023508 1.2803735 -4.9103751
-8.9625378 1.2856369 -4.9132862
-8.8861084 1.2955709 -4.9188633
-8.8031101 1.2942501 -4.9240956
-8.7631187 1.2870728 -4.9261723
-8.7232714 1.2898481 -4.928916
-8.6467705 1.2948059 -4.9341593
-8.6037273 1.298174 -4.9371486
-8.4828405 1.2757208 -4.9433732
-8.4027805 1.2768173 -4.9485817
-8.1030216 0.98987848 -4.9482846
-8.1024513 0.95006865 -4.9456134
-8.1018801 0.91025883 -4.9429417
-8.0618458 0.7883321 -4.9372144
-8.0193186 0.66642326 -4.9316487
-7.9989023 0.39047283 -4.9141855
-7.9987335 0.38567063 -4.9138699
-8.0089245 0.27667886 -4.9058018
-8.0310421 0.19219996 -4.8986368
-8.030364 0.1449258 -4.8954639
-8.1492138 -0.29954273 -4.8576064
-8.2266083 -0.35249248 -4.8490415
-8.5445671 -0.43205827 -4.8232388
-8.8875179 -0.15824991 -4.8198729
-9.0100727 0.50280672 -4.8569841
-8.9989576 0.48518327 -4.8564978
-8.9449024 0.54031658 -4.8637147
-8.9605722 0.58997118 -4.8660879
-9.0345507 0.54868436 -4.8585353
-6.0832801 -0.01114063 -5.0097084
-6.0483823 -0.010907724 -5.0119619
-5.633729 0.21073112 -5.0536299
-5.5865564 0.34986562 -5.0661201
-5.5559835 0.42405 -5.0731273
-5.5620966 0.67134523 -5.0895581
-5.5742292 0.70824409 -5.09129
-5.5861378 0.79078287 -5.0961413
-5.6078858 0.9098835 -5.102849
-5.6473131 0.99205166 -5.1059103
-5.6692176 1.0292349 -5.1070352
-5.9591641 1.309135 -5.1074824
-6.0790248 1.3232189 -5.1007543
-6.2321458 1.3309543 -5.0914612
-6.2337747 1.3306053 -5.0913329
-6.275722 1.3333665 -5.0888309
-6.5885916 1.0394804 -5.0487752
-6.5891032 1.0181587 -5.0472918
-6.5724406 0.61311018 -5.0208058
-6.5285969 0.57078326 -5.0207381
-6.5078874 0.53147233 -5.019392
-6.4795985 0.1018838 -4.9919825
-11.375172 0.077828363 -4.6764069
-11.338902 0.15722609 -4.684134
-11.162449 0.31850058 -4.7064204
-11.107121 0.36000669 -4.7127919
-10.805784 0.80651325 -4.7624907
-10.72611 0.81668633 -4.768292
-10.686224 0.81679624 -4.7708573
-10.608034 0.81676424 -4.7758689
-10.407772 0.73270935 -4.7829933
-10.358323 0.35933363 -4.7607646
-10.384418 0.31671101 -4.7561917
-10.44754 0.23666 -4.7466979
-10.450161 0.15727043 -4.7411294
-10.457249 0.11743601 -4.7379651
-10.452032 0.079719111 -4.735734
-10.767465 -0.31907165 -4.6883774
-10.886225 -0.38939935 -4.6759772
-11.165987 -0.34617871 -4.6609769
0 0 0 1 0 0 0 1 0 0 0 1 0 0 0 0 0 420 1 0 0
