ply
format ascii 1.0
comment PCL generated
element vertex 1448
property float x
property float y
property float z
element camera 0
property float view_px
property float view_py
property float view_pz
property float x_axisx
property float x_axisy
property float x_axisz
property float y_axisx
property float y_axisy
property float y_axisz
property float z_axisx
property float z_axisy
property float z_axisz
property float focal
property float scalex
property float scaley
property float centerx
property float centery
property int viewportx
property int viewporty
property float k1
property float k2
end_header
-11.498125 -1.0502217 -3.1246035
-11.582882 -0.99764568 -3.3226142
-10.456904 -1.1208668 2.1320243
-10.246131 -0.85831332 3.2887464
-10.247297 -0.92305452 3.213532
-10.223294 -0.89819354 3.2931376
-10.361599 -1.0981126 2.8101268
-10.361518 -1.0631766 2.8252754
-10.321003 -1.102915 2.834187
-10.900737 -1.110734 -0.3445738
-10.650691 -1.0997128 1.5363749
-11.47628 0.011506096 -3.6421499
-11.477869 0.11204585 -3.6144338
-11.521292 0.03189113 -3.8611441
-11.590386 -1.079103 -3.6827726
-11.576219 -1.0888934 -3.7231264
-11.576173 -0.80913132 -3.6422987
-10.782499 -1.1244817 -0.42737472
-10.739901 -1.1047397 -0.30822968
-10.590523 -0.17438748 -0.14733768
-10.631224 -1.0967994 0.28947389
-10.688081 -1.0918369 0.21078098
-10.801014 -0.46924746 -1.0240986
-10.708559 -0.41873533 -0.46583754
-10.708882 -0.41367805 -0.47831023
-10.327775 -1.1266363 2.52916
-10.29045 -1.1358314 2.4082375
-10.291307 -1.1431634 2.368216
-10.171855 -1.1011562 2.6857514
-10.204929 -1.0613508 2.6741695
-10.129258 -0.62057483 2.6292782
-10.410759 -0.78312892 2.7325473
-10.138313 -0.8976801 3.2913775
-11.008867 -1.0233083 -1.5420146
-11.370809 0.33469331 -3.3382597
-11.351685 0.41551381 -3.2392218
-11.349472 0.33606783 -3.1611855
-11.351318 0.42565534 -3.2192965
-11.401433 0.41365778 -3.4581885
-11.383895 0.020387948 -3.0840416
-11.384492 -0.026995271 -3.1241753
-11.373877 -0.25051904 -2.7662182
-11.431737 0.13855967 -3.4027147
-11.204363 1.3275249 -4.4908266
-11.399691 1.2737677 -4.310998
-11.419496 1.1376925 -4.3031545
-11.365443 0.79409808 -4.4473577
-11.382416 0.79409534 -4.5269623
-11.360723 0.83412707 -4.4499354
-11.353293 0.93380833 -4.1274228
-11.507395 0.59301144 -4.1639609
-11.487176 0.44972247 -3.9417133
-11.4037 0.49308607 -3.5387239
-11.307768 0.83405417 -4.1286464
-11.302122 0.81013125 -4.0633073
-11.310156 0.89007837 -4.0637012
-11.134759 1.1987243 -4.0696893
-10.349445 1.3277276 0.55321443
-10.429401 1.3246207 0.5550977
-10.601211 0.039115451 0.9135114
-10.594606 -0.45753264 1.1376795
-10.600863 0.038558297 1.0335354
-10.608658 0.038557455 1.0212168
-10.611264 0.046539284 0.91378319
-10.628702 0.038906813 0.91416276
-10.400876 0.60435897 0.41204071
-10.20829 1.2821929 1.4299155
-10.285419 1.2810478 1.5517753
-10.282573 1.2805097 1.6717402
-10.717196 -0.23977056 -0.78490305
-9.801137 1.325125 2.7459683
-9.8014631 1.3076923 2.7259121
-9.8477278 1.2933271 2.4468455
-9.8315248 1.2853868 2.6064916
-9.8360624 1.3640366 2.9819579
-9.8078365 1.3618939 2.9802785
-9.8623095 1.364032 2.9275422
-9.8828173 1.3614068 2.9819031
-9.9709587 1.3253641 2.3172302
-10.231149 -0.31757677 1.7701424
-10.166387 1.2796378 1.5089329
-10.091043 1.2661424 1.3070267
-10.174037 1.2810841 1.1865276
-11.206138 1.2901042 -4.5708442
-11.140033 1.2496068 -4.2974949
-10.998272 1.1372831 -3.3295164
-11.00562 1.2551301 -3.632772
-10.91844 1.3381872 -3.2776566
-11.055743 1.176194 -3.4310751
-10.991475 1.3449533 -2.9535408
-11.112119 1.2587645 -3.0078323
-11.114764 1.3380685 -3.1058633
-11.11269 1.2711041 -3.0304134
-11.23184 0.93737406 -3.0904815
-11.192104 1.1780677 -3.0305345
-11.232805 1.0573151 -3.098814
-11.082685 -0.93276912 -1.2423216
-11.035114 -1.0213623 -0.94123948
-11.136398 -0.17144871 -1.595183
-11.052695 0.01062195 -1.3762082
-11.020892 0.28913042 -1.5357014
-11.025392 0.12871337 -1.4563142
-11.097486 -0.086065352 -1.6156895
-11.034361 0.14787774 -1.2959762
-11.018427 0.32857707 -1.4155439
-11.018717 0.36857554 -1.4153532
-10.806805 0.076106742 -1.1014791
-11.026518 1.2536161 -2.7520823
-10.986495 1.2488778 -2.7529149
-11.516335 -0.32845423 -3.7397656
-11.514386 -0.32870716 -3.652288
-11.614857 -0.090541065 -4.2078381
-11.570829 -0.4887296 -3.7615209
-11.528366 -0.36821958 -3.8421383
-11.519148 -0.36805579 -3.8773518
-11.566105 0.0085991621 -4.024395
-11.390975 -0.26618811 -4.2139735
-9.9191332 1.3989329 3.2281866
-9.8161488 1.4005373 3.3006883
-9.8174934 0.47203988 3.5371237
-9.7771721 0.47973073 3.5537834
-9.8166494 0.39947322 3.5543242
-9.8543396 0.11663322 3.5765347
-9.8535042 -0.020929798 3.5754371
-10.361301 -1.0157833 2.8504758
-9.9038391 1.2971523 2.4630594
-9.8895226 1.2907929 2.3677697
-10.061929 1.3005793 2.5468493
-9.9809866 1.298507 2.5849309
-10.056385 1.3195024 2.7868724
-10.017365 1.322485 2.7459483
-10.008574 0.15502004 2.7430024
-11.2504 1.1550882 -4.7724442
-9.9952402 0.035130836 2.7396474
-9.8942938 -0.05606702 3.5287166
-10.042914 0.26943454 3.546731
-9.8774776 0.3568705 3.8210435
-9.7350435 1.3036196 3.8986926
-9.6127996 1.2790165 3.9934678
-9.7775002 1.3587413 3.8023071
-9.8485813 1.3185334 3.7411757
-9.7194023 0.55854928 3.9354324
-9.8111486 0.75804716 3.9157019
-9.7577152 0.63976747 3.5764961
-10.014612 1.3344464 2.8659716
-9.6960802 0.99942911 3.7591176
-10.191212 1.2789638 2.149704
-10.212923 0.072733462 2.6157656
-9.7656069 0.078110889 3.9670529
-9.8767338 0.19691202 3.8104286
-10.212953 0.053554781 2.6915288
-10.092582 0.099322885 2.7214823
-9.8232346 -0.016745016 3.9348774
-9.8482141 0.15797211 3.8716354
-9.7665787 0.23809633 3.9702039
-9.7663221 0.19809751 3.9700413
-9.8976688 0.51899904 3.5440488
-9.8841991 0.47790152 3.5440741
-9.8838511 0.43788394 3.5489182
-9.9640474 0.43743497 3.5406494
-9.9234695 0.35766158 3.5444756
-9.9774857 0.51844984 3.5532799
-9.9003477 0.55703247 3.7447662
-9.7287779 0.47846705 3.9403219
-9.7766047 0.46714261 3.5762267
-11.327114 1.294492 -4.6078615
-11.365298 0.87441295 -4.7273674
-11.390596 0.8341856 -4.6467571
-11.359651 0.75444192 -4.7276249
-9.9704447 1.325289 2.3397241
-10.082561 1.2720275 1.6669561
-10.176638 1.2786269 1.7092296
-10.018502 1.2762256 1.9705588
-10.157847 1.2780232 1.8688272
-10.19977 1.2830784 1.7898215
-10.266962 -0.29819581 1.8510624
-10.348339 -0.32398528 1.8928221
-10.227554 -0.31074736 1.9301318
-11.141344 0.54133952 -2.7845497
-11.128357 0.54073107 -2.7048059
-11.182816 0.57982683 -2.7826748
-11.18014 0.54061848 -2.6711757
-11.136326 0.51207054 -2.5043783
-11.112765 0.53700638 -3.2552586
-11.307848 0.49720913 -3.0381985
-10.268609 1.2859161 0.2921052
-10.18635 1.2884049 0.6692028
-10.18527 1.2707262 0.70910943
-10.307051 1.3252521 0.37319088
-11.122371 1.3379841 -3.1106992
-11.140732 1.3375857 -3.1503093
-10.982133 1.2452979 -2.5529325
-11.204043 1.2555282 -3.3846669
-11.20001 1.2163634 -3.2681966
-10.397099 1.2528293 -0.30525905
-10.758673 -0.035072997 -0.78300869
-10.877964 -0.41302866 -0.87203169
-10.918918 -0.53295088 -0.95166445
-10.83528 -0.37333333 -0.74279416
-10.806614 -0.37388495 -0.58341163
-10.758062 0.0072414503 -0.74281716
-10.674253 -0.26752669 -0.66598445
-10.633927 -0.092560619 -0.5960868
-10.643404 -0.13267875 -0.58605093
-11.041102 -0.77026463 -2.173732
-11.076271 -1.010602 -2.1361344
-11.207714 -1.0173571 -2.650856
-11.256044 -1.0090311 -3.0223489
-11.202027 -1.0106018 -2.3933988
-11.275616 -1.0112519 -2.329246
-11.201255 -0.52871877 -3.0096772
-11.252204 -0.68843412 -3.2090542
-11.212663 -0.93678099 -2.850563
-11.223598 -0.92922813 -2.8903077
-11.2101 -0.9196282 -2.7305403
-11.17056 -0.55961782 -2.6503599
-11.127366 -0.52946812 -2.6112247
-11.128898 -0.54209906 -2.5712171
-10.777941 1.2605247 -2.3574088
-10.775294 1.2538769 -2.2373879
-10.73555 1.2665846 -2.2458403
-10.735171 1.2667089 -2.2283449
-10.811771 1.2472517 -2.0765102
-10.822657 0.8921259 -1.8575683
-10.809242 0.89203405 -1.8178658
-10.783159 0.85102177 -1.5660847
-10.659303 1.1606636 -1.2999326
-10.68576 1.2525239 -1.7992032
-10.802806 0.66894764 -1.8375375
-11.054112 -0.012079552 -1.3362691
-10.928196 -0.23403665 -1.2601607
-11.076363 -0.17205524 -1.3765049
-10.81367 -0.011452213 -1.1017239
-10.614447 -0.17322883 -0.42685902
-10.609401 -0.053380504 -0.38641274
-10.612624 0.046604328 -0.38587898
-10.616961 0.04695379 -0.46579957
-10.616237 -0.053049445 -0.46627599
-10.803096 0.64700997 -0.7563448
-10.80867 0.58571947 -1.0190701
-10.784246 0.60744625 -0.81947672
-10.533627 1.1329451 -1.0628815
-10.532059 1.1301348 -0.99541205
-10.625643 0.69033241 -1.1828365
-10.632512 0.73009169 -1.142485
-10.616189 0.066762045 -0.42571503
-10.984201 0.58266807 -1.6952374
-10.928229 0.76905775 -1.3755785
-10.604131 0.6486786 -0.80341887
-10.634174 0.64950609 -1.0227848
-10.604749 0.48904106 -0.8816601
-10.626643 0.61013311 -1.1431717
-10.785516 0.36857739 -1.0606117
-10.767282 0.44843885 -1.0031476
-10.777437 0.2886357 -1.061165
-10.707574 0.2481963 -0.86290133
-10.718442 0.36811808 -0.86210012
-10.708527 0.28780848 -0.7826755
-10.69509 0.089048624 -1.0239637
-10.73324 0.10990506 -1.2630566
-10.801072 0.24979588 -1.3408771
-10.785448 0.28972089 -1.3010414
-10.773392 0.097688183 -1.3822235
-10.814577 0.26238728 -1.3805199
-11.131183 0.52127397 -2.2644932
-10.811926 1.1605136 -0.97634041
-10.81677 1.0475948 -0.89672673
-10.849145 1.0883104 -1.0958502
-10.831103 1.0478706 -0.97641802
-10.937136 0.76876563 -1.3278624
-10.981483 0.58711606 -1.5752467
-10.607019 0.97085536 -1.2619957
-10.993835 -0.53581363 -1.8940365
-10.999286 -0.49048352 -2.0138142
-10.583561 1.1238434 0.24607968
-10.583292 1.1262858 0.25858819
-10.673227 0.92445505 -0.020350695
-10.607314 1.0839896 0.17892361
-10.674436 0.96463746 -0.060149074
-10.582889 -0.94092065 1.9305989
-10.55104 -0.45979887 1.7318348
-10.671268 -1.0598128 1.5245084
-10.685305 -1.0596244 1.4573115
-10.605713 -0.45883781 1.4180022
-10.641899 -0.93772966 1.0979856
-10.612372 -0.77573174 0.69163203
-10.481415 -1.1338415 1.0522403
-10.60021 -0.8179087 1.2113169
-10.735442 -1.0557072 -0.098049402
-10.73378 -1.0160997 -0.012882233
-10.683058 -0.85507977 -0.14834332
-10.505283 -0.6602748 1.9175006
-10.549025 -1.0817935 1.6141514
-10.630305 -1.029732 1.5762137
-10.522297 -1.1364758 1.0131515
-10.519578 -1.1344786 1.13313
-10.413209 -1.1287348 2.2910371
-10.214688 0.018922679 2.6039
-10.305263 -0.33970705 2.1318374
-10.300826 -0.35502279 2.2116933
-10.306883 -0.29898795 1.9645003
-10.180246 -0.43661374 2.2085996
-10.178961 -0.48677939 2.2483706
-11.162372 1.3226635 -4.4118452
-11.097255 1.2123044 -3.9505668
-11.051702 1.2578804 -3.9118657
-11.04285 1.2557735 -3.5044379
-11.187879 1.2556078 -3.3887687
-10.935882 1.3380904 -3.2747779
-11.016897 1.3781171 -3.1932876
-10.805662 1.2636735 -2.5968928
-10.823265 1.2635236 -2.601512
-11.024255 0.031306885 -2.6519094
-10.957897 0.024909236 -2.2647195
-11.046435 0.022382066 -2.5428572
-11.088023 -0.28967276 -2.4613698
-11.12143 -0.24979046 -2.4905181
-11.002509 -0.3298575 -2.225831
-10.947454 1.2613547 -2.7938588
-10.945656 1.2519231 -2.7138102
-10.870228 1.3411465 -2.8986232
-10.902254 1.2608202 -2.5547717
-10.985629 1.2491617 -2.7129254
-10.97041 1.2995346 -3.0336947
-10.650713 0.86188751 -1.021428
-10.618456 0.92905414 -0.90182734
-10.651081 0.84947997 -1.0414821
-10.652113 0.92831898 -1.0611012
-10.604751 0.88896376 -0.86231565
-10.616667 0.80887473 -0.86241031
-10.530853 1.1298933 -0.94292653
-10.445143 1.168237 -0.46458822
-10.435808 1.1679244 -0.38478225
-10.437262 1.1502225 -0.34481943
-10.594141 1.3256636 -0.15035713
-10.548814 1.3248892 0.08116138
-11.209696 1.222404 -3.8281736
-11.214705 1.0568247 -3.1867249
-11.238865 1.0553273 -3.3787408
-11.076881 1.3777249 -3.1919866
-11.151327 1.2972381 -3.1898038
-11.074504 1.3384187 -3.094234
-11.086089 1.2143602 -3.6657495
-11.126969 1.2012799 -3.7097836
-11.4007 0.5325489 -3.6190896
-11.357649 0.59394348 -3.4604163
-11.27074 0.89256257 -3.7444897
-10.446877 1.3219881 0.55550063
-10.428731 1.3219974 0.58257806
-10.177792 1.2842903 1.0290855
-10.343603 1.3066521 0.79305065
-10.263591 1.3022592 0.79113257
-10.345538 1.3120105 0.71309757
-10.560524 1.1233814 0.37808454
-10.582147 1.0032203 0.37802839
-11.222363 0.93566185 -3.3457403
-11.239955 0.93471187 -3.4653835
-11.225397 1.0156417 -3.3462424
-11.074661 -0.24974 -2.4115393
-11.257855 -0.13088538 -2.4071157
-11.288855 -0.21087614 -2.4741735
-11.249294 -0.13131657 -2.2472677
-11.242375 -0.15401596 -2.1674674
-11.243015 -0.13145147 -2.1898935
-11.196856 -0.18445858 -1.928509
-11.201022 -0.13146122 -2.1008062
-11.197076 -0.21190733 -1.9460878
-11.258042 -0.6912207 -1.8323445
-11.21646 0.26015592 -2.7009065
-10.488641 -0.46074522 2.0554938
-10.506452 -0.54070669 2.0155544
-10.261862 -0.33955377 2.1708584
-10.391814 -0.82368451 2.8919878
-11.543533 -1.0101418 -3.2435064
-11.496546 -1.0179539 -3.0445254
-11.478492 0.091798335 -3.6492853
-11.491462 0.13084367 -3.7743139
-9.6121674 1.0791404 3.9626603
-9.6542912 0.87950575 3.8052511
-9.7777596 0.79945588 3.62257
-9.7530184 1.3618124 3.0866151
-10.26947 1.3283346 0.55131948
-9.9564838 1.3631988 2.9646978
-9.9777927 1.3607895 2.9839611
-9.9545937 1.3608079 3.0159659
-9.9301176 1.3641551 3.0641575
-9.9895945 1.2776673 2.2149348
-9.8913107 1.2860606 2.2877736
-10.130257 0.15443477 2.6733661
-10.505293 -1.0984061 1.771876
-11.277693 -0.60859257 -3.2082558
-11.266162 -0.24766678 -3.4875393
-11.253493 -0.24795103 -3.3677921
-11.135567 0.17678908 -3.2622094
-11.061449 0.044543758 -2.971123
-11.142677 -0.24805251 -3.1076944
-11.189724 -0.48888838 -2.9297986
-11.102808 0.03198155 -3.0352545
-11.556949 -0.92812639 -3.9356441
-11.443701 -0.60946143 -4.1340003
-11.359429 -0.60682434 -3.9591188
-11.440039 -0.16770196 -4.5524983
-11.433115 -0.24120986 -4.2928743
-11.464533 -0.81213939 -4.1342816
-11.464856 -0.68849361 -4.4138775
-11.610504 -0.13034235 -4.2481108
-11.464048 -0.4866066 -4.2440133
-11.473338 -0.56856096 -4.4132042
-11.480413 -0.56911051 -4.2929978
-11.469193 -0.60651934 -4.2842555
-11.325569 0.050450481 -3.9898887
-11.310303 0.050637297 -3.9777169
-11.334187 -0.12675779 -3.9257846
-11.464976 0.43350783 -4.4052396
-11.434906 -0.20888752 -4.2526927
-11.473716 -0.16654482 -4.291595
-11.509076 -0.52836561 -4.5322142
-10.299597 -0.39768875 2.2514973
-10.326808 -0.52266461 2.7717338
-10.211463 -0.14643767 2.6906567
-9.9660692 -0.097412556 3.5106006
-10.084703 -0.2182374 3.5426521
-9.9235153 -0.45723045 3.5284882
-10.278646 -0.698668 3.3349781
-10.187838 -0.6982615 3.373106
-10.178912 -0.53921455 2.2331457
-10.496558 -0.79918355 2.2543097
-10.227535 -0.43557507 1.8895975
-10.196899 -0.45889097 2.1288648
-10.216577 -0.37921253 2.1696587
-10.535187 -1.1393647 1.6536049
-10.432716 -1.1385908 1.6512696
-10.518665 -1.1346462 1.1731189
-10.95786 -0.69321638 -0.95650852
-10.95916 -0.59310526 -0.98102498
-10.912833 -0.53416944 -0.68673772
-10.959706 -0.57302552 -0.99842483
-11.05514 -1.0423145 -1.8211155
-11.107988 -1.0443995 -1.7729349
-10.921694 -0.97173852 -1.2136899
-10.908509 -0.97178441 -1.1839848
-10.923205 -0.92151052 -1.2634377
-10.904626 -1.0929019 -0.94456577
-10.898965 -1.0924788 -1.0247157
-10.873973 -1.0922947 -1.0252889
-11.422352 -1.0891418 -3.3264537
-10.885056 -0.73113114 -1.2834437
-10.814813 -0.45108604 -1.1837418
-10.824519 -0.49115819 -1.1837031
-10.8739 -0.68843204 -0.7833674
-10.903474 -1.1126821 -0.46455258
-10.904392 -1.1124983 -0.50454152
-10.906302 -1.1021307 -0.58447176
-10.824362 -1.1194086 -0.50641161
-10.738495 -0.97625297 0.012416244
-10.856192 -1.1063592 -0.14552236
-10.990098 -1.081985 -0.74249792
-11.071184 -1.0561414 -0.78052735
-10.885107 -0.28179201 -1.1413374
-10.824005 -0.091338903 -1.1418649
-10.897985 -0.41265172 -0.98160005
-10.256854 -0.85825372 3.2539616
-10.444574 -1.063215 2.6921344
-11.350729 -0.74533993 -3.6071248
-10.58445 -1.0829334 1.8150085
-10.582811 -1.0582695 1.8950959
-10.461431 -1.1250286 1.9320565
-10.671039 -1.0523655 1.5370377
-11.552132 -1.0861213 -3.7636652
-10.600776 -0.17389092 -0.26713252
-10.659887 -0.47759396 -0.10712826
-10.640303 -1.0970571 0.32969213
-10.857435 -0.97941774 0.49526441
-10.842784 -0.97923833 0.47992456
-10.866223 -1.1143355 -0.5854485
-10.707695 -0.41141957 -0.42581284
-10.672161 -0.30289325 -0.58617336
-10.670684 -0.29320401 -0.51864439
-10.289594 -1.128499 2.4482594
-10.246923 -1.1212001 2.5673485
-10.245894 -0.86175454 2.6984472
-10.416371 -0.82299757 2.6924977
-10.890322 -0.45174217 -1.423326
-11.009884 -0.65271705 -1.1401776
-11.002586 -0.6251629 -1.1402185
-11.008533 -0.56406152 -1.3798662
-10.960309 -0.7694931 -1.742017
-11.017643 0.24905837 -1.5159549
-10.891582 -0.25054008 -1.4136192
-10.868342 -0.25052381 -1.381644
-11.06642 -0.36969015 -2.4120698
-11.353685 0.52008289 -3.2999363
-11.310417 0.54897898 -3.141037
-11.269464 0.73745924 -3.0407352
-11.173293 -0.54927117 -2.7702992
-11.439434 -0.41020846 -3.0040298
-10.840838 -0.89974719 0.59027553
-10.732609 -0.81576121 0.77923119
-10.85395 -0.97696012 0.55876517
-11.432644 0.14117524 -3.442697
-11.424276 -0.20837206 -3.1650741
-11.423604 -0.24967524 -3.1464539
-11.235291 1.2969542 -4.1299825
-11.349422 1.1706553 -3.9448128
-11.09762 1.251467 -4.0708675
-11.094238 1.2492673 -4.0309148
-11.360812 1.3139069 -4.2468996
-11.356626 1.3139286 -4.2461696
-11.376031 1.2668676 -4.1049614
-11.375533 0.99400133 -4.406899
-11.354891 0.87411177 -4.4075274
-11.360662 0.91410613 -4.4298525
-11.396981 0.99406374 -4.5664177
-11.41863 1.1379764 -4.263165
-11.326702 0.66961968 -4.7285233
-11.375504 0.92881596 -4.1825929
-11.371103 0.88856655 -4.2224126
-11.399064 0.41783836 -3.5783005
-11.397447 0.3056277 -3.5375285
-11.521868 0.59302223 -4.2436275
-11.477338 0.48982143 -3.9372101
-11.441483 0.39172614 -3.6972275
-11.534433 0.51472151 -4.2562332
-11.511799 0.48298597 -4.1639605
-11.532866 0.41001046 -4.2155132
-11.136493 1.2106824 -4.1460061
-10.478645 1.3295183 -0.78316391
-10.490192 1.3297551 -0.85041595
-10.529837 1.3293912 -0.83450294
-10.53738 1.2709916 -1.1821929
-10.530109 1.2106628 -1.1026156
-10.535513 1.2506475 -1.107309
-10.381165 1.3320155 0.41493523
-10.377437 1.3237798 0.57485533
-10.533694 1.1231976 0.45748913
-10.498775 1.283231 0.50493622
-10.500821 1.2886331 0.41748416
-10.461951 1.3166106 0.3767091
-10.435407 1.1473548 -0.26485342
-10.614514 0.68602818 -0.26286149
-10.350808 1.2693357 -0.026170135
-10.456174 1.1273923 -0.30447912
-10.472751 1.1270795 -0.26408893
-10.600189 0.5480386 -0.66393423
-10.634569 0.4068296 -0.46373963
-10.6339 0.48683578 -0.46338701
-10.641357 0.52697217 -0.50304198
-10.286406 1.286227 1.5118104
-10.171131 1.2805347 1.3089916
-10.809015 0.63321763 -1.0188438
-10.794081 0.76813906 -0.9785552
-10.810751 0.88818496 -1.0126296
-10.785036 0.80782491 -0.89855862
-10.810274 0.93302232 -0.97742486
-10.762981 1.0641564 -0.61780989
-10.717588 -0.31208387 -0.82523751
-9.834136 1.3614991 3.035861
-9.8910036 1.3546383 3.0231752
-9.7944241 1.3543181 3.0199676
-9.8002243 1.3249912 2.7859578
-9.799675 1.3124249 2.8059087
-9.797924 1.3221571 2.8859224
-9.9090624 1.3243814 2.7284236
-9.8206749 1.3249073 2.7664189
-9.8790188 1.3491867 2.8478527
-10.146592 1.2933698 2.3487682
-10.066598 1.2914767 2.3468614
-10.067491 1.2841566 2.306838
-9.9694996 1.29019 2.3695931
-10.170089 1.2678559 1.3489217
-11.279273 1.3043942 -4.2889366
-11.282266 1.3095121 -4.4088941
-11.205531 1.3150742 -4.5408254
-11.324251 -0.61139143 -2.3795197
-11.325253 -0.61126137 -2.4245083
-11.463583 -1.011338 -2.6851501
-11.592084 -1.0099611 -3.4024649
-11.602972 -1.009908 -3.4422321
-11.244142 -1.01807 -2.4900067
-11.45709 -1.0750864 -3.0855794
-11.091533 -0.2744779 -1.4166385
-11.104045 -0.6515038 -1.5381181
-11.090684 -0.64409596 -1.4983801
-11.108738 -0.13133964 -1.5756284
-11.021567 0.12950437 -1.616442
-11.03542 0.0086915046 -1.8115158
-11.021486 0.20988762 -1.6960958
-10.901389 1.2611041 -2.514782
-10.89781 1.2447407 -2.3547022
-10.941278 1.2458434 -2.5138104
-10.942161 1.2480593 -2.5538173
-10.983848 1.2422299 -2.632894
-11.317552 -0.24711743 -3.7739649
-11.30036 -0.28727549 -3.6869421
-11.29447 -0.2873598 -3.6470637
-11.619106 -0.96988732 -3.4817672
-11.585361 -0.8849172 -3.4022532
-11.586053 -0.88982314 -3.4347596
-11.548886 -0.60444224 -3.4822741
-11.541429 -0.80274683 -3.2029436
-11.394815 -0.28888416 -4.1739559
-9.7667723 1.3610206 3.2594519
-9.8686352 1.4001961 3.3018255
-9.725812 1.360635 3.4186006
-9.8948784 1.3937716 3.307662
-9.8928299 1.3584557 3.3925061
-10.207569 -1.0176733 3.1723752
-10.087475 -0.77721155 3.2457271
-9.8868589 1.3003917 2.4877729
-10.008671 0.16003105 2.7405267
-9.9922304 0.020127647 2.7088428
-9.8830242 0.31786847 3.5534544
-9.8555984 0.27916774 3.5671988
-9.9107332 0.31773859 3.5440507
-9.9616489 0.037445568 3.5391064
-10.006207 0.022248462 3.5393491
-9.9669323 0.14248711 3.5389476
-10.003024 0.27718678 3.543396
-9.9047728 0.31715751 3.703958
-9.8805475 0.31699613 3.7834525
-9.8777533 0.41185975 3.8237553
-9.59517 1.1992013 3.9752669
-9.7765045 1.2781868 3.9395018
-9.8148623 1.2781005 3.9003239
-9.8574553 1.2783124 3.7812195
-9.8004827 1.3586836 3.7802997
-9.6893263 0.63863373 3.9626017
-9.8177242 0.7192868 3.600616
-9.9960918 1.3508334 2.9443092
-9.9089508 0.59713489 3.705092
-9.6541843 1.0318047 3.8558598
-9.6920185 0.8388834 3.8984318
-10.149345 1.2814085 2.228745
-10.012151 1.2802896 2.2505016
-9.8141594 0.23921254 3.6211557
-9.7654085 0.063527212 3.9738474
-10.093051 0.1393528 2.7141585
-9.8765793 0.11697004 3.7951236
-9.7767649 0.49214187 3.5763288
-9.9529667 1.360513 3.0909476
-9.8840704 0.71762496 3.6174822
-9.9772835 0.47846082 3.5506177
-9.9366331 0.35874391 3.5442638
-9.8942442 0.51691484 3.7844939
-11.387976 1.2742059 -4.646389
-11.386336 0.87411988 -4.5667987
-11.367303 0.79439813 -4.724896
-11.445486 0.55394787 -4.7031937
-10.006844 1.3019869 2.4905167
-10.007737 1.2996206 2.4505181
-10.020308 1.273993 1.8905715
-10.2007 1.2807579 1.7498215
-11.124822 0.50019771 -2.784615
-11.134051 0.49958077 -2.8644314
-11.266384 0.5931583 -2.9422522
-11.26845 0.64258796 -3.0225792
-10.229015 1.2661405 0.55008054
-10.331916 1.1243029 0.53288126
-10.327918 1.1228874 0.55178463
-10.307104 1.3263006 0.15313697
-10.340548 1.3246953 0.43897545
-10.328626 1.3249023 0.41369569
-11.197544 1.2213795 -3.2682853
-11.200876 1.2160795 -3.3081861
-11.268286 1.173969 -3.5464897
-11.241661 1.1896996 -3.4671569
-11.212605 1.2154462 -3.387948
-10.309055 1.2792623 0.052938223
-10.349854 1.2641521 0.013794899
-10.308191 1.2865779 0.09296298
-10.279525 1.2860265 0.25234544
-10.365628 1.0050063 0.3330524
-10.395455 1.2475078 -0.23530221
-10.395189 1.2424619 -0.2253288
-10.757754 -0.035256937 -0.7430197
-10.71485 -0.31013578 -0.70525879
-11.329677 -1.0103557 -2.7356415
-11.127069 -0.54983014 -2.4912601
-10.654355 0.73109287 -1.3857951
-10.783608 0.73129076 -1.6241409
-10.668724 0.61077654 -1.3422565
-10.694427 0.49039462 -1.302209
-10.737697 0.56314903 -1.4209131
-10.667888 0.53020936 -1.2226137
-10.667806 0.6105926 -1.3022676
-10.82686 0.78854632 -1.8728752
-10.767015 1.2667093 -2.197648
-10.832394 0.86850983 -1.8733232
-10.858549 0.66833955 -1.8713357
-10.80409 0.86895585 -1.8364294
-10.729229 1.2536263 -1.9583113
-10.812671 1.2519674 -2.1165345
-10.78583 0.89201581 -1.7783928
-10.671159 1.2778666 -1.7792518
-10.802547 0.6464842 -1.8323824
-10.818524 0.54915839 -1.7913351
-10.803073 0.70894569 -1.8378158
-11.235898 -0.6519447 -2.0165133
-11.199234 -0.23161057 -2.0486224
-10.765406 0.030238949 -1.3827169
-10.815879 -0.051469117 -1.1018572
-10.768241 -0.13051148 -1.2308497
-10.739381 0.049675204 -1.223182
-10.756071 0.029926315 -1.302911
-10.613726 -0.29475102 -0.10734749
-10.754389 0.006505698 -0.58286136
-10.755854 0.026769347 -0.64025015
-10.847893 -0.41438043 -0.54263884
-10.634224 0.3593314 -0.46396607
-10.63336 0.36664718 -0.42394137
-10.634617 0.28701812 -0.50430059
-10.617352 0.6061967 -0.3031745
-10.625362 -0.17311856 -0.46661866
-10.624537 -0.29388309 -0.30589926
-10.765312 0.87989926 -0.77864754
-10.76565 0.8000862 -0.81901777
-10.774843 0.5282771 -0.98010051
-10.751633 0.0059538856 -0.46289456
-10.717693 0.33447886 -0.62220669
-10.718557 0.32716307 -0.66223139
-10.719476 0.32734701 -0.70222038
-10.718099 0.3270711 -0.64223695
-10.722252 0.14712605 -0.66297448
-10.713827 0.14574739 -0.62316346
-10.636693 0.027814187 -0.67799199
-10.661026 0.067957327 -0.74476671
-10.678001 0.088221006 -0.82430565
-10.636835 0.047820471 -0.67789692
-10.62183 0.24711171 -0.50477791
-10.622072 0.027480908 -0.58580416
-10.622215 0.047487192 -0.5857091
-10.965816 0.50736028 -1.9078813
-10.964642 0.057847377 -2.2130501
-10.981174 0.54461771 -1.5754493
-10.979917 0.52938831 -1.5255346
-11.018001 0.40889135 -1.480202
-11.13061 0.30600026 -2.3029873
-11.143152 0.1831404 -2.3418539
-11.094069 0.10540983 -2.0622923
-11.110003 0.14907491 -2.0895188
-11.07823 0.14903148 -2.0102067
-11.036311 0.0088071302 -1.8515058
-11.155256 -0.15694007 -1.8493359
-10.604193 0.76627529 -0.82288194
-10.627851 0.65031552 -1.1829699
-10.709817 0.24760766 -0.74281991
-10.720962 0.15290549 -0.82302129
-10.674988 0.10861791 -0.9043026
-10.729695 0.092240207 -1.2232084
-10.729819 0.10974658 -1.2231253
-10.613872 1.2860422 -0.26011616
-10.599828 1.3257647 -0.18023419
-10.44642 1.2872758 -0.26395684
-10.896062 1.2428088 -2.2747056
-10.991306 0.28839487 -1.3363298
-10.937555 0.67648757 -1.3757901
-10.819897 1.0077618 -0.93684912
-10.831731 1.008056 -1.0165976
-10.807104 1.0474753 -0.85693848
-10.600643 0.61053622 -0.66363633
-10.742178 0.44756302 -0.78116763
-10.736518 0.44798613 -0.86131752
-10.716673 0.4466067 -0.54169255
-10.608024 0.96379185 0.21839786
-10.619858 0.96408606 0.13864923
-10.627275 1.044414 0.059167385
-10.580809 -1.0211899 1.9952325
-10.32506 -0.3384608 1.8122088
-10.550889 -0.46481961 1.7368118
-10.608793 -1.1184075 0.73512626
-10.57164 -1.1350601 0.60417378
-10.824944 -0.97917837 0.49451911
-10.597132 -0.4589802 1.4653186
-10.746975 -1.0188682 1.1788148
-10.716973 -1.0191214 1.2881585
-10.601364 -0.65542531 1.2145249
-10.586705 -0.93783075 1.2155074
-10.587003 -0.89783233 1.2156819
-10.901336 -1.0282373 -0.34418058
-10.864505 -0.59295911 -0.34302425
-10.89526 -0.61756927 0.052676558
-10.893929 -1.0156825 -0.34429294
-10.50656 -0.55768442 1.8954536
-10.543439 -0.86063212 1.9325358
-10.546045 -0.62548387 1.8960706
-10.604323 -1.1067457 0.93512666
-10.606055 -1.1189101 0.85509384
-10.560282 -1.0981576 1.3342646
-10.213009 -0.061273292 2.6510382
-10.278307 -0.29897934 2.0113606
-10.463868 -0.34020695 1.9754122
-11.052494 0.020394325 -2.8227839
-11.00397 -0.12983343 -2.2352226
-11.009438 1.3003926 -2.8728149
-10.952351 1.3449309 -2.9943976
-10.520484 1.1703517 -1.0230004
-10.603827 0.54377455 -0.82391381
-10.601219 0.52879351 -0.82404268
-10.603081 0.44876665 -0.82186735
-10.6026 0.5010922 -0.78412747
-10.612087 0.64871532 -0.82324135
-10.516785 1.0871358 -0.343283
-10.305382 1.2785265 0.21289408
-10.181531 1.2775083 0.86909735
-10.220963 1.2820926 0.8950609
-10.338896 1.3107548 0.99301541
-10.257804 1.2886832 1.0310036
-10.532497 1.3247352 0.13830161
-10.564582 1.3254523 -0.061012626
-10.591412 1.3256361 -0.14041722
-11.194663 1.1797335 -3.1480212
-11.05657 1.2536836 -3.7916999
-11.053876 1.2553711 -3.5517082
-11.286029 1.195518 -3.6662893
-11.356449 0.54422981 -3.4200792
-11.239918 0.69420862 -3.5361953
-11.234752 0.77446824 -3.5043683
-11.118078 0.53606713 -3.38517
-11.242312 0.65414095 -3.5433607
-11.06947 1.2149909 -3.5910945
-11.210964 0.85601503 -3.3054109
-11.207332 0.8163172 -3.2651973
-11.260975 0.81318337 -3.6641169
-11.405329 0.57612699 -3.8193502
-11.272641 0.93282831 -3.7047243
-11.287735 0.93189466 -3.8244219
-11.285565 0.85163087 -3.8639092
-11.287797 0.81161642 -3.8635769
-11.287746 0.77154738 -3.8732958
-10.464888 1.3421614 0.25686145
-10.376855 1.2925932 1.0738577
-10.337816 1.293076 1.0329219
-10.255906 1.2883246 1.1109802
-11.211026 0.73573679 -3.3445659
-11.149397 0.65058827 -3.065223
-11.214499 0.89654833 -3.2256017
-11.211231 0.89601308 -3.3056893
-11.270597 0.77717334 -3.0810032
-11.231357 0.89744693 -3.0802059
-11.104602 0.18534064 -2.0626318
-11.097639 0.26538587 -2.0633509
-11.128079 0.31685168 -2.1830883
-11.388126 0.095728971 -3.1711457
-10.49485 -0.42061687 2.0157928
-10.403078 -0.89842206 2.8119106
-10.392131 -0.90351397 2.8516498
-10.329904 -0.61755484 2.9362316
-11.279461 0.13289118 -3.6838927
-11.277155 0.12863681 -3.5788856
-11.1919 0.17558575 -3.3810124
-11.261521 0.13234754 -3.7793016
-11.302467 -0.0082542151 -3.3660083
-11.312347 0.7565282 -4.1286097
-9.8844891 0.87752753 3.6430931
-9.8823662 1.0369922 3.7861757
-9.8970051 0.99830663 3.718461
-9.6330252 1.359772 3.7766714
-9.7535505 1.3519208 3.0590811
-10.268521 1.328155 0.59130776
-9.9247913 1.3635607 2.9289665
-9.9320154 1.3645139 2.9841809
-9.9632235 1.3042536 2.6495709
-9.9391193 1.3009517 2.6639719
-9.9731121 1.2857249 2.2096181
-10.092142 0.12014327 2.5822821
-10.001136 1.3236256 2.7480268
-11.340291 0.75401056 -4.2479577
-11.348437 0.87396795 -4.2476382
-11.274302 -0.60869259 -3.1683216
-11.255309 -0.93918449 -2.9696503
-11.27106 -0.72867399 -3.1687407
-11.304537 -0.74089903 -3.3280706
-11.540345 -0.97774261 -3.2034738
-11.133954 -0.48898613 -2.783504
-11.102159 0.016909644 -3.0103061
-11.269552 -0.24756679 -3.5274734
-11.285192 -0.2875441 -3.5672507
-11.342152 -0.68730056 -3.7671881
-11.356956 -0.64711243 -3.8592653
-11.386346 -0.72697192 -3.9663687
-11.47439 -0.80703956 -4.1246796
-11.594149 -0.34722129 -4.3693891
-11.567028 -0.32860589 -4.2493544
-11.497828 -0.36742234 -4.0428662
-11.432401 -0.20652556 -4.203898
-11.509116 -0.04900831 -4.3702998
-11.471941 -0.56653595 -4.2840786
-11.47302 -0.48871994 -4.3728895
-11.244343 0.091468595 -3.9219198
-11.343468 0.60819179 -4.3010402
-11.334942 0.60857803 -4.2537155
-10.328257 -0.54237062 2.7016654
-10.178097 -0.14136007 2.7299271
-10.086372 -0.17821595 3.5340719
-9.9644613 -0.29747614 3.5298853
-9.9651775 -0.17747915 3.5303116
-9.9314899 -0.45634198 3.5359521
-10.565261 -0.8209815 1.9757112
-10.50019 -0.67868537 2.1348653
-10.539858 -0.82134581 2.102664
-10.525331 -0.78120267 2.0949988
-10.2251 -0.41854703 2.0021434
-10.52051 -1.1318111 1.0931517
-10.983594 -0.97023982 -1.6223729
-11.032987 -1.0617285 -0.86145222
-11.067403 -1.014672 -0.82043433
-11.01436 -1.0247047 -1.7819602
-11.056131 -1.0321312 -1.8610568
-10.9073 -1.0119669 -1.1441865
-10.870555 -1.0924602 -0.98535728
-11.462564 -1.0893633 -3.3355613
-10.648004 -0.45776141 1.0988864
-10.607103 -0.457627 1.1379641
-10.927216 -0.8508119 -1.4155619
-10.855977 -0.85158616 -1.1446277
-10.847559 -0.45075518 -1.3030207
-10.879716 -0.39270753 -0.94191706
-10.458673 -1.1280313 2.0520134
-10.398358 -0.98321348 2.7714367
-11.303178 -0.72790551 -3.4881034
-11.304787 -0.72803682 -3.4480581
-11.509633 -0.34181386 -3.442379
-11.478655 0.091745093 -3.6567836
-11.480465 0.11119396 -3.7344022
-11.466391 -0.29202715 -3.2831578
-11.466517 -0.28951275 -3.2881489
-10.688975 -0.85493267 -0.18821764
-10.608995 -0.29725492 0.42517734
-10.659301 -0.49518526 -0.087217212
-10.814384 -1.1039326 -0.066449761
-10.856517 -0.97960168 0.53525329
-10.869933 -1.1086001 -0.7453804
-10.989198 -1.079669 -0.70249701
-10.813855 -0.37451044 -0.46321547
-10.835802 -0.41524488 -0.34286606
-10.726205 -0.053859681 -0.46375376
-10.323231 -1.1249743 2.7291169
-10.205221 -1.1062338 2.646481
-10.366153 -0.66288799 2.754539
-10.365548 -0.69046026 2.771915
-10.123876 -0.86122561 2.7856889
-11.050948 -0.41159755 -1.4357063
-11.046305 -0.65165049 -1.4194124
-11.020311 0.20913345 -1.5360827
-11.334547 -0.17041931 -2.7181003
-11.113764 0.52415204 -3.3051581
-11.185505 -0.24793437 -3.2342722
-11.508962 -0.36937824 -3.4199681
-11.508464 -0.38692838 -3.4025254
-11.410656 -0.33026949 -2.9244196
-11.50283 -0.64994234 -3.2233663
-11.504909 -0.5297718 -3.2829876
-11.591689 -0.93007869 -3.3622327
-11.542136 -0.8501156 -3.248076
-10.841274 -0.88717872 0.5753392
-10.77333 -0.6269663 0.70093024
-11.460123 0.11136633 -3.562201
-11.133044 1.201792 -3.9897275
-11.182525 1.2092421 -4.3087916
-11.355107 0.91411114 -4.4074826
-11.360337 0.88808036 -4.3026628
-11.372295 0.95410782 -4.4870429
-11.392879 0.79417264 -4.6467404
-11.344584 1.0495743 -4.1040988
-11.296494 1.0743321 -4.1853361
-11.490949 0.51111913 -4.0971074
-11.568918 0.23271702 -4.2028069
-11.549325 0.21023369 -4.1232891
-11.489448 0.41640761 -4.056457
-11.524292 0.11221438 -3.9733729
-10.39351 1.3269989 -0.12495124
-10.580106 1.268749 -1.3012545
-10.618026 0.98346514 -1.3016958
-10.60481 1.0108722 -1.2618624
-10.632673 0.56647062 -0.3842774
-10.636021 0.60682201 -0.46278632
-10.632894 0.64665496 -0.42266405
-10.644728 0.64694917 -0.50241268
-10.425228 1.1465895 0.67423475
-10.386857 1.1097534 0.59313583
-10.611637 0.082714662 0.43198705
-10.615294 0.56273091 0.42677712
-10.730706 -0.018206954 0.44176006
-10.699049 0.44307739 0.22559536
-10.626729 0.60288566 0.37721086
-10.249208 1.2795689 1.3908631
-10.163559 1.2815995 1.6289095
-10.213017 1.2805901 1.2299625
-10.837639 -0.414877 -0.42284393
-10.864149 -0.51564598 -0.30266589
-10.82055 -0.41570461 -0.22318578
-10.907811 -0.51520485 -0.46170449
-10.593365 1.285049 -0.020526409
-10.718135 -0.29200414 -0.84263742
-10.740855 -0.3320649 -0.86480594
-9.8866901 1.1971219 3.7468567
-9.8795662 1.3634801 3.047966
-9.92173 1.3243122 2.7212105
-9.8949175 1.3553784 2.8582239
-9.9066105 1.2876909 2.3430481
-10.03035 1.2849982 2.185926
-9.9887047 1.2774992 2.2524238
-11.202417 1.3162 -4.4146128
-11.403053 1.2789006 -4.4459505
-11.40488 1.2739744 -4.5209332
-11.32305 -0.61654305 -2.3270481
-11.054222 -1.0424986 -1.7811265
-11.093328 -1.0379775 -1.7401966
-11.495415 -0.91318756 -2.9642274
-11.246782 -1.022723 -2.6099916
-11.456324 -1.0552025 -3.0455289
-11.332297 -0.27312639 -2.6459293
-11.45424 -0.67328978 -2.8444207
-11.034293 0.06902124 -1.5364058
-10.856463 -0.4373045 0.057615995
-10.87415 -0.53724563 0.017551661
-10.735177 0.32322651 0.13835013
-10.730469 0.36326182 0.13842618
-10.683434 0.64380342 0.098625422
-10.693223 0.52334803 0.1783179
-10.685353 0.563788 0.098301411
-10.653134 0.23499471 0.41613603
-10.614645 0.36289945 0.3908335
-10.822562 1.2637544 -2.5690205
-10.940396 1.2436273 -2.4738033
-10.938581 1.2316959 -2.3937373
-10.984714 1.241946 -2.6728837
-11.506812 -0.76966602 -3.3236489
-9.748313 1.3459773 3.2990022
-9.7856684 1.3402457 3.4198189
-9.9205332 0.71722001 3.665781
-9.9225531 0.63720691 3.6655264
-10.087327 -0.78472847 3.250699
-9.8973093 1.3108959 2.7430472
-9.8823519 1.3072228 2.687746
-9.9251156 1.3123221 2.568707
-9.9010296 1.301614 2.5830479
-9.9913874 0.05991666 2.7590036
-9.9226418 0.23764612 3.5490112
-9.9662161 0.022490114 3.5385208
-10.006871 0.14223687 3.5422754
-9.8773756 0.27693784 3.8032393
-9.877244 0.23695755 3.7980862
-10.018195 1.3591018 3.0301342
-9.8454294 1.3242989 2.8870134
-9.8960419 1.315649 2.7980547
-10.147597 1.3010488 2.3088145
-9.8762846 0.076961786 3.7974687
-9.8162632 0.063302621 3.9349403
-9.8066292 0.14334677 3.9424477
-9.8064499 0.11795795 3.940589
-9.8117905 0.14333369 3.9350581
-9.8056116 0.037901334 3.9552598
-9.8319063 0.03797482 3.8958158
-9.7658634 0.1181097 3.967216
-9.8541193 0.10339081 3.8158407
-9.939435 1.3608758 3.023139
-11.326791 0.67462206 -4.7310166
-11.367581 0.8344 -4.7273502
-10.023802 1.296242 2.4659019
-10.023066 1.2768941 1.7706124
-10.042554 1.2698309 1.6659969
-9.9794264 1.2766609 1.9296581
-11.144216 0.5245142 -2.8643885
-11.223698 0.57927245 -2.8230467
-11.180726 0.5228886 -2.7035456
-11.30936 0.53679901 -3.0959618
-11.269567 0.67980224 -3.0628295
-11.241182 1.1748247 -3.4495573
-11.259717 1.0140257 -3.5455394
-11.040683 -0.48953074 -2.4129896
-11.00024 -0.50750494 -2.1738822
-11.030462 -0.73031861 -2.1338434
-11.034101 -0.69021958 -2.1736565
-11.03577 -0.85055053 -2.0690565
-11.069841 -1.0339181 -1.8537743
-11.098709 -1.0107501 -2.1331344
-11.049714 -0.85044092 -2.1337619
-11.273634 -1.0101485 -2.6893771
-11.327636 -1.0256083 -2.6482091
-11.325839 -1.0283394 -2.5682371
-11.279709 -1.0138986 -2.2891524
-11.364985 -1.0212057 -2.5273345
-10.982676 0.56988114 -1.6328143
-10.666515 0.65079343 -1.3421232
-10.774122 0.071616068 -1.4223373
-10.815354 0.3299422 -1.3926946
-10.829092 0.74853188 -1.8725426
-10.827365 0.8520906 -1.8576441
-10.80315 0.81093347 -1.5783135
-10.761499 0.8918137 -1.6989307
-10.755292 0.85166806 -1.6592472
-10.843342 0.58833492 -1.8861005
-11.041246 0.42735431 -1.8356626
-10.93422 0.33091384 -1.7775655
-10.825191 0.57155401 -1.7439532
-11.023748 0.48992294 -1.7047584
-11.12807 -0.13110067 -1.655205
-10.92307 -0.4347648 -1.1011583
-10.765959 -0.16841242 -1.1435527
-10.833015 -0.17045298 -1.3420763
-10.841882 -0.57586426 -0.22343254
-10.781784 -0.71773297 -0.26547652
-10.629476 0.64648944 -0.38273239
-10.647647 -0.29366601 -0.38663954
-10.623906 -0.30425406 -0.22719002
-10.764566 0.92717898 -0.7309342
-10.757955 0.80603397 -0.48157525
-10.757601 0.82842964 -0.45897424
-10.765194 0.88736445 -0.77111375
-10.765937 0.84757292 -0.81629205
-10.786002 0.68819737 -0.97910857
-10.615979 0.93063378 -1.2294661
-10.756516 0.046872057 -0.66264862
-10.715126 0.10679653 -0.5833019
-10.625295 0.12746572 -0.58527046
-10.636899 0.12771396 -0.65502185
-10.606347 0.32856196 -0.7848351
-10.635118 0.22970423 -0.54456365
-10.706621 0.20858411 -0.94312727
-10.964869 0.1496201 -1.9727197
-10.959809 0.22712237 -1.9460316
-10.942974 0.25122952 -1.8577526
-10.958981 0.14953578 -1.9328411
-10.982936 0.30613589 -2.066123
-11.137555 0.22345515 -2.3022509
-11.126425 0.1838064 -2.2622001
-11.130826 0.22405577 -2.2223804
-11.148729 0.14968081 -2.3687248
-11.15687 0.10975046 -2.408669
-11.083022 0.078260496 -2.0223284
-11.040215 0.43520889 -1.7857277
-10.994316 0.15004171 -2.1721127
-10.982537 0.14987306 -2.0923555
-10.987667 0.26610512 -2.0657363
-10.56354 1.0083157 -0.66265875
-10.579165 0.9683907 -0.70249444
-10.56141 0.92800838 -0.59555876
-10.486387 1.1292913 -0.74889755
-10.58829 0.84832162 -0.70283717
-10.599544 0.76861888 -0.78296709
-10.593917 0.80847025 -0.74290204
-10.599833 0.80861735 -0.78277636
-10.72278 0.15077347 -0.90301108
-10.767056 0.48833385 -0.98046315
-10.723022 0.1273178 -0.70305902
-10.728797 0.10745862 -0.7430284
-10.730777 0.12783279 -0.82291126
-10.685614 0.068729714 -0.94425297
-10.424811 1.2481973 -0.42467648
-10.430066 1.2487307 -0.54458606
-10.444399 1.2490065 -0.62427729
-10.614533 1.2856557 -0.18008089
-11.017509 0.32839313 -1.3755549
-10.938446 0.64920706 -1.4234082
-10.584291 0.76815915 -0.66328686
-10.561123 0.92795092 -0.58306217
-10.728729 0.40804291 -0.86168015
-10.946804 0.030095078 -2.0934975
-10.587773 0.96336889 0.33796346
-10.618567 1.0042869 0.098793626
-10.71551 0.96559823 -0.32427329
-10.756864 0.80581552 -0.43408841
-10.610543 -1.1280718 0.65510428
-10.956877 -0.20945916 -1.7395196
-10.852063 -0.13033049 -1.3964691
-10.897462 0.030219495 -1.5797383
-11.103821 -0.21168607 -1.4960892
-10.890887 -0.33056003 -1.4090018
-10.588696 -0.45766246 1.1775547
-10.599127 -0.82559699 1.256272
-10.902592 -1.1078663 -0.4245398
-10.713097 -0.97511226 -0.18821645
-10.521466 -0.66064781 1.9753836
-10.523247 -1.1313083 0.97318399
-10.60056 -1.1224155 1.095018
-10.573016 -1.0977304 1.2145249
-10.606986 -1.1162426 0.81511557
-10.460447 -1.1382768 1.5318717
-10.546634 -1.0987525 1.4939934
-10.316173 -0.33961499 2.0920763
-10.266552 -0.29874882 1.9785849
-10.540016 -0.45991188 1.7765948
-10.524503 1.2659166 -0.62235957
-11.15949 1.3150504 -4.2968888
-11.15671 1.3149397 -4.1844234
-10.933187 1.3397779 -3.0347862
-10.993917 0.030769654 -2.4125266
-11.065742 0.42253256 -2.5052702
-11.094571 0.50790024 -2.4252319
-10.991225 1.3400245 -2.9435086
-10.872825 1.3402944 -3.0185919
-10.591626 0.92887038 -0.82242262
-10.521518 1.1295807 -0.86312056
-10.496444 1.2101481 -0.94334769
-10.684934 0.7239843 0.059017777
-10.684981 0.60417277 0.018456817
-10.691398 0.76470011 -0.10069001
-10.184433 1.2855463 0.74916756
-10.25972 1.2915421 0.95103896
-10.382926 0.94295001 0.21313155
-10.410291 0.92524809 0.21367872
-10.637656 0.84471589 -0.021534562
-10.645121 0.80523241 -0.14157748
-11.200645 1.2554374 -3.4009943
-11.044711 1.2501526 -3.5918798
-11.284796 1.1733739 -3.6161461
-11.272846 1.0931046 -3.6658478
-11.240933 0.82164931 -3.54458
-11.379338 0.57241017 -3.6598454
-11.306192 0.93066078 -3.9840546
-11.286138 0.95246166 -3.7445817
-11.206867 0.49176434 -3.9180713
-10.421329 1.3242671 0.40581942
-10.421605 1.2956867 0.87487566
-10.456349 1.3030076 0.61658323
-10.256858 1.2810154 1.0684577
-11.15031 0.69789082 -3.0930462
-11.143617 0.77784729 -3.106262
-11.151216 0.79279757 -3.1062038
-11.21656 0.81570029 -3.3450141
-11.315013 0.58755726 -3.3412628
-11.314442 0.57521755 -3.3186817
-11.138048 0.57844108 -3.024946
-11.270008 0.69719493 -3.0779474
-11.129396 0.3840645 -2.2235475
-11.306694 0.37622726 -3.0598705
-11.306365 0.33234122 -3.0195556
-11.306913 0.28455952 -3.0592146
-11.220043 0.29235405 -2.7410679
-11.344074 0.11058559 -3.0671632
-11.343159 0.070499837 -3.037292
-11.27775 0.030204356 -2.8063071
-11.146878 0.41921887 -2.9035935
-11.120616 0.45827729 -3.0644805
-11.143576 0.29924095 -2.902813
-11.146924 0.37831426 -3.0333354
-11.383988 0.035387591 -3.0839961
-10.394928 -0.86353427 2.8518815
-10.32191 -0.56850082 2.9714837
-11.321744 -0.0081325173 -3.4455986
-11.309469 -0.088299215 -3.3660836
-11.310218 0.76980013 -4.1028562
-11.302356 0.7306866 -3.982718
-11.332542 0.72881937 -4.2221127
-9.8077135 1.0779817 3.9393911
-9.8847294 0.91752648 3.6432476
-9.9069767 0.95730484 3.6663823
-9.8977394 0.91853505 3.6606493
-9.8542356 1.0380149 3.8577232
-9.8961134 0.9572165 3.7061567
-9.8315239 0.75798601 3.8986397
-9.854146 0.83823705 3.8019223
-9.839283 0.91826332 3.8194189
-10.337466 1.3265746 0.57395005
-10.285882 1.3246453 0.53274548
-10.338385 1.3267584 0.53396118
-10.338941 1.3243735 0.50895607
-10.406765 1.3239453 0.49550796
-9.9174652 1.3636425 2.9212976
-9.9004726 1.3634629 3.0084324
-9.9785671 1.3155243 2.692481
-9.9363108 1.3054132 2.7839599
-10.608996 -1.0207922 1.8558398
-10.58145 -0.98112863 1.9804109
-11.361184 0.83403236 -4.3673992
-11.255679 -0.9691115 -2.9947348
-11.267372 -0.68816555 -3.3287458
-11.280767 0.14999989 -3.7389998
-11.117789 -0.48904395 -2.7313511
-11.201082 -0.52908128 -2.889652
-11.366179 -0.72720921 -3.8467884
-11.556383 -0.83078051 -3.8828621
-11.515984 -0.7531476 -3.8435273
-11.359839 -0.48687065 -3.943759
-11.514837 -0.36361957 -3.6823864
-11.316494 -0.24725473 -3.7264771
-11.442177 -0.80680001 -4.1378994
-11.425222 -0.72931117 -4.1349168
-11.591997 -0.81910932 -3.6819849
-11.46434 -0.64947003 -4.1736655
-11.480292 -0.77731848 -4.0444422
-11.593739 -0.39721918 -4.3695936
-11.508188 -0.36499026 -4.1314788
-11.456033 -0.16655174 -4.2432661
-11.488055 -0.0094870478 -4.2106109
-11.466052 -0.56662029 -4.2441998
-11.467438 -0.48650664 -4.2839475
-11.430404 0.16845983 -4.1760054
-11.416989 0.23345266 -4.1265373
-11.243338 0.1363149 -3.9270473
-11.376925 0.56547314 -4.3000126
-11.333122 0.57159454 -4.1809735
-11.449334 0.36750033 -4.29704
-11.43603 0.43348616 -4.2459064
-11.354548 0.71402198 -4.3276691
-11.494909 -0.086672828 -4.2821794
-10.345067 -0.54262841 2.7320561
-10.197697 0.018669344 2.6910343
-9.9717426 -0.41660839 3.536932
-9.9238377 -0.37725818 3.5362711
-10.539218 -0.86140716 2.1174855
-10.460947 -0.70071495 2.0938668
-10.224047 -0.49862784 2.0217891
-10.567105 -1.0978603 1.2544001
-11.016456 -1.010864 -1.5417831
-10.976048 -0.80939513 -1.7868512
-11.033386 -1.0541599 -0.87641227
-11.030104 -1.0111537 -1.8595946
-11.031037 -0.98605317 -1.89451
-11.498798 -0.7978434 -3.0838487
-11.505354 -0.69026172 -3.1234016
-10.854641 -1.0925336 -0.94571233
-10.532352 -0.25605789 0.29107034
-10.557716 -0.29662681 0.37148809
-10.772593 -0.65705943 0.72329342
-10.604548 -0.46510786 1.1378745
-10.923595 -0.89147717 -1.2707927
-11.080934 -1.0555353 -0.66026795
-11.378261 -1.0115309 -2.4469907
-11.445853 -1.0215907 -2.5655446
-11.361484 -1.0116682 -2.3673449
-11.384944 -0.97205704 -2.2866879
-11.359826 -0.99190003 -2.2873046
-10.817057 -0.9885692 -0.14587951
-10.857585 -1.0960953 -0.20295882
-10.858192 -1.0834923 -0.22539306
-10.415459 -0.82316518 2.7324867
-11.492933 -0.3294515 -3.3626952
-11.467965 -0.28932488 -3.3531327
-11.511244 -0.36908194 -3.5224419
-10.782059 -0.73515183 -0.28305513
-10.645449 -0.46524227 1.0987967
-10.609637 -0.17730549 0.43574667
-10.570202 -0.17190757 0.41235948
-10.610332 -0.097285539 0.43112934
-10.721183 -0.5372628 0.2541033
-10.73247 -0.5775373 0.29418814
-10.759456 -1.0960279 -0.067675114
-10.856092 -1.0963943 -0.13797677
-10.738205 -1.0162516 0.012225509
-10.886753 -0.53524071 -0.42226946
-10.830543 -0.3942523 -0.54294479
-10.163286 -1.0613525 2.7457385
-11.05054 -0.53898925 -1.4588077
-11.051065 -0.466492 -1.4584621
-11.045404 -0.81211114 -1.3226447
-11.030824 -0.97115999 -1.5012596
-11.020858 0.24970216 -1.6559162
-11.020568 0.20970368 -1.6561068
-11.07706 -0.40963614 -2.4519584
-11.333945 -0.33036485 -2.7360806
-11.055059 0.018735014 -2.6912696
-11.196357 0.52527696 -3.4234095
-11.112999 0.53943527 -3.2652731
-11.276235 -0.20809287 -3.3671703
-11.378882 -0.33031294 -2.8451073
-11.374533 -0.5303719 -2.8182757
-11.334396 -0.36527729 -2.7661791
-11.421655 -0.3398537 -3.0842423
-11.501633 -0.62761629 -3.1633134
-11.604828 -0.97004026 -3.4020653
-11.597578 -0.92999429 -3.4021111
-11.553384 -0.89032298 -3.2029305
-11.397201 0.29318154 -3.5299435
-11.434662 0.09331996 -3.4726992
-11.146867 0.14282851 -3.1016827
-11.095431 1.3152139 -4.1334219
-11.14032 1.252018 -4.310009
-11.359333 0.95404404 -4.3673267
-11.388495 0.99406511 -4.5266151
-11.317981 0.87399924 -4.1283545
-11.488666 0.42919099 -4.0165548
-11.638061 0.0125871 -4.4069324
-10.479899 1.1279922 -0.46647567
-10.259737 1.2577183 0.45181525
-10.419455 0.88454825 0.34623802
-10.416018 0.62424773 0.41248
-10.379294 0.88480842 0.35281873
-10.381475 0.88524526 0.25784504
-10.610623 -0.057287052 0.43131995
-10.250157 1.2797484 1.3508748
-10.084476 1.2748861 1.5869912
-10.024872 1.2746615 1.6906248
-10.023977 1.2770278 1.7306229
-10.131068 1.2708385 1.3079976
-10.211043 1.2702317 1.3098925
-10.799793 0.62637848 -0.61897814
-10.90873 -0.51502091 -0.50169349
-10.863487 -0.53574866 -0.28026742
-10.727123 -0.053675756 -0.50374269
-10.597601 -0.014246464 -0.18644929
-10.642776 0.28657657 -0.42409343
-10.644648 0.32637271 -0.38385648
-10.62917 0.16860288 -0.30491596
-10.666622 0.24518451 -0.1686666
-10.670731 1.2092454 -1.0193703
-10.612674 1.256983 -0.9804734
-10.624197 1.2492075 -0.94023359
-10.592702 1.2854352 -0.10056162
-9.9110994 1.3804085 3.1826401
-9.9232903 1.3120549 2.6486859
-9.8986511 1.3161423 2.688087
-9.9774628 1.2773397 2.3046713
-10.009506 1.2923882 2.3705134
-11.40948 1.2740443 -4.6058455
-11.326139 1.2969525 -4.5678711
-11.148039 -1.0346501 -1.7720149
-11.258087 -0.75611472 -1.8551483
-11.132314 -0.97107345 -1.6739756
-11.130339 -0.8167001 -1.538274
-11.468137 -0.85087937 -2.8446248
-11.449501 -0.86374766 -2.6850369
-11.448975 -0.94874567 -2.6852946
-11.391081 -0.93197364 -2.3264451
-11.503629 -0.52993798 -3.225502
-11.459353 -0.53024405 -3.0339408
-11.484023 -0.85085768 -2.8842809
-11.51055 -0.89078194 -2.9638257
-11.035355 0.089211464 -1.5762997
-10.808716 -0.41599882 -0.14343715
-10.855802 -0.45740718 0.080014467
-10.813037 -0.40524685 0.21680951
-10.69106 0.84451312 -0.060319781
-10.751538 0.62501764 -0.25999475
-10.695396 0.84486258 -0.14024031
-11.35157 -0.44797724 -3.561235
-11.564955 0.032117672 -4.0252118
-11.565196 0.017161392 -4.0402536
-11.471844 -0.52726197 -4.0439072
-11.479909 -0.76737654 -4.0244169
-9.8919821 1.3433256 3.4274397
-9.866643 1.3598828 3.3816433
-9.7456627 1.3380058 3.4189425
-9.9060173 0.79730904 3.6657653
-9.8440208 1.2852926 2.6067767
-9.9659052 1.2971549 2.5295768
-10.005055 1.3067193 2.5705128
-9.9626627 0.19745065 3.5372243
-9.8833714 0.35788605 3.5486097
-9.8971291 0.43705085 3.7442493
-9.8375893 1.3243053 2.9018388
-9.8023825 0.19947188 3.5757332
-9.814332 0.2492319 3.6161981
-9.7759542 0.3996053 3.5859494
-9.8779335 0.3969067 3.8112001
-9.8365993 -0.016720802 3.8951578
-9.8118134 0.15794393 3.9358616
