ply
format ascii 1.0
comment PCL generated
element vertex 404
property float x
property float y
property float z
element camera 1
property float view_px
property float view_py
property float view_pz
property float x_axisx
property float x_axisy
property float x_axisz
property float y_axisx
property float y_axisy
property float y_axisz
property float z_axisx
property float z_axisy
property float z_axisz
property float focal
property float scalex
property float scaley
property float centerx
property float centery
property int viewportx
property int viewporty
property float k1
property float k2
end_header
-1.8348038 0.029915169 2.4327357
-1.3995366 -0.36021465 2.347219
-1.382592 -0.37523395 2.3438842
-1.5104706 -0.49429196 2.3772073
-1.4694712 -1.0189292 2.3862705
-1.2248697 -1.0263956 2.3307836
-1.1098363 -1.0366499 2.3049252
-1.0715337 -1.0367391 2.2961986
-1.0258074 -1.0427907 2.285989
-0.93999839 -1.0666463 2.2672687
-0.8340435 -1.0632102 2.2429993
-0.75743771 -1.0633886 2.2255459
-0.75007677 -1.0643575 2.2239022
-0.6954906 -1.0666225 2.2115405
-0.52029085 -1.0623958 2.1714611
-0.43635511 -1.0610464 2.1522834
-0.42899466 -1.0620153 2.1506398
-0.35079575 -1.0649285 2.1329193
-0.23735809 -1.0657005 2.1070919
0.012049675 -0.66285962 2.0361133
0.061743736 -0.62095219 2.0233169
0.084668636 -0.62052047 2.0180769
0.17446756 -0.61701131 1.9974869
0.43066025 -0.49594867 1.9348485
0.47765303 -0.45329416 1.9226416
0.50799942 -0.41570926 1.9144064
0.8273859 -0.13193196 1.8316561
0.82704687 -0.091884315 1.8303282
0.83240986 -0.010349914 1.8262451
0.83440733 0.052826494 1.8235732
0.83684349 0.070963085 1.8223816
0.84103918 0.094534561 1.8205984
0.84347534 0.11267115 1.8194067
0.84288502 0.19197111 1.816759
0.84485483 0.22900784 1.8150105
0.84773588 0.3322227 1.8107325
0.84655523 0.40463987 1.8084607
0.85024309 0.43036008 1.8067176
0.86350203 0.51293111 1.8007987
0.86575127 0.57094777 1.7982504
0.86154747 0.63279402 1.7970386
0.8644886 0.6483593 1.795822
0.87225771 0.75195599 1.7904166
0.86117983 0.82921582 1.7902306
0.87273884 0.86838603 1.7862219
0.88704729 1.0343122 1.7771389
0.88400126 1.0742596 1.7764316
0.51492643 1.3878596 1.8495468
0.35573864 1.4145041 1.8848935
0.23178768 1.4094021 1.913323
0.16956568 1.3853152 1.9283497
0.12661314 1.3688984 1.9387152
0.042752743 1.3648512 1.9579705
-0.08138752 1.342021 1.9870652
-0.16884661 1.3351977 2.0072379
-0.19917583 1.336452 2.0141068
-0.25626135 1.3326626 2.0272503
-0.29548025 1.3325582 2.0361924
-0.3734293 1.3299468 2.05405
-0.44915009 1.3328013 2.071208
-0.51188707 1.3258176 2.085752
-0.52660942 1.3277876 2.0890384
-0.68705654 1.3191235 2.1259108
-0.73268938 1.3176963 2.1363614
-0.7946043 1.3183918 2.1504486
-0.80929494 1.3178651 2.1538153
-0.90212059 1.3151634 2.1750665
-0.96244383 1.3132095 2.1888838
-1.0007467 1.3132939 2.1976109
-1.0772901 1.3084693 2.2152255
-1.1156554 1.3135471 2.2237916
-1.2305326 1.3113036 2.2500527
-1.2451921 1.3082802 2.2535
-1.540813 1.0333285 2.330524
-1.5663638 0.97096783 2.3385355
-1.5988777 0.89114577 2.3487465
-1.6337857 0.81132907 2.3595033
-1.6449504 0.76045126 2.363833
-1.672981 0.69157487 2.3726382
-1.6818142 0.64568532 2.3762617
-1.7097821 0.57181543 2.3852277
-1.720084 0.53313267 2.3889329
-1.752912 0.37064832 2.4021161
-1.7543051 0.29075766 2.4052367
-1.7981453 0.14812349 2.420233
-1.8095522 0.088089392 2.4249392
0.49031305 -1.0823019 1.9418259
0.48076725 -0.60804999 1.9273616
0.84305286 -0.42273134 1.8382884
0.88252354 -0.31944072 1.8256682
0.87891865 -0.30274314 1.825904
0.87348032 -0.24133787 1.8249891
0.86987591 -0.22464028 1.8252248
0.86524105 -0.20317197 1.8255278
0.88454342 -0.0024021417 1.8140842
0.897892 0.076564237 1.8082712
0.89368343 0.11771459 1.8077866
0.8927269 0.26030135 1.8030016
0.89332676 0.3336634 1.8002909
0.89077234 0.38016427 1.7992417
0.89145374 0.44853204 1.7966876
0.91621971 0.55230081 1.787402
0.91003895 0.65229714 1.7853023
0.90934658 0.69474852 1.7839706
0.91135836 0.79529983 1.7799841
0.91005516 0.8752085 1.7774774
0.90875149 0.95511705 1.7749708
0.90352249 1.0518401 1.7727689
0.90679646 1.0749799 1.7712108
0.89886379 1.1136031 1.7716637
0.8975606 1.1935116 1.7691571
0.89690876 1.2334659 1.7679037
0.88897562 1.272089 1.7683567
0.595819 1.4339423 1.8294932
0.55945826 1.454226 1.8370687
0.38240528 1.4311211 1.8782327
0.31765938 1.4296257 1.893042
0.29381371 1.4308679 1.8984332
0.27932835 1.431236 1.9017217
0.25560188 1.4320691 1.9071001
0.20498419 1.431433 1.9186591
0.033738613 1.3876297 1.9592258
-2.0503998e-05 1.3883522 1.9668947
-0.0049285889 1.3887477 1.9679995
-0.030510902 1.3827777 1.9740396
-0.1230588 1.3796468 1.9952427
-0.23455954 1.3668029 2.0211062
-0.29875946 1.3598917 2.0359809
-0.36800385 1.3590755 2.0517917
-0.52841997 1.3479147 2.0887446
-0.65047073 1.3316758 2.1171319
-0.72918057 1.330936 2.1350973
-0.76531672 1.3269355 2.1434736
-0.78733706 1.3248971 2.1485639
-0.85658193 1.3240809 2.1643746
-0.98614979 1.3213108 2.1940026
-1.0480962 1.3245032 2.2080092
-1.0936975 1.3205791 2.2185402
-1.1629734 1.3222597 2.2342703
-1.2779133 1.3250098 2.2603707
-1.3235772 1.3260794 2.2707407
-1.4074814 1.3222396 2.2899985
-1.4605377 1.326791 2.3019314
-1.5151854 1.3339915 2.3141339
-1.611521 1.3325946 2.3361394
-1.6519666 1.3337343 2.3453176
-1.714092 1.3378956 2.3593311
-1.7670231 1.3324599 2.3715856
-1.8509896 1.3336139 2.3906827
-1.917486 1.3333645 2.4058471
-1.9968715 1.335463 2.4238667
-2.0351746 1.3355477 2.4325936
-2.0734458 1.3331354 2.441401
-2.0830216 1.3331566 2.4435825
-2.1499579 1.325814 2.4590962
-2.2014534 1.3302124 2.4706786
-2.2780592 1.3303812 2.4881325
-2.3582361 1.322304 2.5066895
-2.3786583 1.3215852 2.5113692
-2.566704 1.3161874 2.5544176
-2.5813949 1.3156605 2.5577841
-2.6315188 1.3172987 2.5691509
-2.650671 1.3173411 2.5735145
-2.6771517 1.3158715 2.5796015
-2.699172 1.313833 2.5846918
-2.7492971 1.3154716 2.5960586
-2.8185732 1.3171523 2.6117887
-2.8642998 1.3232152 2.6219978
-2.940968 1.3283777 2.6392908
-3.0353918 1.3599246 2.6597047
-3.0455294 1.3603287 2.6620011
-3.0689073 1.3599982 2.667341
-3.0976343 1.3600616 2.6738861
-3.1198447 1.36097 2.6789165
-3.1310015 1.3616631 2.6814349
-3.1521921 1.3622828 2.6862428
-3.1669102 1.3617423 2.6896162
-3.199199 1.3605721 2.6970165
-3.2388763 1.360373 2.7060666
-3.2412701 1.3603783 2.7066121
-3.2557817 1.3588824 2.7099719
-3.2770853 1.3529673 2.715035
-3.4463913 1.3404474 2.7540619
-3.4847255 1.3430285 2.7627084
-3.5754759 1.3257518 2.783998
-3.6069741 1.3242455 2.79123
-3.7408049 1.3245883 2.8217201
-4.0813203 1.3447535 2.898622
-4.1584578 1.387367 2.9147077
-4.2528052 1.4394462 2.9343839
-4.303874 1.4764497 2.944725
-4.3343892 1.4781406 2.9516206
-4.3521147 1.4749517 2.9557724
-4.5540433 1.400641 3.0044026
-4.5635157 1.4001844 3.0065775
-4.5710244 1.3996418 3.0083079
-4.6393528 1.3990147 3.0239031
-4.7001171 1.3989575 3.0377543
-4.7699623 1.4060426 3.0534248
-4.8009667 1.4101355 3.0603476
-4.8465991 1.4087081 3.0707982
-4.9231739 1.4063802 3.0883324
-4.9828968 1.3965251 3.1022899
-5.0760102 1.3767571 3.1242058
-5.1261258 1.3527591 3.1364701
-5.3489614 1.2788589 3.1898508
-5.47932 1.2861378 3.2193065
-5.5096655 1.2826078 3.2263465
-5.5938821 1.2812753 3.2455876
-5.6398888 1.2798989 3.2561216
-5.8320508 1.3625174 3.29702
-5.9090433 1.4050534 3.3130753
-6.0515113 1.4248309 3.3448522
-6.1841745 1.3939521 3.3761718
-6.280231 1.3851423 3.3983738
-6.3142633 1.3812554 3.4062669
-6.5051107 1.3664927 3.4502821
-6.6128116 1.3840945 3.4742115
-6.6200094 1.3865998 3.475764
-6.6582866 1.3916376 3.4843113
-6.9805136 1.2142632 3.5639758
-7.0196977 1.2141296 3.5729113
-7.2164145 1.3084342 3.6144373
-7.3311448 1.3160565 3.6403189
-7.369523 1.3285851 3.6486263
-7.5226998 1.35373 3.6826558
-7.5609431 1.3562706 3.691283
-7.6166325 1.345922 3.7043386
-7.7045984 1.3312244 3.7249031
-7.742312 1.3313332 3.733495
-7.8534956 1.3320332 3.758811
-7.9418397 1.3320684 3.778945
-7.9690824 1.3318918 3.7851601
-8.0367908 1.3410954 3.8002691
-8.1958532 1.3324506 3.8368254
-8.2356329 1.3396757 3.8456385
-8.3503141 1.3447149 3.8715994
-8.4735479 1.3305936 3.900182
-8.7095051 1.3218853 3.9542663
-8.9080563 1.3004913 4.0002699
-8.9881935 1.2872899 4.0189981
-9.0675354 1.2867594 4.0370998
-9.0265121 1.1270432 4.0333538
-8.9862585 1.0873599 4.0255718
-8.9464951 1.047583 4.0179043
-8.7912388 0.84403187 3.989661
-8.7706795 0.74415278 3.9884796
-8.6961498 0.60355437 3.9764259
-8.8353052 0.20562534 4.0221038
-8.9902744 0.090708643 4.0614562
-8.9855824 0.071546748 4.061059
-8.9697285 -0.0091722459 4.0602775
-8.9691505 -0.049122691 4.0615478
-8.8896904 -0.047694951 4.0433874
-8.8604317 -0.046706975 4.036684
-8.4596767 -0.32374561 3.9550655
-8.1810484 -0.52202934 3.8985183
-8.1220398 -0.60140193 3.8878541
-8.0580778 -0.76085722 3.878871
-8.0611992 -0.8886705 3.8840668
-8.0585546 -0.93575019 3.8851159
-8.0163174 -1.0406103 3.8791685
-7.8624387 -1.0805089 3.8454969
-7.8183641 -1.0794342 3.8354139
-7.6100578 -1.1194372 3.789341
-7.56708 -1.1194482 3.7795458
-7.4221463 -1.0769105 3.7450204
-7.2125044 -1.0614781 3.6966982
-7.0899754 -1.0680289 3.6690013
-6.9372749 -1.0581455 3.6338515
-6.8912449 -1.0571494 3.6233258
-6.8608952 -1.0557013 3.6163576
-6.7462807 -1.0557818 3.5902379
-6.6923952 -1.0562608 3.5779734
-6.5698357 -1.0653093 3.5503573
-6.4934559 -1.0628655 3.5328634
-6.3708963 -1.071914 3.5052474
-6.2563415 -1.066999 3.478966
-6.188056 -1.0430982 3.462564
-5.9890566 -1.0546982 3.4176157
-5.8969665 -1.0552042 3.3966446
-5.4316998 -0.96958095 3.2875981
-5.265554 -0.91665894 3.2478738
-5.2474089 -0.83674532 3.2409344
-4.6649804 -0.8274954 3.1078644
-4.662488 -0.83498865 3.1075594
-4.6292858 -0.94587189 3.1038826
-4.6145062 -0.978347 3.1016533
-4.5671792 -1.0742667 3.0942323
-4.5359621 -1.0255959 3.0854096
-4.1995635 -0.86724478 3.0031826
-3.697489 -0.94943529 2.8916352
-3.3922648 -0.94579798 2.8219419
-3.2767823 -0.98235792 2.7969041
-3.2382641 -1.002409 2.7888286
-3.0846579 -1.0401547 2.7551436
-2.9697075 -1.0453613 2.7291272
-2.9313815 -1.0479293 2.7204821
-2.8547843 -1.04807 2.7030292
-2.6765714 -1.0784104 2.663476
-2.6309702 -1.0744753 2.6529446
-2.5926983 -1.0720675 2.6441374
-2.5160925 -1.0722461 2.626684
-2.3556759 -1.0610881 2.5897307
-2.3320322 -1.0642328 2.5844522
-2.213881 -1.0923297 2.5585093
-2.1488473 -1.1109092 2.5443389
-2.0644131 -1.1495073 2.5264492
-1.9495044 -1.1497748 2.5002689
-1.9096084 -1.1525986 2.4912751
-1.7799785 -1.154804 2.4618077
-1.6506042 -1.1766231 2.4330866
-1.5412486 -1.1334555 2.4066479
-1.468411 -1.1038175 2.3890071
-1.1711349 -1.1254344 2.3220115
-1.0845463 -1.2117076 2.3053033
-1.0292366 -1.2318096 2.2934027
-0.95263052 -1.231988 2.275949
-0.91137052 -1.2114351 2.2658241
-0.83663774 -1.1719525 2.247406
-0.75478458 -1.1510112 2.2280154
-0.70918345 -1.1470761 2.217484
-0.65618992 -1.1466064 2.2053895
-0.62521648 -1.1482234 2.1983869
-0.58691359 -1.1483126 2.1896601
-0.54861069 -1.1484017 2.1809335
-0.47933388 -1.1501079 2.165204
-0.40779877 -1.1632955 2.1493626
-0.40092802 -1.1618633 2.1477463
-0.22118568 -1.0808208 2.1039364
-0.16803789 -1.0771012 2.0916927
-0.06069088 -1.0758448 2.0671825
-0.038284779 -1.0755234 2.0620644
0.014863014 -1.071804 2.0498204
0.091417789 -1.0714498 2.0323601
0.33007479 -1.1459932 1.9805815
0.37664127 -1.1864781 1.9713887
0.44907618 -1.1670406 1.9541975
0.4608779 -1.1505976 1.9509308
0.47911406 -1.1286974 1.9460061
-4.6287541 -0.47253764 3.0871537
-4.6937184 -0.2652311 3.0946865
-4.8543787 -0.19395456 3.1288028
-5.0813093 -0.0033561289 3.1738369
-5.392735 0.19373067 3.237901
-5.4310894 0.262155 3.2442417
-5.2394018 0.74965024 3.1834486
-5.2075024 0.96372348 3.1686671
-5.124074 1.1840634 3.1419213
-4.9967785 1.2770016 3.1096475
-4.9057055 1.3043041 3.0879326
-4.8217335 1.3056724 3.0687459
-4.5269179 1.0670308 3.0099256
-4.532619 0.78740913 3.0210359
-4.522604 0.67060769 3.0228512
-4.5250411 0.6291374 3.0248618
-4.4978046 0.43089265 3.02561
-4.4430065 0.31250551 3.0172741
-4.3539124 0.19283262 3.0011671
-2.6170113 1.2257094 2.5690579
-2.8541851 0.88474619 2.635077
-2.8721395 0.77590078 2.642988
-2.8536625 0.63760954 2.6436291
-2.8526971 0.52160639 2.6474791
-3.1659858 0.28603971 2.7271481
-3.1959677 0.17496777 2.7378786
-3.2027445 0.12623781 2.741133
-3.2128394 0.086599678 2.7448244
-2.9308546 -0.29314089 2.6938791
-2.8542576 -0.29328179 2.6764264
-2.8159041 -0.29834741 2.6678627
-2.7863972 -0.30143267 2.6612458
-2.7480438 -0.30649835 2.6526821
-2.6695502 -0.33906394 2.6359348
-2.6653528 -0.37490106 2.6362355
-2.66518 -0.38738489 2.6366341
-2.3578105 -0.73865843 2.5789042
-2.3266892 -0.73873085 2.5718138
-2.1446962 -0.73011982 2.5300324
-2.0919213 -0.71217316 2.5173745
-1.9128625 -0.37728208 2.4648137
-1.9968328 -0.09727034 2.4741273
-2.0045693 -0.012725458 2.4729242
-2.00881 0.088910624 2.4703248
-2.0432687 0.1840058 2.4748418
-2.0347588 0.2537764 2.4704542
-2.048105 0.36365968 2.4696407
-2.0266426 0.48574477 2.4604654
-2.0235093 0.52894533 2.4582357
-2.0393434 0.64632416 2.457726
-2.0406401 0.72316492 2.4553256
-2.0379765 0.8038168 2.4518886
-2.0353124 0.8844685 2.4484518
-2.0354066 0.89195877 2.4482105
-2.3291869 1.2476938 2.5026865
-2.4739761 1.2422836 2.5358763
-2.4852364 1.2434542 2.5384016
-3.6982517 -0.94707924 2.8917263
-4.1775622 -0.75025827 2.9940636
-4.0476222 -0.3884908 2.951755
-3.5893745 -0.44271767 2.849215
-4.0967445 -0.24138519 2.9577894
-4.099514 -0.18183768 2.9563313
-4.2262864 0.055358678 2.9769025
0 0 0 1 0 0 0 1 0 0 0 1 0 0 0 0 0 404 1 0 0
