ply
format ascii 1.0
comment PCL generated
element vertex 1401
property float x
property float y
property float z
element camera 0
property float view_px
property float view_py
property float view_pz
property float x_axisx
property float x_axisy
property float x_axisz
property float y_axisx
property float y_axisy
property float y_axisz
property float z_axisx
property float z_axisy
property float z_axisz
property float focal
property float scalex
property float scaley
property float centerx
property float centery
property int viewportx
property int viewporty
property float k1
property float k2
end_header
-0.54266626 -0.22975273 -5.9014602
-0.52980268 -0.29585588 -5.9138126
-0.58272994 -0.23002343 -5.9024997
-0.52976382 -0.33585516 -5.9140496
-0.67576706 1.3600378 -4.4467893
-0.6771425 1.3504851 -4.4868746
-0.76627022 1.3275373 -3.64326
-0.77641165 1.3206626 -3.9231706
-0.5671593 1.4168215 -3.6495411
-0.7789036 1.3247974 -4.388423
-0.7549929 1.3270427 -4.8295908
-0.64384955 1.3299892 -1.763253
-0.58518511 1.3323643 -1.9685993
-0.65081316 1.3358371 -1.9631085
-0.62541306 0.85089397 -2.0925932
-0.59282905 0.83868659 -2.0939205
-0.546709 0.87941527 -2.1226716
-0.69043374 1.315573 -0.80110836
-0.49308252 1.321686 0.27272344
-0.45728302 1.3248678 0.15141988
-0.45449549 1.3220286 0.23135996
-0.35942277 0.98320544 0.62186229
-0.47986007 1.3125745 0.65245855
-0.51981473 1.3074014 0.65382445
-0.69569564 1.3111601 0.19966769
-0.57577938 1.3141792 0.19551516
-0.47570485 1.3145657 0.77239609
-0.51292419 1.3190533 0.8537569
-0.51568043 1.3143926 0.77378392
-0.50596058 1.3132054 1.0536127
-0.66861904 1.3078524 0.97919106
-0.46877259 1.3162175 0.97228479
-0.54592574 1.3105323 1.0549896
-0.22044155 -0.61336076 -3.0941401
-0.18182611 -1.0121409 -3.2017956
-0.17617582 -1.0760682 -3.0499933
-0.23114389 -0.62545091 -3.4040825
-0.22718011 -0.69004238 -3.4448531
-0.23944803 -0.52973515 -3.4829469
-0.23688541 -0.49048829 -3.4026153
-0.52993089 0.12240073 -2.9359262
-0.23659712 0.18543556 0.59946811
-0.28561884 0.62180138 0.803473
-0.29450876 0.6217159 0.90385818
-0.22160573 0.10237452 0.57366753
-0.26404732 0.38199809 0.57761848
-0.50129092 -0.42944285 -5.9049163
-0.4207851 -0.50884694 -5.9086328
-0.42124844 -0.46880129 -5.9132295
-0.4593609 -0.66920292 -5.9012766
-0.37985387 -0.36451152 3.3234606
-0.38660446 -0.24390259 3.1439948
-0.46083611 0.2107155 3.3687878
-0.4214229 -0.0046804994 3.3236246
-0.25538492 -1.0716038 1.9245696
-0.06480068 -1.1509587 1.5974526
-0.33362535 -1.0799243 1.1097755
-0.33701009 -1.0794718 1.0123353
-0.32570153 -0.51563334 -2.9891043
-0.27910602 -0.53418547 -3.0413218
-0.33799434 -0.47741497 -2.9987125
-0.24061158 -0.29943186 -2.4700866
-0.24203907 -1.1294376 1.0655353
-0.26302934 -1.1131719 0.2549957
-0.28441089 -1.1147381 0.21511269
-0.2033374 -1.1285686 1.024287
-0.35165963 -1.0175465 0.59787679
-0.54994088 0.90123916 0.88829136
-0.51756579 0.90170848 0.81212294
-0.59568268 0.86084354 0.93473637
-0.54349333 0.86142063 0.85287702
-0.55581862 0.82136726 0.85313523
-0.57967788 0.387674 -0.60877025
-0.55337203 0.5015533 0.81166875
-0.54693103 0.42175677 0.77108204
-0.55404037 0.66155052 0.8123709
-0.61198092 1.3059903 1.4575095
-0.6464023 1.3051389 1.6187994
-0.58752936 0.70337868 0.93378508
-0.58614081 0.70320916 0.9737606
-0.52999485 0.22200561 0.72962177
-0.54828304 0.42128995 0.87619126
-0.5474022 0.50114012 0.91152084
-0.72690874 1.3254849 -2.5639336
-0.3628858 0.60058284 -2.0899749
-0.71822828 1.3328058 -2.3239942
-0.57470405 1.3241009 -0.92516565
-0.59551138 1.3216449 -1.5248204
-0.60634327 1.3502197 2.7783093
-0.42052639 0.13088998 3.3670487
-0.42044982 0.11517355 3.3665237
-0.42035928 0.090890676 3.3668733
-0.49062401 1.3612475 2.654263
-0.41635838 1.3342857 2.412256
-0.36544919 1.4135981 2.8077335
-0.36541462 1.4260873 2.8102868
-0.43497169 1.4294696 3.1129012
-0.4746235 1.3517978 3.1139488
-0.67352313 1.0715969 -5.9384518
-0.71478081 1.2712657 -5.9324179
-0.73584723 1.4254197 -5.3821917
-0.51161391 0.75283349 -5.9526062
-0.49704957 0.73599291 -5.9638343
-0.55140346 0.75249267 -5.9461508
-0.42855299 0.43318591 -5.9338641
-0.53884214 1.1358707 -5.9665647
-0.59064239 0.672158 -5.9405265
-0.59128445 0.752177 -5.942194
-0.63125676 0.75188673 -5.9407349
-0.53686988 0.69582713 -5.9628067
-0.62960595 0.55182636 -5.935317
-0.66793007 0.43131766 -5.9126205
-0.70854437 0.51104641 -5.9128294
-0.50822353 0.43252942 -5.9234519
-0.73760027 1.4284004 -5.4296317
-0.60557663 1.3660361 -5.1148615
-0.57317102 1.4058483 -5.3157868
-0.6724205 0.87168837 -5.9480228
-0.61608392 1.4088678 -5.3942447
-0.53623086 0.57579064 -5.9588294
-0.5371114 0.73584628 -5.9649653
-0.53726733 0.77584457 -5.9646258
-0.62606305 0.20972177 -5.9041414
-0.47004682 0.41592351 -5.944921
-0.42763686 0.35309091 -5.9247022
-0.45100844 0.184347 -5.9337244
-0.45087451 0.22431687 -5.9284906
-0.49389488 0.2557005 -5.9304347
-0.46797591 0.39282283 -5.9253263
-0.3907108 -1.2537999 -5.3964372
-0.41762006 -0.8689903 -5.8947401
-0.38782835 -1.2162569 -5.1486716
-0.20686261 -1.1651403 -3.9478455
-0.20842819 -1.164718 -3.9928162
-0.32270023 -1.1669443 -3.8262532
-0.38459656 -1.1752162 -3.678148
-0.25933498 -0.9781785 3.0716553
-0.22222637 -1.1199557 2.9597244
-0.22107203 -1.0876319 2.9998507
-0.259377 -1.0581106 3.0562973
-0.25982249 -1.0680445 3.0412598
-0.26243377 -1.0801933 2.9612484
-0.16598274 -1.1457663 2.4719865
-0.2031811 -1.1463059 2.5533252
-0.28868669 -1.1458999 2.396199
-0.21745032 -0.85828507 3.1483197
-0.19109324 -1.0462552 2.5533702
-0.25981694 -0.77827156 3.0925598
-0.20448841 -0.69771439 3.041028
-0.21244517 -0.6177609 3.041646
-0.15034561 -1.0421791 2.9329569
-0.29912293 -0.77859592 3.1138892
-0.22208279 -0.41802275 3.0878716
-0.30006617 -0.65856618 3.1069431
-0.30061114 -0.57855737 3.1048112
-0.30549997 -0.6435014 3.1248121
-0.36225981 0.37123016 3.3460321
-0.26453412 0.23700437 3.2620192
-0.42028239 0.075174153 3.3663821
-0.42209253 0.15531716 3.3241911
-0.49067616 1.3088399 1.4933324
-0.48654181 1.3158309 1.613292
-0.45349854 1.314352 1.4120154
-0.31147 0.74347878 0.6041702
-0.27508903 0.21101013 -1.0803816
-0.27187806 0.21061793 -0.98793828
-0.47121769 0.76181865 -2.2768536
-0.38660783 0.46192488 -2.2257533
-0.5458445 0.48023722 -2.197212
-0.4682622 0.66118717 -2.2205434
-0.54687089 0.60022497 -2.1958344
-0.41237143 0.96713972 -2.2592003
-0.34632733 0.5220263 -2.2040381
-0.34233272 0.48091456 -2.1045702
-0.38689214 0.60163164 -2.1991646
-0.69707376 1.3088297 0.1596812
-0.39574328 1.3124118 0.76960945
-0.38882142 1.3165637 0.96950889
-0.35063091 1.0795802 0.887128
-0.47708297 1.3122352 0.7324096
-0.46699244 1.323555 -0.12841976
-0.53720284 1.3170218 0.15416276
-0.27842468 0.17893469 -1.1804631
-0.31849113 0.42345592 -1.0543519
-0.27033776 0.10267425 -1.2266682
-0.58303529 1.3251184 -1.1650188
-0.58856863 1.3207968 -1.3249428
-0.50584042 1.3208039 -1.2477674
-0.46170962 1.3229681 -1.1292177
-0.3714937 0.86979926 -0.89287663
-0.40585104 1.1091293 -0.77184498
-0.58991539 1.3109666 -1.3649622
-0.4690932 0.9606266 -2.1696346
-0.62613034 0.51951587 -2.1938386
-0.58513212 0.39988676 -2.1966732
-0.56765026 0.20192823 -2.8519092
-0.46658504 0.56094635 -2.1992078
-0.3425616 0.4012017 -2.1304703
-0.3633205 1.4233334 2.8702395
-0.36323693 1.4033338 2.8701518
-0.2147744 0.23159134 3.2470183
-0.13879542 0.021671116 3.2621059
-0.14244214 0.054083616 3.2966232
-0.15985821 0.036508515 3.2971687
-0.26026207 -0.28399599 3.3195801
-0.29973537 -0.40416646 3.3205433
-0.25623149 -0.17920865 3.3051887
-0.2610991 -0.083998911 3.3202882
-0.30073982 -0.16416997 3.321393
-0.295389 0.63920939 0.88387191
-0.31313789 0.82269228 0.78217292
-0.35516384 1.0226642 0.74945974
-0.37770259 1.3127071 1.2893023
-0.36414742 1.413439 2.8452106
-0.35839871 1.3428321 1.8491023
-0.47648203 1.3370904 1.9057117
-0.50482851 1.335497 2.2418947
-0.18258511 0.093910813 3.2981529
-0.52779394 1.3656894 -2.6508212
-0.48644274 1.3265208 -2.6927993
-0.49446815 1.3398675 -2.7724154
-0.43931592 1.0987332 -2.4168613
-0.54902864 1.3414725 -3.1706951
-0.30144948 -0.41857263 3.1080427
-0.30168003 -0.37857372 3.1082258
-0.33997619 -0.50676936 3.3015804
-0.30075783 -0.53856939 3.1074929
-0.30098838 -0.4985705 3.107676
-0.18368967 -0.36973593 -0.82586145
-0.20287369 -0.22999451 -0.78457773
-0.16562589 -0.6267494 -1.4904848
-0.14724442 -0.78606629 -1.6293836
-0.21428992 -0.35350505 -1.7052684
-0.13908857 -0.87730181 -1.9102254
-0.14922586 -0.92358482 -2.2489793
-0.14913468 -0.86484528 -1.9098234
-0.15060423 -0.90199602 -2.2850022
-0.10998631 -1.0657295 -1.6718888
-0.10864875 -0.987831 -1.1913109
-0.39670339 0.048948169 -0.49687827
-0.5178054 -0.068648919 -0.61314416
-0.46689647 -0.35942239 -0.33572918
-0.52339089 -0.060606226 -0.77302015
-0.52189773 -0.085741557 -0.73313308
-0.54650491 0.089294702 -0.77170837
-0.18783699 -0.91919434 -2.2075677
-0.26689112 -0.26342157 -2.0685732
-0.23033141 -0.26914757 -1.0039246
-0.2105922 -0.30932555 -0.94474411
-0.22199506 -0.10525283 -0.74335968
-0.27421016 0.22423592 -0.95710564
-0.1660822 -0.43185481 -0.32643062
-0.3026998 0.20342809 -2.1711023
-0.37189019 -1.2005363 -4.7087865
-0.41182739 -1.2058308 -4.7073779
-0.37333432 -1.2026471 -4.7487831
-0.42535323 0.051281571 -5.9205284
-0.52939659 -0.53588092 -5.9102364
-0.2017623 -1.1245124 -4.0101819
-0.26686889 -1.2024055 -4.5289855
-0.4536922 0.17589235 -5.9349799
-0.44995433 -0.45571485 -5.9250202
-0.48979646 -0.41579199 -5.9184041
-0.50362062 -0.14936647 -5.9121132
-0.46364838 -0.14907147 -5.9135718
-0.34404978 -1.2011238 -4.4462342
-0.30408841 -1.1983902 -4.4475999
-0.34683305 -1.2003732 -4.5261827
-0.30903915 -1.2043705 -4.0872493
-0.36214033 -1.242379 -4.3259139
-0.34035009 -1.2420598 -4.3466825
-0.36165842 -1.2032585 -4.428987
-0.16709635 -0.95870292 -2.7690251
-0.25411516 -0.93729496 -2.965925
-0.34126115 -0.71589065 -2.9187131
-0.25192374 -1.0826614 -2.9273403
-0.21612343 -1.0813016 -3.0486517
-0.48708457 -0.59766895 -2.6330838
-0.44236124 -0.83725715 -2.634979
-0.47244877 -0.31760928 -2.5707648
-0.40381104 -0.37935334 -2.5727255
-0.55467492 -0.11846051 -2.5100102
-0.53822547 -0.20883188 -2.150471
-0.5829224 0.080838561 -2.2035577
-0.57807082 0.4683834 -0.76858151
-0.45864099 0.11073315 -1.192003
-0.36311513 -0.3480542 -1.3798797
-0.3998951 0.091150224 -1.2316499
-0.35729918 0.46350756 -1.0132446
-0.35754591 0.58356416 -1.0039526
-0.40727627 -1.0727491 -2.0761471
-0.34980869 -1.1170924 -2.1583428
-0.40419951 -1.090337 -1.9962256
-0.41897315 -1.0673947 -2.3959272
-0.42529637 -1.0126629 -2.1009803
-0.42397046 -0.99783278 -2.0609391
-0.42320102 -1.0822611 -2.5158691
-0.23452331 -0.09622661 -1.1031066
-0.23360325 -0.10883238 -1.0781767
-0.27850485 0.13178551 -1.2607093
-0.52810019 0.58885217 -0.82734132
-0.42972219 0.70972812 -0.9328084
-0.52860141 0.70885015 -0.82681477
-0.57357514 0.58840287 -0.76822841
-0.39636302 0.50351405 -0.97963285
-0.62337703 0.74713373 -0.52567816
-0.456716 -1.1638452 -4.2268219
-0.41647989 -1.1636817 -4.2207165
-0.4996497 -0.67666203 -3.4107294
-0.53550661 -0.42724749 -3.2315285
-0.49828452 -0.67670357 -3.3732543
-0.45732832 -1.0137445 -3.4351602
-0.43786544 -1.1489605 -3.6819839
-0.42311203 -1.175638 -3.6367188
-0.32639793 -1.1004184 -3.1598403
-0.61960566 0.90785253 -0.68522513
-0.30289298 0.70165157 0.69149971
-0.65292835 1.0009001 -2.3300874
-0.47687787 0.92311347 -2.3924313
-0.71698606 1.3351281 -4.48559
-0.59532744 1.3607013 -4.8350887
-0.62258208 1.3488801 -4.0885949
-0.63293463 1.3422062 -4.1683497
-0.55148989 1.3622744 -4.3312192
-0.66536897 1.3369154 -4.167223
-0.66837651 1.347807 -4.2470498
-0.62419081 1.3422847 -4.1686678
-0.52673721 1.3404024 -3.9320762
-0.53228307 1.3314744 -3.8118858
-0.50157154 -0.38944584 -5.9045167
-0.46178198 -0.38910222 -5.9109721
-0.42190102 -0.38878292 -5.9149289
-0.45905548 -1.2116808 -4.9058509
-0.74909508 1.3378837 -4.6658287
-0.73923904 1.3379943 -4.6699409
-0.6713199 1.3511995 -4.3269629
-0.65917599 1.3531661 -4.3925138
-0.76190859 1.3286979 -3.523319
-0.64512885 1.355664 -3.6073449
-0.74526995 1.3311986 -4.1643662
-0.62803972 1.3363082 -4.4338517
-0.49230987 1.3391989 -2.0086246
-0.49368799 1.3368685 -2.0486109
-0.58664608 1.3328108 -2.0085702
-0.61279982 0.80902827 -2.0867376
-0.58138597 1.3345784 2.378382
-0.64086515 0.86731052 -0.58209598
-0.62571257 0.90765059 -0.64498937
-0.63420814 1.3112038 0.81791198
-0.59563154 1.3140464 0.77655959
-0.66819614 1.3078595 -0.16152185
-0.54550189 0.98065472 1.0260582
-0.5461548 0.7008822 0.9723618
-0.25856578 -0.88617194 -3.0853679
-0.23353469 -0.56989121 -3.4635167
-0.20009896 -1.1435758 2.3797908
-0.040295273 -1.064571 2.3980539
-0.060310543 -1.0622908 2.3987172
-0.044122487 -1.0632808 2.2781217
-0.10220468 -0.43729055 3.0787606
-0.14791626 -0.48265371 3.0723557
-0.063459575 -1.0414572 0.24777317
-0.069405198 -1.1131927 0.067565203
-0.068815351 -1.0882779 0.087662578
-0.067635655 -1.0384485 0.12785757
-0.11643222 -0.71271563 -0.084196985
-0.29504627 0.60171092 0.88387036
-0.14903831 -0.69130063 0.13215804
-0.14244731 -0.67429888 0.25207472
-0.23155656 0.14375514 0.57611275
-0.52881765 -0.77593541 -5.9016628
-0.52902937 -0.73590672 -5.9064231
-0.42050448 -0.54884392 -5.9090319
-0.24072237 -1.0520288 -3.2476506
-0.45377022 -0.51059121 -0.69691741
-0.47103065 -0.36651516 -0.45568269
-0.48073989 -0.36806521 -0.73552108
-0.47525901 -0.35110828 -0.57555652
-0.28618902 -1.0886179 0.9498167
-0.25197881 -1.0463828 0.78158438
-0.079389513 -1.0029614 0.63896596
-0.067321599 -0.96282899 0.63901258
-0.25915903 -1.0753131 1.8045821
-0.31396487 -1.0725589 1.6769755
-0.18574691 -1.0631683 1.9127126
-0.016796291 -1.0685401 1.8769662
-0.32368514 -1.0712591 1.3971469
-0.38321459 -0.37940067 -2.5559316
-0.089014173 -1.1288399 1.1582139
-0.098955631 -1.1298372 1.2385657
-0.057702482 -1.1298282 1.277272
-0.067378759 -1.1475989 1.5175257
-0.030377865 -1.1063045 1.436744
-0.12728573 -1.1137067 0.12961018
-0.26798129 -1.114217 0.11198151
-0.22026938 -1.1289488 1.0423331
-0.088213295 -0.88217032 0.56050169
-0.14530082 -0.58931124 0.25253439
-0.098181099 -0.84330666 0.65379024
-0.56819528 0.20782578 -2.8774314
-0.56777573 0.22265688 -2.8622701
-0.35196871 0.18597183 -2.9906571
-0.24102792 -0.49281344 -3.1623368
-0.2644304 -0.45275968 -3.181159
-0.20115611 -1.0818111 -3.7696462
-0.14998575 -0.71367311 0.10207772
-0.34116414 -1.0389388 0.89759719
-0.51356024 0.47457686 0.73012245
-0.51348859 0.58201134 0.74558508
-0.58929384 0.7935468 0.8942045
-0.55100173 0.78143203 0.84279239
-0.6084097 1.3643918 -2.5978525
-0.64273173 1.3423613 -2.4467344
-0.7204299 1.3225837 -2.5241737
-0.70014954 0.82625115 -3.050837
-0.51483661 1.3361173 -3.3321214
-0.62265927 0.67802095 -2.0595987
-0.61078006 0.5539161 -2.0603735
-0.65045822 1.3157461 -0.80249619
-0.59271336 1.3163058 -1.4448913
-0.60702628 1.3478051 2.7583108
-0.56570393 1.3578084 2.7969425
-0.58797419 1.3723608 2.8778267
-0.61573601 1.3725919 2.798743
-0.4492687 1.3737454 2.6941547
-0.39772099 1.417482 3.0315075
-0.71358681 1.0713319 -5.9394913
-0.50978041 0.55272257 -5.9421916
-0.49592757 0.535918 -5.9555392
-0.73941016 1.4264069 -5.4796219
-0.62111187 1.3842539 -5.1941662
-0.71028525 0.67121112 -5.9286551
-0.60409766 1.3631312 -5.0749159
-0.53790635 0.89588106 -5.9686036
-0.57468432 1.4137527 -5.35568
-0.53550637 0.45573321 -5.952353
-0.50712341 0.31246284 -5.9172034
-0.53387111 0.25553301 -5.9290676
-0.42835838 0.41816178 -5.9315219
-0.39645812 -1.233922 -5.3886995
-0.39207307 -1.2350887 -5.2687855
-0.37828752 -1.2334176 -5.0365252
-0.41964638 -1.2332294 -5.0751181
-0.24127129 -1.1668755 -3.7865598
-0.28124648 -1.1671093 -3.7851703
-0.24334918 -1.1837879 -3.8491869
-0.32943773 -1.205065 -4.0265069
-0.44503039 -1.109586 -3.881495
-0.44639444 -1.1142104 -3.9215169
-0.037826926 -0.73727846 3.1553297
-0.061377674 -0.58455002 3.0767446
-0.060372829 -0.65712482 3.0939021
-0.061777323 -0.61697239 3.0591054
-0.22429024 -0.92316139 3.1235433
-0.22918086 -1.1225986 2.9579358
-0.25244814 -1.1226193 2.9362304
-0.15961647 -1.123381 2.4012289
-0.11841646 -1.1183728 2.4399908
-0.24393189 -1.1263818 2.534821
-0.2880733 -1.125993 2.4162824
-0.24266247 -0.77812421 3.0819793
-0.204954 -1.0511221 2.5138044
-0.28758126 -1.0760869 2.4365096
-0.16366059 -1.0336398 2.5524759
-0.30021286 -0.61857826 3.1096249
-0.46133739 0.33071342 3.3693142
-0.46117032 0.29071411 3.3691387
-0.46100318 0.25071481 3.3689632
-0.42102763 0.25088787 3.3675752
-0.38569352 0.035889775 3.2049499
-0.41103768 -0.044148862 3.1855464
-0.3775343 1.338276 1.7296741
-0.4837628 1.3378217 1.7321115
-0.62171119 1.3096775 1.1776917
-0.50177407 1.3076967 1.1735172
-0.53758401 1.3070148 1.2948318
-0.62029135 1.302008 1.2176344
-0.62585598 1.3051864 1.0577433
-0.52513927 1.3179883 1.6546662
-0.28929901 0.3226603 -0.89930391
-0.33394361 0.63039517 -0.99400711
-0.5013929 1.3177037 0.032848239
-0.46420491 1.3207159 -0.048479676
-0.50905675 1.3418312 -3.172152
-0.58463883 1.3422745 -3.0492969
-0.49588639 1.3353143 -2.8124435
-0.73565334 1.3256632 -2.8037872
-0.69269538 1.3176299 -2.7253888
-0.53529245 1.2475203 -2.8169873
-0.49882978 1.3387067 -2.8923564
-0.6202063 1.3380772 -2.9279561
-0.58317786 1.3418282 -3.009326
-0.4088718 -0.056442216 -2.9555449
-0.50397772 -0.43700829 -3.1926615
-0.42670813 -0.40063494 -3.2350593
-0.27242142 0.070758194 -1.0210327
-0.54935825 0.72065902 -2.2344279
-0.42944267 0.721735 -2.2387991
-0.34676197 0.40248492 -2.2453864
-0.43959177 0.91042411 0.60932899
-0.47293824 1.3167263 0.8523581
-0.42442051 0.72020066 -2.1013994
-0.40541321 0.76057053 -2.1191576
-0.47972393 0.75970352 -2.0989368
-0.50443238 0.7593956 -2.0905316
-0.46446586 1.3183074 -1.2091907
-0.49058729 1.3239383 -0.80801475
-0.5016852 1.322795 -1.1278299
-0.5416503 1.320122 -1.126453
-0.40906453 0.92125165 -2.1797752
-0.40674821 0.82081544 -2.1409523
-0.40719321 0.84089708 -2.1482172
-0.47111356 1.3352257 -2.1328537
-0.54959625 1.3340621 -2.0899689
-0.62076604 0.47798565 -2.0568981
-0.57973683 0.080741584 -2.1161158
-0.46590078 0.4809545 -2.2001259
-0.36705384 0.34256217 -2.2678316
-0.58376455 0.16083771 -2.20594
-0.58342147 0.19990718 -2.1989689
-0.18351813 0.31467953 3.2995591
-0.17343296 0.22912529 3.2856326
-0.22155622 -0.14625792 3.2986913
-0.38064167 0.1553452 3.3652773
-0.42011499 0.035174727 3.3662405
-0.30090725 -0.12417055 3.3215346
-0.30107462 -0.084171139 3.3216763
-0.3803561 -0.24451326 3.3238854
-0.34839469 1.0218374 0.94434047
-0.35317826 1.0249203 0.80693555
-0.47846109 1.3099049 0.69242311
-0.38743287 1.3163941 1.0094845
-0.46598506 1.3133785 1.0522246
-0.22178939 -0.49799865 3.0825076
-0.16497268 -0.61747992 3.0400538
-0.1475642 -0.38023153 3.0952048
-0.18242817 0.056411356 3.2980199
-0.62312829 1.3389698 -3.0078976
-0.74151874 1.3299483 -2.9636416
-0.47553933 1.3415642 -2.2527087
-0.53010958 1.3656112 -2.6457338
-0.5388242 1.3651309 -2.6103952
-0.57245559 1.3659779 -2.7092292
-0.6130296 1.3508439 -2.7279298
-0.61578053 1.3317386 -2.8081009
-0.62751132 1.3403089 -3.12781
-0.30121893 -0.45857155 3.1078596
-0.28901035 -1.0659014 2.3965819
-0.1751913 -0.4107528 -0.58618379
-0.21285969 -0.29876703 -0.50435126
-0.19881959 -0.2701526 -0.74486446
-0.17031547 -0.64616603 -1.6279886
-0.12342817 -0.97166574 -1.4709003
-0.1098702 -1.0276606 -1.231462
-0.11942752 -1.0648923 -1.8716798
-0.18864948 -1.0238125 -2.248548
-0.078712702 -1.0445915 -0.19197959
-0.12141316 -1.0569252 -0.2705977
-0.086981326 -1.0585737 -0.43189859
-0.2764256 -1.1170223 -2.4865236
-0.29282975 -0.41273516 -3.1998076
-0.47341812 -0.23133902 -0.50767285
-0.42839316 -0.33911476 -0.37702197
-0.4936403 -0.27062047 -0.73474216
-0.51774263 -0.083648711 -0.61319721
-0.47290355 -0.27137238 -0.4978205
-0.47196126 -0.35143057 -0.48061442
-0.20925225 -1.0625825 -2.1281166
-0.21731687 -0.42654502 -1.5853996
-0.206784 -0.42688355 -1.4982133
-0.19618659 -0.36820957 -1.1856412
-0.23824173 -0.3481392 -1.2416304
-0.20122981 -0.42756194 -1.3383112
-0.30567455 0.10355178 -2.2786758
-0.30430394 0.12284428 -2.2475593
-0.37918103 -1.2010915 -4.9086685
-0.42432866 -0.068758115 -5.9167299
-0.42470065 -0.028736785 -5.918829
-0.42507261 0.011284545 -5.9209275
-0.4263528 0.19305277 -5.9213672
-0.21047531 -1.1242279 -4.044899
-0.41456729 -1.2392823 -4.5176845
-0.48916161 -0.71334541 -5.910171
-0.41957128 -0.6688593 -5.907732
-0.52943546 -0.49588165 -5.9099994
-0.25718802 -1.1625824 -4.243763
-0.29327255 -1.1438966 -4.1272564
-0.33457041 -1.1562542 -4.1659608
-0.30546623 -1.2005148 -4.4875979
-0.44995016 -1.2274233 -4.7938633
-0.44856983 -1.2251587 -4.7538733
-0.3881028 -1.203054 -4.4680467
-0.44162053 -1.2013487 -4.4260445
-0.4502877 -1.2272933 -4.3962903
-0.37158179 -1.2352479 -4.4354401
-0.45885289 -0.67740583 -2.6342008
-0.53521913 -0.21892008 -2.0705385
-0.45002538 -0.59720284 -2.7144864
-0.55589169 -0.078934953 -2.1897099
-0.54436088 -0.078688115 -2.2851925
-0.52727902 0.0018614829 -2.5509012
-0.54758835 0.14956886 -1.0111399
-0.57024127 0.38841727 -0.76919281
-0.53130656 0.17256889 -0.97207534
-0.49680018 0.090810567 -1.1411533
-0.35467836 -0.10846268 -1.1792861
-0.35730019 -0.078906924 -1.1788173
-0.3848446 -0.38769037 -1.4343415
-0.4736414 -0.34718728 -1.681272
-0.36576691 -0.37771448 -1.4599624
-0.41615456 -1.0574839 -2.3159657
-0.40892032 -1.0527058 -2.1160913
-0.41660053 -1.009986 -2.3158967
-0.45449477 -0.71802354 -2.1816046
-0.52586693 -0.23860031 -2.2310073
-0.42791274 -0.99714577 -2.6231744
-0.42897719 -0.77718616 -2.5953734
-0.329083 0.011390895 -1.2194388
-0.29576534 -0.32118216 -1.7423255
-0.37551877 -0.30656034 -1.7319887
-0.29286295 -0.35152081 -1.6625061
-0.29722703 -0.30351287 -1.7822242
-0.28075272 0.071775764 -1.2608858
-0.284365 0.1023449 -1.2712145
-0.27968788 0.1491048 -1.2205702
-0.61582607 0.66751766 -0.60632718
-0.50855929 0.50903559 -0.85087252
-0.42888677 0.50973165 -0.93368602
-0.45099998 0.66950428 -0.90222168
-0.46098089 0.7494173 -0.8915298
-0.49667275 0.12281609 -1.1330955
-0.49705446 0.11036929 -1.1456426
-0.41813102 0.12833172 -1.1758248
-0.37341794 0.51022422 -0.99314582
-0.56642038 0.62845588 -0.77331007
-0.54315186 0.74871027 -0.80862951
-0.54581743 0.78869879 -0.80836725
-0.57491177 0.90839732 -0.76682425
-0.59534115 0.74813318 -0.72677016
-0.70158392 1.3269296 -1.1208687
-0.56700838 0.74846435 -0.77528203
-0.5672558 0.82845235 -0.77243245
-0.56767672 0.90846157 -0.77457988
-0.54365313 0.86870825 -0.80810297
-0.60539591 0.90801287 -0.70823181
-0.45133412 0.7495029 -0.90187061
-0.43805212 1.3075851 -0.44968861
-0.43947202 1.3152547 -0.48963124
-0.40826273 1.1091079 -0.76925981
-0.48533559 1.063434 -0.68922901
-0.44223863 1.3130939 -0.56959331
-0.44365853 1.3207633 -0.60953593
-0.58095855 0.82696617 -0.44676393
-0.58684278 0.70711625 -0.48709249
-0.55830187 0.71991551 -0.52805412
-0.25624716 -0.80752456 -3.7251265
-0.28911412 -1.1262972 -4.0046563
-0.43913406 -0.91897452 -3.6797802
-0.40982935 -1.1255375 -4.0229611
-0.36779431 -1.120867 -3.9643419
-0.43942678 -0.92887998 -3.6898696
-0.45180923 -1.1402073 -4.0816765
-0.4572103 -1.168704 -4.2418604
-0.44394875 -1.1949971 -4.2138643
-0.44078749 -1.155804 -3.6360528
-0.45967698 -0.99617875 -3.4950948
-0.46451229 -0.95604479 -3.6174555
-0.18948643 -0.93019867 -3.4083946
-0.49550903 -0.51684105 -3.2556
-0.49304587 -0.5369094 -3.1931705
-0.39830625 -0.71654546 -2.8365827
-0.38127154 -0.75615406 -2.9973533
-0.57274747 0.98840666 -0.76655996
-0.68627858 1.3175641 -0.68117082
-0.60483748 1.0275654 -0.60518122
-0.30195105 0.72665977 0.72397959
-0.31368983 0.74311793 0.68429482
-0.34995055 0.30466989 -0.81992412
-0.58001208 0.46767256 -0.60841918
-0.51938224 -0.023513883 -0.65296042
-0.5192641 -0.031022251 -0.6504885
-0.52068704 -0.043377876 -0.69300687
-0.59396273 0.92117274 -2.3106167
-0.63378638 1.3525066 -4.7937365
-0.61819905 1.347541 -3.9686825
-0.65954638 1.3376298 -4.0073113
-0.58527833 1.3449311 -4.3702068
-0.71116346 1.3358424 -4.3256779
-0.42246225 -0.30878887 -5.9141302
-0.4216204 -0.42877996 -5.9153285
-0.42204159 -1.2056084 -4.9872026
-0.45133054 -1.229688 -4.8338537
-0.45614964 -1.2099588 -4.8258829
-0.78904957 1.3151332 -4.6683512
-0.75697935 1.3372691 -4.4841042
-0.78039974 1.330202 -4.4283419
-0.67278093 1.3516458 -4.3669333
-0.60514539 1.3759648 -3.6035759
-0.65372378 1.3383441 -3.8473992
-0.61379468 1.3437022 -3.848799
-0.67328596 1.3372496 -3.766638
-0.57231909 1.3386151 -3.8103426
-0.73356056 1.3251281 -3.8446286
-0.56946123 1.3452216 -3.730315
-0.54889935 1.0396501 -2.1433187
-0.50860846 0.96012843 -2.1556866
-0.54759324 0.92954969 -2.1345885
-0.57518315 1.3346107 2.3769159
-0.6162504 1.3339391 2.4909084
-0.42218709 1.3355145 2.3165717
-0.42479062 1.3358325 2.2416174
-0.50440502 1.3379439 2.2543981
-0.38186437 1.3356452 2.3251777
-0.4630096 1.3304476 2.2929528
-0.51844704 1.3122318 0.69382191
-0.51429188 1.3142229 0.81375945
-0.51384586 0.94154906 0.85218716
-0.5101158 1.3112142 0.93367505
-0.63796127 1.3142197 -0.44271648
-0.57753867 1.3018419 1.2961977
-0.5053463 1.0207847 1.0348399
-0.59712678 0.94066167 0.97514963
-0.50587672 0.96088111 1.0120902
-0.49762589 -0.51427746 -3.3130584
-0.25080478 -0.73324728 -3.1242282
-0.22302535 -0.93216848 -3.2221251
-0.56883341 0.20196426 -2.8843875
-0.24007636 -1.1440147 2.3810618
-0.036468029 -1.0658612 2.5179858
-0.27534604 0.53578377 0.68208313
-0.47076297 -0.43023908 -0.81612742
-0.39930549 -0.95011902 -0.76784253
-0.36977193 -1.146503 -1.7432566
-0.20431882 -1.0793403 -1.5085719
-0.30426204 -1.0771153 -1.5045207
-0.30287355 -1.0772511 -1.464545
-0.49756467 -0.86958027 -5.8918223
-0.52856702 -0.85596335 -5.8971395
-0.49849784 -0.74956489 -5.8931222
-0.41882733 -0.74890196 -5.9035344
-0.45833629 -0.78924263 -5.8974786
-0.42022386 -0.58884096 -5.9094315
-0.16807909 -1.0881515 -3.6107531
-0.23546827 -1.1010453 -3.6085281
-0.25790989 -1.0732434 1.8445873
-0.26165742 -1.0794524 1.7245719
-0.20389928 -1.0775352 2.2830672
-0.28363878 -1.0885905 1.3956754
-0.3058947 -0.65779012 -2.6813154
-0.2392507 -0.35720989 -2.4406569
-0.079338759 -1.1286227 1.1479018
-0.22375327 -1.1145633 0.23301864
-0.24193686 -1.1145543 0.21363807
-0.26511741 -1.1145668 0.19443095
-0.28968644 -1.1144098 0.1352483
-0.18516625 -1.1142206 0.19165528
-0.2530123 -1.0521368 -0.025315285
-0.19308522 -1.0457891 -0.027913928
-0.099297374 -0.84293032 0.61881006
-0.51548755 0.12255889 -2.9514623
-0.63946122 0.44930527 -3.0572648
-0.65998292 0.72931504 -3.0709004
-0.48075849 0.015033633 -2.7126875
-0.26665574 -0.42719817 -3.2408805
-0.30749643 -0.41222173 -3.2618327
-0.19275123 -0.88937998 -3.4954545
-0.19382888 -1.0089035 -3.5465717
-0.53938371 0.74161398 0.8122015
-0.46515387 0.78263783 0.64969921
-0.45438421 0.86286008 0.60964096
-0.31297082 0.78269303 0.78199732
-0.4410643 1.3278254 1.7718611
-0.54385775 0.48321649 1.0113828
-0.53049564 0.54094994 0.97113919
-0.27835399 0.38373169 0.57647824
-0.25460172 0.19600207 0.57741022
-0.5136013 0.42210963 0.72239673
-0.58793336 0.82086611 0.93679917
-0.61377138 1.3644586 -2.6076632
-0.68119979 1.3365569 -2.405364
-0.60129887 1.3422736 -2.4082208
-0.59545487 1.3404883 -2.2483375
-0.58732802 1.3642364 -2.568603
-0.72570032 1.3226225 -2.531486
-0.51921958 1.3374563 -3.4520338
-0.52506357 1.3392417 -3.611917
-0.55775183 1.3391511 -3.4105771
-0.61601591 1.3115976 -0.96380818
-0.56792408 0.98844957 -0.77173042
-0.52922148 1.3634049 2.6956375
-0.57464677 1.3389106 2.5370133
-0.53335577 1.3564137 2.5756779
-0.56709248 1.357978 2.7569668
-0.56305212 1.3874687 2.8770251
-0.5629164 1.3549693 2.8768826
-0.55925775 1.3720132 2.9843936
-0.60566902 1.3551354 2.7983193
-0.24288625 0.17192245 3.3010154
-0.42810285 1.4136671 2.7323627
-0.75365174 1.1109879 -5.9326205
-0.60651928 1.3837625 -5.1371636
-0.68801695 1.3836122 -5.1767154
-0.53759438 0.81588459 -5.9692831
-0.53566229 0.49573144 -5.9520135
-0.52751267 0.41568276 -5.9429555
-0.46848559 0.44036976 -5.9298296
-0.38656485 -1.2520058 -5.2764959
-0.41919932 -0.70888066 -5.9056334
-0.41799203 -0.828969 -5.8968387
-0.38638419 -1.2141459 -5.1086755
-0.18086858 -0.52349538 3.2709818
-0.18111661 -0.44350502 3.2737637
-0.06035459 -0.76204526 3.0759311
-0.05997473 -0.85702074 3.0704989
-0.17189112 -1.0575252 2.3125033
-0.24164404 -1.0637821 2.359462
-0.2118566 -1.0601934 2.3138793
-0.24100617 -1.0639971 2.3794508
-0.20497717 -1.1224147 2.9345822
-0.11666191 -1.0442417 2.5207775
-0.15674558 -1.0346818 2.5221596
-0.14773038 -0.40270576 3.0876298
-0.080759317 -0.45734715 3.1179762
-0.10099915 -0.29755744 3.1393681
-0.10053802 -0.37755531 3.1390014
-0.30804884 0.15615386 3.2226734
-0.34535486 0.091840982 3.2216845
-0.40661156 1.321177 1.6105382
-0.39976281 1.3428286 1.8105147
-0.57340437 1.308833 1.416157
-0.49485224 1.3118486 1.3734169
-0.4837752 1.3179917 1.693254
-0.33308551 0.57032204 -0.97678113
-0.37107477 0.50993812 -0.92568719
-0.29192996 0.28800011 -0.97940862
-0.33290219 0.63026798 -0.9640255
-0.42839494 1.3213978 -0.16979408
-0.63477081 0.98650289 -0.39168566
-0.54464561 1.3401334 -3.0507824
-0.69659466 1.3263009 -2.8302259
-0.41925359 -0.49250624 -3.0360513
-0.3468129 -0.39016801 -3.2377424
-0.47437721 0.86500561 -2.3381314
-0.55184561 0.84109318 -2.2730212
-0.56775087 1.320753 -0.72529888
-0.36222467 0.48070666 -2.1013451
-0.36233911 0.44085023 -2.114295
-0.37169331 0.51007187 -2.0963812
-0.40426084 0.7003814 -2.1023588
-0.42371312 0.68009317 -2.0918658
-0.45617634 1.3272896 -0.96929371
-0.4079006 0.88100469 -2.1577508
-0.49506611 1.3345382 -2.0885975
-0.62110817 0.51798153 -2.0564389
-0.5421226 0.59877431 -2.0659294
-0.35959724 0.13875884 -1.2178384
-0.57122546 0.63409841 -2.0639088
-0.58287007 0.67843544 -2.0660522
-0.58444786 0.31989494 -2.1975915
-0.58015615 0.31858376 -2.0801773
-0.50069678 -0.25836352 -2.2319462
-0.50215304 -0.25831917 -2.2719195
-0.36478212 1.4410027 2.8303406
-0.18441588 0.19735122 3.259068
-0.22542572 0.15649211 3.2248077
-0.22129093 -0.043827266 3.3190417
-0.14541861 -0.043084189 3.1988373
-0.1806839 0.0041981488 3.2034006
-0.34105018 -0.084343359 3.3230639
-0.35031763 1.0045815 0.88679886
-0.35157043 0.97225165 0.84668076
-0.42834508 0.9427973 0.64910018
-0.48646879 1.3632387 2.7742007
-0.74094951 1.3272812 -2.9486814
-0.48136193 1.3408499 -2.4126208
-0.53727645 1.3304025 -2.8510146
-0.58607846 1.3402212 -3.0892963
-0.66748315 1.3399502 -3.126353
-0.57884878 1.3196098 -1.0451142
-0.16451156 -0.69747782 3.0396872
-0.14811446 -0.64256656 3.0468044
-0.26149368 -0.45830211 3.0990233
-0.36039296 -0.40435696 3.3026371
-0.18507822 -0.36956632 -0.86583698
-0.10487399 -0.94894505 -0.9336195
-0.21703322 -0.22952899 -0.90415728
-0.17300254 -0.62584841 -1.7028549
-0.21546961 -0.40333459 -1.7454631
-0.15776642 -0.5952847 -0.10727823
-0.1493516 -0.61630195 0.13248718
-0.2398371 -0.42046434 -0.1437102
-0.21604761 -0.23325397 -0.62403595
-0.12813216 -0.94610429 -1.6032097
-0.12168457 -1.0568337 -1.4312978
-0.11611995 -1.0600121 -1.2714067
-0.088401198 -1.0509042 -0.47184122
-0.25856638 -1.051594 -0.18521798
-0.15450865 -1.0429465 -0.069266319
-0.39513966 -1.0768216 -2.636965
-0.18215065 -1.0974375 -2.6497257
-0.1471082 -1.0580007 -2.5705233
-0.31625119 -1.0957291 -2.8800192
-0.1950836 -1.11693 -2.4493284
-0.19231413 -1.1151809 -2.3693564
-0.22949229 -1.1186652 -2.2880428
-0.13267809 -1.0829765 -1.7512228
-0.3335098 -1.1461923 -1.7795362
-0.48724443 -0.53458685 -3.0332732
-0.50839919 0.12140819 0.68866134
-0.45171088 0.22287133 0.60683274
-0.29840159 -0.42204678 -0.10164833
-0.37476996 -0.61515981 -0.019602656
-0.33453292 -0.91989267 1.1030457
-0.50680512 0.18640357 0.88876307
-0.44714141 -0.19833323 0.68504822
-0.35307133 -0.69415712 0.019159794
-0.35246059 -0.67424226 0.039235234
-0.20596451 -0.39206037 -0.31737185
-0.47798067 0.0090052187 -0.6092608
-0.23777635 -0.37258431 -2.4008267
-0.22463115 -1.1025035 -2.1454675
-0.27217233 -0.12470999 -2.1971714
-0.26755536 -0.2246222 -2.070596
-0.2661646 -0.20620655 -2.0380418
-0.21577245 -0.33083585 -1.7451451
-0.29868865 -0.28584358 -1.8221231
-0.33658463 -0.30626008 -1.7633581
-0.35723218 -0.29384908 -1.7801921
-0.41817817 -0.26642671 -1.8028808
-0.43807942 -0.2666176 -1.7998052
-0.23991375 -0.068398714 -1.1828502
-0.16797554 -0.66644126 -1.5631161
-0.16339362 -0.64201409 -1.4280889
-0.16720422 -0.72650385 -1.5483885
-0.24408789 -0.38772002 -1.3429072
-0.24162237 -0.39020386 -1.3442541
-0.23057878 -0.18915957 -1.0010751
-0.28777474 0.28999129 -0.85947108
-0.28855902 0.27009764 -0.88454354
-0.30196023 0.16341883 -2.1611669
-0.30466765 0.083527744 -2.2562199
-0.37624013 -1.2043692 -4.8287506
-0.42662814 0.23304963 -5.9209518
-0.42628643 0.17129695 -5.9218283
-0.42607746 0.15305588 -5.9217825
-0.29057205 -1.1296482 -4.0471644
-0.44303864 -1.2260996 -4.5939713
-0.48901445 -0.775859 -5.9080424
-0.41313455 -1.2368268 -4.4777074
-0.37318629 -1.2339494 -4.4791594
-0.47468895 -0.38706794 -1.7163923
-0.49087059 -0.46749216 -1.6160424
-0.50990367 -0.20809977 -2.4717143
-0.47108352 -0.31765085 -2.5332897
-0.50854135 -0.19814454 -2.4317262
-0.53623539 -0.19869648 -2.2305853
-0.52985346 0.15711391 -0.93191564
-0.52721691 0.14897656 -0.85675526
-0.49976021 -0.26696303 -1.7751501
-0.47529948 -0.4069998 -1.7364509
-0.39447778 -0.084419079 -1.0975003
-0.49507803 0.073149681 -1.0937443
-0.39497435 -0.069366351 -1.1099268
-0.3930788 -0.08708863 -1.0575358
-0.37327564 -0.1091517 -1.1383662
-0.44724715 -0.26980072 -0.91145742
-0.32119375 -0.34875074 -1.1812164
-0.325854 -0.36254168 -1.4612844
-0.41537902 -0.98503149 -2.275887
-0.47341186 -0.54712498 -1.6994693
-0.43760926 -0.52405447 -1.8182061
-0.45799941 -0.62706774 -1.6977746
-0.4551661 -0.70705581 -1.6981444
-0.43034291 -0.74717045 -1.6366048
-0.43345499 -0.78710425 -1.6591461
-0.42646658 -0.86499941 -1.5395801
-0.40426973 -1.0627059 -1.5015558
-0.45395064 -0.46676636 -1.7774196
-0.53376287 -0.21896441 -2.0305653
-0.43774527 -0.49155495 -1.8180912
-0.48283851 -0.26382336 -1.9358246
-0.53669882 -0.21637587 -2.1105084
-0.49901414 -0.23852099 -2.1119058
-0.44745517 -0.7179389 -2.1943691
-0.35995093 -1.0761989 -2.8383789
-0.3476263 -1.0813732 -2.638701
-0.45706427 -0.80291712 -2.2741663
-0.40122414 -0.91698825 -2.5565131
-0.36828372 -0.30649608 -1.7397442
-0.39621276 -0.26632047 -1.8187108
-0.21684772 -0.40566495 -1.7854497
-0.28430516 0.14238885 -1.2639531
-0.6013689 0.58768988 -0.63218343
-0.56907946 0.70842242 -0.76787531
-0.543486 0.82870889 -0.80827844
-0.52893561 0.78884876 -0.8264637
-0.5286817 0.74883878 -0.82414079
-0.50523317 0.90905011 -0.84929085
-0.56240457 0.37309995 -0.68948102
-0.59639627 0.74699807 -0.46908075
-0.54132169 0.90871835 -0.80801415
-0.32780534 -1.1231331 -3.9657552
-0.32646888 -1.1135091 -3.9256854
-0.44660342 -1.1271942 -4.0016837
-0.46529019 -0.94102609 -3.634922
-0.414507 -1.1592216 -4.1632056
-0.4643209 -0.95624995 -3.4748681
-0.4215934 -1.0759695 -3.2015529
-0.4244456 -1.0627195 -3.2813811
-0.43440974 -1.1299236 -3.5793588
-0.43830669 -1.0689653 -3.6812174
-0.55939871 1.3147354 -0.48546773
-0.63933939 1.3118894 -0.48270297
-0.63989758 0.94715011 -0.54426789
-0.60512906 0.94795918 -0.69556391
-0.31913248 0.7834456 0.60460591
-0.47575641 0.66241622 0.68958187
-0.47808784 0.62240613 0.68949306
-0.28709388 0.54179299 0.60341942
-0.55868357 0.70746863 -0.54060131
-0.44790167 0.50921035 -0.83296657
-0.32087207 -0.027516961 -0.69989347
-0.52264243 0.0092909783 -0.74279058
-0.57524109 1.3395077 -3.8902841
-0.64957482 1.3402191 -4.0076466
-0.68728244 1.343097 -4.2864404
-0.41274455 -1.2219059 -4.8751669
-0.70203727 1.3486861 -4.4710493
-0.74623984 1.3271126 -4.5897379
-0.75898659 1.3278053 -3.4433775
-0.71039844 1.3429841 -3.2048087
-0.75453943 1.318967 -3.3235512
-0.71129596 1.3307922 -3.2324321
-0.56071663 1.3450433 -3.4904613
-0.70216823 0.84930682 -3.1005423
-0.68630511 1.3257548 -3.646203
-0.46024299 1.3326083 2.3729148
-0.50017673 1.3224354 2.3742588
-0.39779156 1.3353786 2.3707573
-0.5965867 1.3117232 -0.40413976
-0.35453549 1.01759 0.76692712
-0.46180898 1.3103697 1.1721404
-0.54604024 1.0057073 1.0136757
-0.42631197 1.0537257 1.0097206
-0.44866246 1.0211289 1.0103586
-0.4984718 -0.57923019 -3.353126
-0.29954612 0.42167249 0.64392853
-0.47131264 0.46261099 0.64855528
-0.35843134 -1.071722 -0.54259884
-0.37233314 -1.0666066 -0.58211863
-0.1561666 -1.1104952 -0.62983811
-0.20294072 -1.0770099 -1.4685854
-0.15604329 -1.0726849 -1.2700737
-0.13289928 -1.1104932 -0.60813248
-0.1344614 -1.1103024 -0.65310502
-0.22472137 -1.0340523 -3.288065
-0.45143485 -0.47185615 -0.33664799
-0.17667933 -1.0727956 1.8820226
-0.26290661 -1.081522 1.684567
-0.22043082 -1.0769438 1.7633061
-0.27170396 -1.0910101 1.4045868
-0.35288325 -1.146413 -1.7607238
-0.28426087 -1.0917046 -2.0005965
-0.1511298 -0.94054425 -2.3066096
-0.17503239 -0.97816622 -2.5688016
-0.31364155 -0.67594755 -2.6995292
-0.025274903 -1.1080247 1.5966532
-0.020437568 -1.0847479 1.75684
-0.022962481 -1.0863875 1.6768577
-0.060441524 -1.0826871 1.7581389
-0.24471396 -1.114215 0.13368702
-0.45418793 0.96314371 -2.3778026
-0.4905827 -0.55697781 -3.1307411
-0.44795436 -0.61666137 -3.0748222
-0.18957341 -0.93017519 -3.410893
-0.31654826 -1.1486346 -3.6461782
-0.31596276 -1.1288234 -3.6259997
-0.57624799 0.66110313 0.89318931
-0.47592354 0.70241559 0.68975735
-0.4920243 0.70217025 0.73034012
-0.19299589 -1.005541 0.76263165
-0.10825798 -1.087719 1.0392022
-0.54682279 0.52855492 0.9316293
-0.46511334 1.3357018 2.2330115
-0.31857041 0.50352466 0.58588803
-0.60275984 1.34272 -2.4481916
-0.58462691 0.79864633 -2.0846601
-0.58339483 0.71848714 -2.0705893
-0.47945654 1.0435754 -2.4335227
-0.61475962 1.041701 -2.3710561
-0.51884824 1.3721333 2.9954977
-0.38080907 0.19534463 3.3654189
-0.48737192 1.4133227 2.7544322
-0.64786196 1.3838519 -5.1731777
-0.54839575 0.43478957 -5.9269638
-0.53500825 0.41565135 -5.942699
-0.39335936 -1.2596979 -5.3090067
-0.25750405 -1.0786602 -3.0872123
-0.31918713 -1.0931405 -2.9599624
-0.35770261 -1.0935622 -2.9185331
-0.24063371 -0.36384085 3.298615
-0.26429933 -1.0661905 1.9554517
-0.080697894 -1.0623758 2.3868597
-0.077163309 -1.1183639 2.4786971
-0.38598466 -0.16399705 3.1717615
-0.34616113 -0.023869276 3.1833615
-0.27556872 0.15629378 3.2215457
-0.41490108 1.3121947 1.3706412
-0.40520212 1.3160075 1.6504917
-0.49759799 1.304688 1.293433
-0.52099454 1.3224794 1.7746148
-0.35622174 0.71390629 -0.94724774
-0.35711059 0.70374119 -0.97467268
-0.41075754 0.70962369 -0.89094162
-0.39700159 0.70356834 -0.97080886
-0.35743892 0.68366659 -0.98704815
-0.50320029 0.67923641 -2.0764608
-0.48735368 0.94842517 -0.68964684
-0.50578582 0.90816975 -0.64915299
-0.43390739 1.3120763 -0.32974011
-0.56082869 0.99258029 -0.56683385
-0.55521214 1.3092268 -0.36556304
-0.5468809 1.3082092 -0.12570989
-0.55245596 1.3138875 -0.28559005
-0.58825541 1.3107057 -0.16428661
-0.65924662 1.0266274 -0.44319737
-0.65867442 1.3322726 -2.8865855
-0.23312433 -0.098896161 -1.0631419
-0.41378966 0.96258652 -2.2992284
-0.4023329 0.56017244 -2.0839806
-0.38278309 0.60037625 -2.0867467
-0.45147884 0.59466064 -2.0782416
-0.5663414 1.3155835 -0.68534529
-0.48779976 1.321099 -0.72807467
-0.60632741 1.3179103 -0.68394649
-0.35748607 0.62360811 -0.99669123
-0.37217727 0.63631439 -2.0945778
-0.40904313 0.91875184 -2.1798038
-0.46722186 0.88027203 -2.1380765
-0.41293433 0.86259675 -2.3003764
-0.45181948 0.63468111 -2.0830631
-0.45216012 0.67470169 -2.0878844
-0.58175236 0.55841982 -2.0649314
-0.58148754 0.16321775 -2.1084557
-0.57908475 0.11879948 -2.0999601
-0.57949501 0.19870761 -2.0915473
-0.57951814 0.15882328 -2.1019993
-0.27568936 0.18859532 -1.1004682
-0.50072968 0.42906943 -0.85148382
-0.53142345 0.6342926 -2.0702934
-0.29809469 0.1209473 -2.0776834
-0.29839337 0.10333011 -2.0788088
-0.29999042 0.11837375 -2.1187603
-0.58338898 0.12083954 -2.2059979
-0.5837636 0.23990309 -2.1985097
-0.26168811 0.036007822 3.3182144
-0.14411688 -0.043211415 3.2363148
-0.28114629 -0.13871405 3.1661224
-0.38094512 -0.12450653 3.3218117
-0.38811639 0.98165441 0.94805121
-0.30181354 -0.25365382 3.1262884
-0.48574495 1.3421888 -2.5325332
-0.62022334 1.3221062 -1.0836908
-0.52902293 0.98625517 -0.80436015
-0.12913777 -0.86791956 -1.1900904
-0.1970966 -0.62796122 -1.2442468
-0.110973 -0.96319222 -1.1110767
-0.14596479 -0.86902416 -0.9543668
-0.15430002 -0.8255285 -1.1890365
-0.14153159 -0.89205372 -0.82954204
-0.14431913 -0.88921452 -0.90948212
-0.16940063 -0.66563529 -1.7481763
-0.17306124 -0.65332675 -1.7079725
-0.20703399 -0.36444426 -0.34473437
-0.20846431 -0.35427484 -0.38466603
-0.146061 -0.59421575 0.23002625
-0.21636444 -0.19057971 -0.66386843
-0.21824606 -1.0676445 -1.9082832
-0.30566105 -1.0744797 -1.5444875
-0.38154685 -0.38801268 -1.3393993
-0.091188759 -1.0480651 -0.55178136
-0.16793875 -0.95072174 -0.58872676
-0.1172165 -0.73260927 -0.10926944
-0.19514698 -0.55171728 -0.38596636
-0.15863252 -1.0524375 -0.18923682
-0.42835632 -1.037119 -2.6457176
-0.23784202 -1.1164131 -2.5278871
-0.31212169 -1.116446 -2.3598478
-0.087323844 -1.1087923 -0.95241797
-0.092587739 -1.0453955 -0.59174585
-0.19330442 -1.0581975 -1.1886688
-0.15470697 -1.0603547 -1.2300433
-0.48693925 -0.56708539 -3.0333204
-0.4775092 -0.31090531 -0.63537836
-0.47093171 -0.19108908 -0.5751636
-0.48271614 -0.31039643 -0.78528714
-0.4348318 -0.19808388 0.64334643
-0.45745891 -0.11837684 0.68577802
-0.28586733 -0.4319928 -0.10211748
-0.33847371 -1.0392984 0.97504973
-0.33211464 -0.96019363 1.1678145
-0.50686347 0.20046884 0.88659668
-0.22572249 -1.0633366 1.9141004
-0.19212218 -0.8980695 -2.3272984
-0.23756999 -0.89807522 -2.4833188
-0.13689594 -1.069968 -1.8710945
-0.25996053 -1.0790291 -2.0064278
-0.27244812 -0.074713036 -2.1966925
-0.2656976 -0.27482271 -2.0233445
-0.26438689 -0.27657765 -1.9987385
-0.26149017 -0.28533134 -1.9034619
-0.27955395 -0.028317869 -1.2388384
-0.20600942 -0.46695706 -1.4808996
-0.23022191 -0.12923482 -0.98332262
-0.18427536 -0.62763131 -1.307229
-0.21048065 -0.26967624 -0.8645308
-0.23207961 -0.1499453 -0.82324803
-0.30148852 0.15884832 -2.155437
-0.42367607 -0.14877647 -5.9150305
-0.42600581 0.13129991 -5.9222274
-0.36308166 -1.2310055 -4.596766
-0.44580424 -1.2256292 -4.6739225
-0.32510066 -1.2231206 -4.6555691
-0.36458179 -1.2024807 -4.5089297
-0.44456863 -0.75721633 -2.6748362
-0.54508322 -0.0986595 -2.310205
-0.54908389 0.10850871 -0.7711153
-0.52018869 -0.22801754 -1.854357
-0.53564143 0.11002663 -1.1042793
-0.47122377 -0.42738965 -1.6215916
-0.38343892 -0.068728149 -1.1381279
-0.39773524 0.030918092 -1.1769468
-0.46149665 -0.58750772 -1.5774457
-0.47372264 -0.45213485 -1.6966345
-0.44708151 -0.35757115 -2.4341421
-0.42801526 -0.95715594 -2.6156213
-0.38700786 -1.0767702 -2.6197495
-0.41396973 -0.98007607 -2.2359064
-0.15912312 -0.9411422 -2.2487996
-0.37953356 0.12617442 -1.2171991
-0.39842626 0.050991923 -1.1943483
-0.29969734 0.15402004 -1.2198541
-0.62287992 0.82766271 -0.64542723
-0.53715241 0.50873613 -0.80985606
-0.52817398 0.66881907 -0.81949484
-0.43810856 0.98934078 -0.85128176
-0.59588671 0.81190157 -0.44630927
-0.45449597 -1.1569556 -4.1617923
-0.450459 -1.1330831 -4.0416307
-0.41085091 -1.0860411 -3.2768273
-0.41381326 -1.1299709 -3.5625648
-0.40199611 -1.0988065 -3.0370049
-0.36350411 -1.0958848 -3.0784304
-0.41182446 -1.0835966 -2.9217823
-0.4077976 -1.1011291 -3.1969023
-0.41459391 -1.0853457 -3.0017543
-0.43533039 -1.1047139 -3.6016047
-0.43727994 -1.1291494 -3.6618054
-0.44111007 -1.0881783 -3.7651048
-0.41857564 -0.99663281 -2.916208
-0.42593375 -1.0448452 -3.3211875
-0.42785254 -1.0118779 -3.3708436
-0.43619615 -0.67699951 -2.7676136
-0.44889867 -0.71719742 -2.7146606
-0.60361266 1.0002463 -0.64536417
-0.59963971 0.54749978 -0.58738649
-0.59972 0.58748853 -0.58471251
-0.53682154 1.3403406 -3.9342103
-0.61963868 1.3454876 -4.0086823
-0.70828426 1.3399491 -4.2456789
-0.66701818 1.3345492 -3.5267222
-0.6422255 1.3324744 -3.3275056
-0.70072687 0.89374435 -3.0500622
-0.64936215 1.3395048 -3.7274582
-0.67493665 1.3353971 -3.6064816
-0.53742743 1.3344229 2.4556525
-0.38143045 1.3355922 2.3376701
-0.44721842 0.94131064 0.96994519
-0.47449607 0.94211447 0.7607677
-0.46319747 1.3105394 1.132165
-0.49755543 -0.52177709 -3.3130691
-0.42053545 -0.41271502 -3.2754135
-0.30209619 0.14164054 0.57155371
-0.35665351 0.00255014 0.57777357
-0.4362458 0.042143106 0.5957315
-0.24669491 0.22214898 0.60205519
-0.45737618 0.38284692 0.60770822
-0.47471064 0.16170558 0.6551584
-0.47471255 0.14256319 0.65481997
-0.47181386 0.58260882 0.64908183
-0.53410447 0.34181228 0.77029729
-0.37729147 -1.0731384 -1.3018488
-0.40006232 -1.0732145 -1.3816731
-0.39590713 -1.0712234 -1.2617356
-0.33734733 -1.0654663 -1.3032103
-0.39149195 -0.93089116 -0.54041022
-0.39546919 -0.9754833 -0.66049647
-0.40607452 -0.94945741 -0.96272385
-0.34324676 -1.0526685 0.25744426
-0.34741241 -1.0521597 0.13751769
-0.44060802 -0.55033094 -0.75504446
-0.40510762 -0.86958587 -0.92496336
-0.40710053 -0.84939957 -0.97985911
-0.31353128 -0.38871759 -1.1816522
-0.31477696 -0.35639858 -1.1414473
-0.12259094 -1.0267389 -1.4536524
-0.21874176 -1.0111344 -3.328084
-0.19260906 -1.0822394 1.7127395
-0.21918164 -1.0748742 1.8033111
-0.26792985 -1.0873009 1.5245743
-0.29644024 -1.0807613 1.3161073
-0.28679353 -1.0806729 1.3057666
-0.35230717 -1.1389724 -1.7432079
-0.32900369 -1.1169286 -2.1365857
-0.39212632 -0.78224719 -2.3187475
-0.15851218 -1.0034524 -2.529588
-0.023520678 -1.0936716 1.6567857
-0.031839579 -1.0883765 1.3969607
-0.27533746 -1.0822047 1.6355641
-0.17129575 -0.47119692 -0.48151135
-0.13980959 -0.90975475 -0.78214788
-0.19992176 -0.87033331 -0.70734823
-0.48832506 -0.57454073 -3.0733049
-0.38259998 -1.1552836 -3.6181588
-0.27208 -1.0497675 -3.5017037
-0.55731463 0.5813607 0.85216892
-0.072371691 -0.96199632 0.55913734
-0.12338233 -1.0753851 1.0398176
-0.2303689 -1.0077276 0.92389154
-0.27124989 -1.0468442 0.80470717
-0.28467232 -1.0382221 0.79557669
-0.31177506 -0.99487865 0.5965966
-0.34884891 -0.68310988 0.71940649
-0.50381637 0.71931601 -2.0834963
-0.6737377 0.97525454 -2.2895839
-0.43617433 1.0828141 -2.3345938
-0.63633066 1.0412203 -2.3452547
-0.43603653 1.3521405 3.0725856
-0.3807179 0.17106235 3.3658361
-0.47457546 1.3739927 2.6137352
-0.4473964 1.4134957 2.7530444
-0.39492628 -1.2443101 -5.3488278
-0.39220637 -1.1399962 -3.8779645
-0.32360283 -1.0880077 -3.0798755
-0.35626987 -1.0911068 -2.878556
-0.39633545 -1.0814847 -2.8770859
-0.26505297 -0.96323979 3.0973067
-0.16505931 -1.0309541 2.5125122
-0.17052273 -1.052711 2.3525028
-0.34687695 -0.16374001 3.1453886
-0.30124998 -0.11883287 3.1668844
-0.48597252 0.98096728 1.0114841
-0.41765729 1.307534 1.2906682
-0.41274709 0.74984562 -0.94323397
-0.37732908 0.66357327 -0.98624849
-0.38846961 0.67008233 -0.97443402
-0.48917252 0.54917443 -0.86388326
-0.48509544 1.005935 -0.68948126
-0.59739876 0.98699391 -0.46802765
-0.54552364 1.3155395 -0.085701406
-0.55105698 1.3112179 -0.2456255
-0.48951632 0.88236928 -2.3373842
-0.40329108 0.64024806 -2.0905569
-0.27687949 0.14126575 -1.1406521
-0.37999162 0.11123827 -1.2322557
-0.31687123 0.42374161 -1.0068804
-0.4223215 0.55999386 -2.0832505
-0.58031744 0.20071954 -2.1009517
-0.58307934 0.15991125 -2.1994281
-0.58410573 0.279899 -2.1980505
-0.25224036 0.088800162 3.3079548
-0.14472742 -0.063143268 3.2162561
-0.098986626 -0.29782057 3.1993337
-0.14488438 -0.025643811 3.2163887
-0.48720592 1.3426352 -2.5725038
-0.56427038 1.3460248 -2.4895909
-0.19824314 -0.54036736 -1.2663492
-0.10617575 -0.94878602 -0.97109652
-0.10539794 -0.96887052 -0.95119655
-0.32425594 -1.0773596 -1.5043974
-0.38422364 -1.0749599 -1.5017359
-0.36148575 -1.0703719 -1.4230255
-0.42454076 -0.8277036 -1.479484
-0.38682237 -0.38775203 -1.419264
-0.11180687 -1.0299519 -0.71108615
-0.099676669 -1.0095482 -0.79146993
-0.15554348 -1.0677487 -1.2550609
-0.23723687 -1.0429534 -0.1464417
-0.16002107 -1.0522679 -0.22921234
-0.43177325 -0.94454563 -2.7155368
-0.37371969 -1.0771748 -2.254992
-0.31360373 -1.1205065 -2.40521
-0.21209967 -1.101064 -2.2884829
-0.092836946 -1.1103308 -0.60702193
-0.098068833 -1.0622169 -0.75172472
-0.28905112 -1.0636083 -1.0647354
-0.10948005 -0.98836136 -1.0712109
-0.17126511 -1.0833192 -1.7098594
-0.13133131 -1.0731462 -1.7112033
-0.43831247 -0.59696156 -2.8049726
-0.44588506 -0.47112381 -0.53696001
