ply
format ascii 1.0
comment PCL generated
element vertex 649
property float x
property float y
property float z
element camera 1
property float view_px
property float view_py
property float view_pz
property float x_axisx
property float x_axisy
property float x_axisz
property float y_axisx
property float y_axisy
property float y_axisz
property float z_axisx
property float z_axisy
property float z_axisz
property float focal
property float scalex
property float scaley
property float centerx
property float centery
property int viewportx
property int viewporty
property float k1
property float k2
end_header
-10.489161 1.2606504 -1.9566045
-10.71143 0.8440491 -1.9241022
-10.64928 1.2476708 -1.9519975
-10.648973 1.2642778 -1.9530923
-10.635313 1.279548 -1.9544131
-10.595348 1.2823286 -1.9555329
-10.489153 1.2704468 -1.9572464
-10.448987 1.2703723 -1.9581839
-10.409019 1.2731186 -1.9593016
-10.369038 1.2795178 -1.9606588
-10.27417 1.2766373 -1.9626961
-10.224186 1.2769572 -1.9638898
-10.071806 1.3206288 -1.9703256
-9.991785 1.3162632 -1.9719172
-9.9517059 1.306614 -1.9722255
-9.8991852 1.2968473 -1.9728181
-9.8592319 1.2944516 -1.9735987
-9.7691612 1.3032457 -1.9762881
-9.7116718 1.3041923 -1.9776989
-9.5517426 1.303897 -1.9814321
-9.5117588 1.3038653 -1.9823681
-9.4718084 1.2924392 -1.9825571
-9.3756161 1.2815844 -1.9841031
-9.3118134 1.2886859 -1.9860653
-9.2717934 1.2916938 -1.9872013
-9.2317715 1.2947017 -1.9883373
-9.1118336 1.2981088 -1.9913746
-8.9918356 1.2888588 -1.9935843
-8.9518147 1.2918667 -1.9947203
-8.8717709 1.2850122 -1.9961494
-8.7917728 1.2831357 -1.9979036
-8.7518082 1.2859305 -1.9990243
-8.6717873 1.2815651 -2.0006158
-8.5917902 1.2796884 -2.0023701
-8.5117817 1.2830023 -2.0044644
-8.4718618 1.2779049 -2.0050671
-8.3518658 1.281525 -2.0081198
-8.2319279 1.2849321 -2.011157
-8.1919403 1.2852383 -2.0121152
-8.1518736 1.2832685 -2.0129263
-8.0959082 1.2784858 -2.0139263
-8.0319786 1.2787832 -2.0154457
-7.9921045 1.2786634 -2.0163734
-7.9120631 1.2846792 -2.0186455
-7.8719625 1.285411 -2.0196342
-7.8319759 1.2857172 -2.0205927
-7.7919884 1.2860234 -2.0215509
-7.7119436 1.279169 -2.02298
-7.6946678 1.279247 -2.0233905
-7.6719465 1.2803192 -2.023994
-7.659461 1.2795706 -2.0242379
-7.6547704 1.2793484 -2.0243332
-7.5919676 1.2812693 -2.0259326
-7.5375404 1.2758982 -2.0268579
-7.4948626 1.2754778 -2.0278318
-7.3747864 1.2742285 -2.0305672
-7.3347745 1.2720749 -2.0313649
-7.2547612 1.2779568 -2.0336277
-7.1757755 1.2724715 -2.0351217
-7.0949569 1.266152 -2.0366039
-7.0146384 1.2600579 -2.0380893
-6.9347653 1.2706834 -2.0406594
-6.8554249 1.2730559 -2.0426764
-6.8153124 1.2786664 -2.0439851
-6.7752733 1.2812136 -2.0450914
-6.7677794 1.2811064 -2.0452602
-6.6952229 1.2851173 -2.0472252
-6.6151357 1.2905524 -2.0494604
-6.5755582 1.2949294 -2.0506756
-6.5352879 1.3036665 -2.0521929
-6.455339 1.3068256 -2.0542755
-6.4154563 1.2992268 -2.0547137
-6.3354568 1.2974083 -2.0564716
-6.2953157 1.3007001 -2.0576291
-6.21523 1.2954358 -2.0591633
-6.1752472 1.2956008 -2.0601122
-6.1552215 1.2971298 -2.0606823
-6.0151052 1.2731814 -2.0624013
-5.9751439 1.2760054 -2.0635238
-5.8951197 1.2716982 -2.0651193
-5.8160038 1.2645804 -2.0665095
-5.775198 1.2674925 -2.0676577
-5.7352114 1.2678276 -2.0686178
-5.6952748 1.2731404 -2.0699029
-5.6151857 1.2715559 -2.0716782
-5.5751991 1.2718912 -2.0726383
-5.5352764 1.2695036 -2.0734186
-5.4552131 1.2704079 -2.0753565
-5.3752141 1.2685896 -2.0771143
-5.278985 1.2720115 -2.0795963
-5.2389994 1.2722133 -2.0805478
-5.1763835 1.2771736 -2.0823419
-5.1176929 1.2669765 -2.083051
-5.0377212 1.2673798 -2.0849538
-4.9591713 1.2860677 -2.088021
-4.8392143 1.2866728 -2.0908751
-4.7978935 1.2835213 -2.0916383
-4.7179079 1.281436 -2.0933783
-4.638845 1.2873929 -2.0956237
-4.5579786 1.2847313 -2.0973468
-4.5180073 1.2874215 -2.0984607
-4.438036 1.2878246 -2.1003635
-4.3589592 1.291293 -2.1024461
-4.3194284 1.2942715 -2.1035688
-4.2394276 1.2896975 -2.1051462
-4.1194849 1.2927912 -2.1081631
-3.9575007 1.3195312 -2.1137152
-3.8795843 1.2964897 -2.1140342
-3.7978237 1.290763 -2.1155775
-3.7178664 1.293655 -2.1176429
-3.6792445 1.3021871 -2.119108
-3.6383786 1.3018123 -2.1200423
-3.5597272 1.3030802 -2.1219707
-3.4791887 1.3096198 -2.1242888
-3.3993876 1.3110644 -2.1262558
-3.3589473 1.3084892 -2.1270361
-3.2390046 1.3115827 -2.1300528
-3.1600146 1.3299824 -2.1331115
-3.1200871 1.3401386 -2.1347134
-3.0800285 1.3278972 -2.1348515
-3.0390902 1.3150797 -2.1349726
-2.9195437 1.3109957 -2.1375101
-2.8787212 1.3180866 -2.1389322
-2.759023 1.3458217 -2.1435575
-2.7240374 1.3461639 -2.1444008
-2.5137622 1.313395 -2.1471882
-2.4327662 1.3105599 -2.1489029
-2.3768616 1.310598 -2.1502171
-2.2317319 1.3481284 -2.1560805
-2.2171798 1.3561991 -2.1569505
-2.1923277 1.356546 -2.1575563
-2.1528721 1.3599892 -2.1587076
-2.1128886 1.3603801 -2.1596715
-1.9939675 1.36517 -2.1627755
-1.9534822 1.3649961 -2.1637139
-1.8735154 1.3657779 -2.1656415
-1.8173215 1.3582156 -2.1664646
-1.6351562 1.325613 -2.1686034
-1.5541856 1.3252652 -2.1704805
-1.4352906 1.3325423 -2.1737468
-1.3537929 1.3291422 -2.1754363
-1.2343442 1.33088 -2.1783528
-1.1554327 1.3377662 -2.1806552
-1.1133647 1.3284359 -2.1810312
-0.99391603 1.3301736 -2.1839476
-0.91505623 1.3420341 -2.1865749
-0.79347134 1.3290762 -2.1885788
-0.77745867 1.3236412 -2.1885986
-0.43480492 1.3511351 -2.1984391
-0.41533804 1.3543823 -2.1991086
-0.31535673 1.3528728 -2.2013557
-0.21439171 1.3527199 -2.2037146
-0.17446041 1.3580854 -2.205003
-0.13304949 1.3642433 -2.206378
-0.070662022 1.3751649 -2.2085571
-0.015312672 1.3875737 -2.2106686
0.024168968 1.3885295 -2.2116575
0.065657616 1.3872257 -2.2125456
0.081774712 1.3766553 -2.2122314
0.10753393 1.3486135 -2.210999
0.11890841 1.3314716 -2.2101431
0.11935329 1.3266129 -2.2098353
0.043130398 1.0548217 -2.1902447
0.046456814 0.97525465 -2.185111
0.010741711 0.85244882 -2.1762295
0.011983395 0.73306167 -2.1684387
0.083953857 0.57523763 -2.15979
0.082296848 0.53212416 -2.1569271
0.084967136 0.49273798 -2.1544101
0.090297222 0.45247719 -2.1518979
0.085231304 0.39754346 -2.148181
0.080803871 0.37273619 -2.1464522
0.026452065 0.22999549 -2.1358275
0.050094604 0.058307469 -2.1251369
0.050370216 0.052935481 -2.1247914
0.050322533 0.05211547 -2.1247365
0.063723087 -0.066295877 -2.117295
0.051199436 -0.10548766 -2.1144342
-0.027593136 -0.25843409 -2.1025674
0.047029972 -0.62637889 -2.0802181
-0.44902754 -0.92364573 -2.049108
-0.61135054 -0.59423256 -2.0668759
-0.22663164 -0.28761908 -2.0959859
-10.209001 1.264436 -1.963426
-10.129086 1.2724189 -1.9658239
-10.104223 1.2777245 -1.9667548
-10.089115 1.281599 -1.967363
-9.9116659 1.2762018 -1.971173
-9.8716326 1.2715304 -1.9718064
-9.8315754 1.2643698 -1.9722773
-9.7916107 1.2671647 -1.973398
-9.6317291 1.2629855 -1.9768757
-9.5116539 1.2643297 -1.979781
-9.4317827 1.2697067 -1.9820073
-9.3516951 1.2707449 -1.9839544
-9.2318687 1.2737261 -1.9869611
-9.1519413 1.2793159 -1.9892026
-9.1118984 1.2798351 -1.9901762
-9.0319901 1.2750437 -1.9917372
-9.0156631 1.2767469 -1.9922318
-8.9918556 1.2784775 -1.9929038
-8.9118576 1.2766008 -1.994658
-8.8319502 1.2718095 -1.996219
-8.7919636 1.2721155 -1.9971772
-8.7356844 1.2713253 -1.998446
-8.6557102 1.2719094 -2.0003607
-8.6319675 1.268362 -2.0006855
-8.5357037 1.2678084 -2.0029078
-8.5120621 1.2690675 -2.003545
-8.4557495 1.2708809 -2.0049851
-8.431777 1.2685932 -2.0053978
-8.3920546 1.2650082 -2.0060949
-8.3119431 1.2635573 -2.0078795
-8.2718992 1.2640762 -2.0088532
-8.1921082 1.2717294 -2.0112267
-8.1118202 1.2757702 -2.013375
-8.0719528 1.2707975 -2.0139847
-8.0158901 1.2740929 -2.015516
-7.9519682 1.2692269 -2.0166972
-7.9444704 1.2692844 -2.0168767
-7.8558826 1.2660509 -2.0187435
-7.7995834 1.2649903 -2.019995
-7.7920918 1.2645411 -2.0201414
-7.7358222 1.2587175 -2.0210803
-7.712018 1.2557046 -2.0214415
-7.6949797 1.2554448 -2.0218241
-7.6547484 1.2589705 -2.022999
-7.592 1.2568358 -2.0243316
-7.4955997 1.2550714 -2.0264778
-7.4551229 1.2547333 -2.0274055
-7.3350868 1.2482727 -2.0297987
-7.2950101 1.2488418 -2.0307763
-7.2150106 1.2470233 -2.0325341
-7.1347647 1.2378663 -2.0338173
-7.0598459 1.2361124 -2.0354602
-6.975039 1.2440571 -2.0379705
-6.8952303 1.2519598 -2.0403607
-6.8550248 1.2579743 -2.041698
-6.8149734 1.2610321 -2.0428379
-6.7758856 1.2661356 -2.0440893
-6.735899 1.2664738 -2.0450497
-6.6958432 1.2695836 -2.0461934
-6.5753427 1.2827195 -2.049881
-6.5429182 1.2802691 -2.0504813
-6.4959335 1.2737629 -2.0511575
-6.4154487 1.2711486 -2.0528748
-6.3358593 1.2626728 -2.0541871
-6.2952971 1.2624331 -2.0551231
-6.2558603 1.2608607 -2.0559454
-6.1759553 1.2587653 -2.057683
-6.1358743 1.2593865 -2.0586641
-6.0954275 1.2613865 -2.0597441
-6.0553255 1.2594668 -2.0605593
-6.015913 1.260401 -2.0615451
-5.9360337 1.2607944 -2.0634451
-5.895978 1.2639041 -2.0645888
-5.8160729 1.2618088 -2.0663264
-5.775507 1.2615793 -2.0672631
-5.7360735 1.2599965 -2.0680847
-5.6961122 1.2628233 -2.0692074
-5.6560054 1.2609559 -2.0700262
-5.5761003 1.2588607 -2.0717638
-5.5360193 1.2594818 -2.0727448
-5.4561143 1.2573866 -2.0744824
-5.415524 1.2546411 -2.0752549
-5.3361282 1.2559125 -2.0772011
-5.2762575 1.2553511 -2.0785692
-5.2367263 1.2583294 -2.0796916
-5.1563001 1.2559559 -2.0814233
-11.234683 -0.20632017 -1.843026
-11.233089 0.19948348 -1.8696434
-11.246282 0.2818149 -1.8747267
-10.824631 0.086674541 -1.8718383
-11.182316 -0.16847223 -1.8467338
0.018503189 -1.0803294 -2.0498152
0.035499096 -1.0699987 -2.0508907
-3.8032517 -1.2969627 -1.9459549
-3.8230295 -1.2982544 -1.9454063
-3.8811493 -1.2784603 -1.9453391
-4.0632181 -1.223531 -1.9446651
-4.103188 -1.226236 -1.94355
-4.2232251 -1.2144296 -1.9415069
-4.3429627 -1.2499373 -1.9363717
-4.4619951 -1.1980177 -1.9369795
-4.6215119 -1.2014238 -1.9330137
-4.7017989 -1.2191328 -1.9299699
-4.7827401 -1.1973943 -1.9294946
-4.8669138 -1.1926266 -1.9278319
-4.9426994 -1.1957637 -1.9258482
-5.0221319 -1.2159933 -1.9226595
-5.1420736 -1.2191281 -1.9196399
-5.2219205 -1.2394798 -1.9164335
-5.2619691 -1.2297338 -1.9161321
-5.4310069 -1.2148979 -1.9131377
-5.5107994 -1.2398597 -1.9096305
-5.5904827 -1.2601699 -1.9064306
-5.6934009 -1.2162322 -1.9068937
-5.7008343 -1.2135384 -1.9068958
-5.9688568 -1.1278707 -1.9062183
-5.9913173 -1.1266806 -1.9057692
-6.1708503 -1.1487072 -1.9001141
-6.1933937 -1.1502284 -1.8994855
-6.3132763 -1.1745793 -1.8950777
-6.3532629 -1.1749259 -1.8941168
-6.393249 -1.1752726 -1.8931558
-6.4933338 -1.1538601 -1.89221
-6.5532742 -1.1533487 -1.8908371
-6.7131257 -1.1522306 -1.8871597
-6.753417 -1.128854 -1.8877455
-6.8316431 -1.1023318 -1.8876473
-7.2337265 -1.0755776 -1.8799654
-7.3516808 -1.1084236 -1.8750465
-7.3936701 -1.1117244 -1.8738451
-7.4336309 -1.1145613 -1.8727217
-7.6723604 -1.2090442 -1.8609316
-7.8552618 -1.3443108 -1.8477803
-7.9273314 -1.3948239 -1.8427807
-7.967134 -1.4150417 -1.8405225
-8.2088327 -1.2336054 -1.8467355
-8.408679 -1.2275603 -1.8424424
-8.7483597 -1.2833008 -1.8308214
-8.7685165 -1.2660317 -1.8314795
-8.786253 -1.2464677 -1.8323449
-8.808898 -1.2240273 -1.8332834
-8.8493462 -1.1874263 -1.8347317
-9.0497999 -1.1125282 -1.8349342
-9.1299076 -1.1198808 -1.8325731
-9.2098713 -1.1153024 -1.8309968
-9.3841381 -1.1578876 -1.8241185
-9.409174 -1.1612241 -1.8233125
-9.589241 -1.1729653 -1.8183186
-9.6492062 -1.1722424 -1.8169589
-9.6667156 -1.1735584 -1.8164619
-9.7292137 -1.1755564 -1.8148646
-9.8266649 -1.1747828 -1.8126287
-9.8491764 -1.1764748 -1.8119898
-9.9695234 -1.1387533 -1.8116368
-10.089452 -1.1369697 -1.8089397
-10.16652 -1.1294398 -1.8076246
-10.174017 -1.1294945 -1.807445
-10.254002 -1.1316487 -1.8054273
-10.261505 -1.1329246 -1.8051677
-10.334034 -1.1231972 -1.8041031
-10.374059 -1.1237918 -1.803125
-10.426437 -1.1313379 -1.8014017
-10.533897 -1.1374022 -1.7984833
-10.5914 -1.1353335 -1.7972695
-10.693853 -1.1332905 -1.7949995
-10.747899 -1.1230097 -1.7944047
-10.813987 -1.1195384 -1.7930815
-10.854086 -1.107388 -1.7929364
-10.868018 -1.1038377 -1.7928421
-10.902931 -1.0807164 -1.7935374
-10.988424 -1.0396332 -1.7942224
-10.996026 -1.0016441 -1.7965323
-11.279341 -0.77361894 -1.8048203
-11.302803 -0.76459694 -1.8048608
-11.31032 -0.76215434 -1.8048444
-11.297184 -0.73270988 -1.8070812
-11.290618 -0.72469938 -1.80776
-10.937336 -0.73705983 -1.8152395
-10.510082 -0.82715142 -1.8193634
-10.214049 -1.1248096 -1.8068126
-9.9885674 -1.03803 -1.8177873
-9.9799957 -0.46609828 -1.8554497
-9.9907608 -0.45649421 -1.8558263
-10.060399 -0.40077084 -1.8578421
-10.02119 -0.31338197 -1.8644861
-9.6578732 -0.1977763 -1.8805828
-9.5800667 0.041958392 -1.8981109
-9.4549599 -0.010429651 -1.897615
-9.4171124 -0.048722595 -1.8959948
-9.3381586 -0.20951155 -1.8873156
-9.3361511 -0.39678556 -1.8750964
-9.3357658 -0.4354423 -1.8725734
-9.3355885 -0.45169804 -1.8715129
-9.375576 -0.45200372 -1.8705546
-9.4733419 -0.44599807 -1.868654
-9.4958076 -0.44400221 -1.8682576
-9.6155338 -0.45650595 -1.8646295
-9.7358589 -0.4558937 -1.8618463
-9.7558365 -0.45469582 -1.8614562
-9.8500872 -1.0404456 -1.8208783
-9.6495771 -1.1016424 -1.8215744
-9.5297375 -1.1021793 -1.8243512
-9.4496517 -1.1011412 -1.8262982
-9.4097443 -1.1026553 -1.8271354
-9.3696537 -1.1030178 -1.8280523
-9.329689 -1.1002228 -1.8291731
-9.2896786 -1.1024055 -1.8299689
-9.2096252 -1.1082358 -1.8314654
-9.1696939 -1.1039762 -1.8326813
-9.1297073 -1.1036701 -1.8336395
-9.0497084 -1.1055467 -1.8353937
-9.0097218 -1.1052406 -1.8363519
-8.9297695 -1.1021396 -1.838431
-8.88976 -1.1043223 -1.8392267
-8.8097754 -1.1026897 -1.8412104
-8.7697878 -1.1023841 -1.8421687
-8.6897545 -1.1143967 -1.8432597
-10.249187 1.2670008 -1.962651
-10.329122 1.2615086 -1.9604157
-10.368971 1.2659032 -1.9597687
-10.409048 1.2658126 -1.9588224
-3.2575135 -0.14652862 -2.0341127
-3.2283335 -0.22353098 -2.0297539
-3.2295403 -0.22620019 -2.0295506
-3.4965191 -0.30697504 -2.0179958
-3.3099947 -0.14678711 -2.0328646
-3.2700233 -0.14410165 -2.0339782
-4.3932438 -0.752177 -1.9677951
-4.4050593 -0.35685706 -1.9934112
-4.3876648 -0.3393513 -1.9949659
-4.3488159 -0.29375261 -1.9988642
-4.2688727 -0.28838173 -2.0010917
-4.108418 -0.3003408 -2.0040731
-4.0289154 -0.29466563 -2.0063102
-3.9489012 -0.30173731 -2.0077245
-3.8229933 -0.31417298 -2.0098641
-3.7885742 -0.31050971 -2.0109117
-3.7089152 -0.31299829 -2.0126178
-0.061658859 -1.0339704 -2.0509708
-0.4213109 -1.0875248 -2.0390244
-0.44518709 -1.0935506 -2.0380695
-0.53778505 -1.0820526 -2.0366499
-0.72528839 -1.0765055 -2.0326138
-0.80577707 -1.0746727 -2.0308454
-0.84573269 -1.0775713 -2.0297179
-0.88516665 -1.083122 -2.0284293
-0.9256444 -1.0833687 -2.0274634
-0.96565485 -1.0812891 -2.0266607
-1.0051165 -1.0843507 -2.0255344
-1.0451269 -1.0822713 -2.0247316
-1.1250935 -1.0830903 -2.0228019
-1.1650767 -1.0835001 -2.0218368
-1.2050874 -1.0814207 -2.0210342
-1.2450433 -1.0843191 -2.019907
-1.285054 -1.0822397 -2.0191042
-1.36502 -1.083059 -2.0171745
-1.5206523 -1.1405489 -2.0097573
-1.5647469 -1.1471692 -2.0082889
-1.6047027 -1.1500678 -2.0071616
-1.6441915 -1.1506404 -2.0061977
-1.7241304 -1.1539485 -2.0041053
-1.7641134 -1.1543581 -2.0031402
-1.8046188 -1.1521157 -2.0023367
-1.84408 -1.1551774 -2.0012105
-1.8840907 -1.1530979 -2.0004077
-1.9240465 -1.1559966 -1.9992805
-2.0040402 -1.1543267 -1.9975129
-2.0439961 -1.1572253 -1.9963856
-2.1239626 -1.1580445 -1.9944556
-2.1639459 -1.1584541 -1.9934907
-2.2039289 -1.1588635 -1.9925257
-2.2439396 -1.1567842 -1.9917232
-2.2839229 -1.1571938 -1.9907582
-2.3238788 -1.1600924 -1.9896308
-2.4038451 -1.1609116 -1.9877009
-2.4438283 -1.161321 -1.9867359
-2.5243173 -1.1594883 -1.9849675
-2.5637782 -1.1625499 -1.9838411
-2.6411636 -1.1406859 -1.9834574
-2.8045533 -1.0853589 -1.9832476
-2.9049351 -1.0754781 -1.9815395
-2.9832044 -1.082891 -1.9792175
-3.0648947 -1.0738474 -1.9778932
-3.1048808 -1.0740623 -1.9769409
-3.1448665 -1.0742772 -1.9759886
-3.2235341 -1.0843022 -1.9734862
-3.462533 -1.1651568 -1.9625826
-3.5621204 -1.2254597 -1.9562961
-3.5828626 -1.2382619 -1.9549708
-3.6185679 -1.2561253 -1.9529631
-3.6622162 -1.2709428 -1.9509684
-3.7025533 -1.2812405 -1.9493475
-1.7914488 1.3076587 -2.1637602
-1.9113472 1.3015114 -2.1605444
-2.0169749 1.3099242 -2.158617
-2.0738597 1.3125303 -2.1574531
-2.096961 1.3120096 -2.1568768
-2.1913087 1.3062364 -2.154285
-2.3112848 1.3075509 -2.151556
-2.3932326 1.3065413 -2.1495671
-2.4711151 1.296038 -2.1470518
-2.5511596 1.3027179 -2.1456113
-2.6326058 1.3011434 -2.1435971
-2.6716115 1.3021101 -2.1427453
-2.7598948 1.2861178 -2.1396265
-2.7998965 1.2883933 -2.1388369
-2.8798525 1.2854732 -2.1367695
-2.9198544 1.2877486 -2.1359801
-2.9997633 1.2773578 -2.1334245
-3.0397651 1.2796332 -2.1326351
-3.1597703 1.2864592 -2.1302664
-3.1997404 1.2837541 -2.1291513
-3.3196511 1.2756388 -2.1258063
-3.3596685 1.2804043 -2.1251795
-3.4396091 1.274994 -2.1229496
-3.4795952 1.2747792 -2.1219971
-3.5595512 1.2718593 -2.11993
-3.6794934 1.2687243 -2.1169105
-3.7594023 1.2583337 -2.1143548
-3.7993727 1.2556286 -2.1132398
-3.879313 1.2502183 -2.1110098
-3.9193621 1.2599642 -2.1107085
-4.0393043 1.2568294 -2.1076889
-4.1192603 1.2539093 -2.1056216
-4.159246 1.2536945 -2.1046693
-4.2392497 1.2582451 -2.1030903
-4.2792196 1.2555401 -2.1019752
-4.3991933 1.2573857 -2.0992811
-4.4391947 1.259661 -2.0984917
-4.5191512 1.2567409 -2.0964243
-4.5591216 1.2540358 -2.0953093
-4.6391091 1.2560964 -2.0935676
-4.6790953 1.2558814 -2.0926151
-4.7190499 1.2506859 -2.0913374
-4.7990375 1.2527466 -2.0895958
-4.8390074 1.2500414 -2.0884807
-4.9189634 1.2471215 -2.0864134
-5.5214019 -0.38480666 -1.9653875
-5.6013031 -0.4089582 -1.9619308
-5.6813669 -0.41200924 -1.9598523
-5.8007321 -0.44817737 -1.9546827
-5.9957175 -0.90339351 -1.9202912
-5.7520165 -1.0585908 -1.9158438
-5.6720428 -1.0579215 -1.9177641
-5.6320558 -1.0575868 -1.9187243
-5.5520821 -1.0569177 -1.9206445
-5.5121202 -1.0540944 -1.9217671
-5.4721084 -1.0562485 -1.9225649
-5.3921342 -1.0555793 -1.9244851
-5.3521471 -1.0552446 -1.9254452
-5.2637577 -1.0501171 -1.927855
-5.2233171 -1.0527129 -1.9286338
-5.1521878 -1.0560602 -1.9300835
-5.1015549 -1.0608048 -1.9309608
-5.0220237 -1.0601066 -1.9328725
-4.942976 -1.0516387 -1.935282
-4.8634443 -1.0509406 -1.9371938
-4.7430468 -1.0506539 -1.9400374
-4.6235723 -1.0422935 -1.9433882
-7.6386366 -0.19143644 -1.928376
-7.6532612 -0.23137301 -1.9254169
-7.6478915 -0.27115652 -1.9229372
-7.6418462 -0.30960053 -1.9205608
-7.6405792 -0.38732713 -1.9154996
-7.8139582 -0.71383768 -1.8900452
-8.0519238 -0.91954792 -1.8709878
-8.2096748 -1.1356186 -1.8531339
-7.636117 -0.19032371 -1.9285079
-7.6186924 -0.18272297 -1.9294146
-7.600575 -0.17586163 -1.9302891
-7.5787954 -0.17604411 -1.9307882
-7.4992366 -0.30167636 -1.924426
-7.1610546 -0.35343158 -1.9289709
-7.0789719 -0.33798078 -1.9319088
-6.9989977 -0.33731154 -1.9338292
-6.9590111 -0.33697695 -1.9347893
-6.6820059 -0.056178048 -1.9596809
-6.4434552 0.072480887 -1.9737053
-6.3630395 0.038577497 -1.9733714
-6.2447743 -0.01660274 -1.972532
-6.204555 -0.038667887 -1.9720304
-6.1088638 -0.13351315 -1.9680634
-5.7236719 -0.14350186 -1.9764469
-5.5196066 -0.3124879 -1.9701664
-5.4844923 -0.32463819 -1.9701945
-5.4866033 -0.33876589 -1.9692196
-5.4892826 -0.34350282 -1.9688464
-3.7086735 -0.35530299 -2.0098524
-3.8252773 -0.86634314 -1.9736435
-3.5434301 -1.0522115 -1.9680823
-3.4234586 -1.0541093 -1.970773
-3.3430324 -1.0565082 -1.9725028
-3.223089 -1.0534289 -1.9755188
-3.1017532 -1.063705 -1.9776927
-3.0240693 -1.0468587 -1.9806188
-2.9431882 -1.0520504 -1.9821765
-2.8236854 -1.0486667 -1.9852021
-2.7436996 -1.0507615 -1.9869416
-2.6829622 -1.0555071 -1.9880558
-2.6429763 -1.0553063 -1.9890072
-2.5230188 -1.0547037 -1.9918612
-2.4830332 -1.0545031 -1.9928126
-2.4030614 -1.0541013 -1.9947153
-2.3630757 -1.0539005 -1.9956666
-2.2830899 -1.0559876 -1.9974067
-2.2031324 -1.0530972 -1.999472
-2.1631322 -1.0553851 -2.0002608
-2.0831609 -1.0549835 -2.0021634
-2.0431895 -1.052294 -2.0032775
-1.9632177 -1.0518923 -2.0051801
-1.9232318 -1.0516914 -2.0061314
-1.8832607 -1.0490018 -2.0072455
-1.8032744 -1.051089 -2.0089855
-1.7632887 -1.0508881 -2.0099368
-1.6833317 -1.0479978 -2.0120022
-1.6433461 -1.047797 -2.0129535
-1.5624795 -1.0503926 -2.0146811
-1.5233886 -1.0471946 -2.0158076
-1.4833591 -1.0544599 -2.0162711
-1.4429188 -1.0570021 -2.0170534
-1.403373 -1.0565469 -2.0180111
-1.3633873 -1.0563462 -2.0189624
-1.2834158 -1.0559444 -2.0208652
-1.203444 -1.0555428 -2.0227678
-1.163444 -1.0578308 -2.0235565
-1.0834577 -1.0599178 -2.0252964
-0.80335379 -0.7943939 -2.0492604
-0.82175398 -0.63653326 -2.0591686
-0.80462217 -0.57422709 -2.0636516
-0.85421705 -0.30597731 -2.0800581
-0.94475222 -0.20999035 -2.0842209
-0.93858147 -0.18810964 -2.085799
-0.92864323 -0.17810455 -2.0866876
-0.83645773 0.12776935 -2.108885
-0.83478642 0.2073853 -2.1141391
-0.83769941 0.24715662 -2.1166759
-0.87339878 0.36314961 -2.1234357
-0.88236475 0.40897635 -2.1262269
-0.90484381 0.52089489 -2.1330302
-0.90506744 0.52452672 -2.1332626
-0.88484764 0.64775097 -2.1418083
-0.86765432 0.72446132 -2.1472361
-0.84058046 0.76452577 -2.1504958
-0.74678755 0.8699379 -2.1596007
-1.0173445 1.3174541 -2.1825647
-1.0317893 1.3175741 -2.1822338
-1.0973158 1.3170508 -2.1806622
-1.1517136 1.3139139 -2.1791801
-1.2316806 1.313132 -2.1772528
-1.2572446 1.3137556 -2.1766937
-1.2972305 1.3135539 -2.1757424
-1.3116734 1.3148373 -2.1754875
-1.377202 1.3131506 -2.1738396
-1.4171877 1.3129491 -2.172888
-1.4971597 1.3125457 -2.1709852
-1.5115647 1.3103955 -2.1705065
-1.6171024 1.3094523 -2.1679685
-1.6320164 1.3097874 -2.1676404
-1.6570883 1.3092505 -2.167017
-1.7370598 1.3088472 -2.1651142
-6.6717663 -1.0613095 -1.8940854
-6.9187641 -0.59350556 -1.918931
-6.5988235 -0.37791812 -1.9405588
-6.196259 -0.63698673 -1.9330354
-6.2391467 -0.83052421 -1.9193525
-6.4028234 -0.97221744 -1.9062312
0 0 0 1 0 0 0 1 0 0 0 1 0 0 0 0 0 649 1 0 0
