ply
format ascii 1.0
comment PCL generated
element vertex 523
property float x
property float y
property float z
element camera 1
property float view_px
property float view_py
property float view_pz
property float x_axisx
property float x_axisy
property float x_axisz
property float y_axisx
property float y_axisy
property float y_axisz
property float z_axisx
property float z_axisy
property float z_axisz
property float focal
property float scalex
property float scaley
property float centerx
property float centery
property int viewportx
property int viewporty
property float k1
property float k2
end_header
0.69090223 1.3863846 2.8644526
0.69509649 1.3645734 2.8597698
0.6454072 1.3533412 2.8577065
0.60540819 1.3606092 2.8595262
0.52652454 1.3760302 2.8633468
0.44544697 1.3729341 2.8632305
0.40548325 1.3634549 2.8614759
0.28552151 1.3685117 2.8633606
0.12661982 1.4080385 2.8728628
0.087750435 1.409014 2.873332
-0.024194717 1.3991945 2.8719883
-0.074374199 1.388467 2.8700359
-0.15539122 1.3566616 2.8637924
-0.27534389 1.3569334 2.864656
-0.31532717 1.3570241 2.8649437
-0.68623686 1.3022361 2.8557425
-0.84782457 1.3005623 2.8564703
-0.96699524 1.3062502 2.8584845
-1.0477815 1.290804 2.8557305
-1.0866117 1.2916857 2.8561795
-1.1277404 1.2885365 2.8557837
-1.2060299 1.3078409 2.860429
-1.3265309 1.2992433 2.8594034
-1.4064898 1.2969759 2.8594565
-1.7267227 1.0636904 2.8118227
-1.9219732 0.81824172 2.7607541
-1.9298797 0.73716891 2.7435057
-1.9296527 0.66058356 2.7271607
-2.0081253 0.37562025 2.6668751
-2.0075092 0.36286655 2.6641493
-2.0076499 0.21526961 2.6326525
-2.0049286 0.18377137 2.6259124
-2.007494 0.16261718 2.6214151
-2.0074553 0.17804942 2.6247082
0.60555601 1.4417408 2.8768389
0.52901602 1.452597 2.8796697
0.44637442 1.4464068 2.8789036
0.4125104 1.4392804 2.8776102
0.24670124 1.4272383 2.8761537
0.20792437 1.4329087 2.8776243
0.16670179 1.4317998 2.8776643
0.047905445 1.4444227 2.881156
0.016658783 1.4457324 2.8816452
0.001666069 1.445691 2.881737
-0.073444843 1.4444628 2.8819795
-0.083292484 1.4454566 2.8822575
-0.27799797 1.482214 2.8914092
-0.30831146 1.4716327 2.8893547
-0.63967705 1.3975312 2.8757663
-0.72124147 1.4254515 2.8822722
-0.83952093 1.3983459 2.8772821
-0.9419775 1.3985072 2.8780046
-1.0269413 1.398641 2.8786035
-1.1194019 1.3987864 2.8792555
-1.166882 1.3988613 2.8795903
-1.2838607 1.367043 2.8735857
-1.4432979 1.3952271 2.8806708
-1.6799421 1.3941686 2.8820341
-1.7390161 1.4220537 2.8883815
-1.8589644 1.4222424 2.8892272
-1.9208021 1.4268401 2.8906236
-2.0814693 1.3828001 2.8823042
-2.1775839 1.392452 2.8850093
-2.2186985 1.3845162 2.8835919
-2.241472 1.382552 2.8833256
-2.3222651 1.3694988 2.8810825
-2.4547303 1.3768873 2.883549
-2.548558 1.3850355 2.8859179
-2.7586336 1.3831278 2.8869214
-2.761091 1.3836226 2.8870435
-2.9179792 1.4128532 2.8943348
-3.0793149 1.3989516 2.8924515
-3.1592805 1.3940109 2.8919342
-3.1885161 1.3828 2.8897381
-3.2784185 1.36348 2.8862188
-3.3258276 1.3442419 2.8824315
-3.3435795 1.3269933 2.87887
-3.3646834 1.2977347 2.8727677
-3.909585 1.1444646 2.8437183
-4.0787849 1.2891486 2.8757305
-4.1889009 1.3443674 2.8882539
-4.2688322 1.4058254 2.901906
-4.4667244 1.3813453 2.8980107
-4.5476804 1.3744723 2.8970878
-4.64431 1.3783311 2.89856
-4.6714959 1.3826677 2.8996682
-4.705349 1.3907216 2.9016142
-4.9116297 1.3990467 2.9047759
-4.9440947 1.3919179 2.9034727
-4.9863758 1.3879498 2.9029098
-5.0640292 1.3873202 2.9032969
-5.1040125 1.3873832 2.9035788
-5.1858931 1.3641956 2.8991802
-5.2558656 1.3615266 2.8990805
-5.3357601 1.3468519 2.8964853
-5.4556165 1.3272333 2.8931036
-5.4956098 1.3270757 2.8933384
-5.5352988 1.3267719 2.8935401
-5.5755806 1.3243672 2.8932974
-5.6155734 1.3242096 2.8935323
-5.6552577 1.3217142 2.8932664
-5.6959167 1.3183218 2.8928154
-5.7759147 1.3205316 2.8938241
-5.8152533 1.326134 2.8952839
-5.8959494 1.332219 2.8971243
-5.9753141 1.3449067 2.9003649
-6.075407 1.3686004 2.9060934
-6.1555676 1.4066924 2.9147606
-6.2157593 1.4040289 2.9145966
-6.3354521 1.3871452 2.911797
-6.4560871 1.3811783 2.9113338
-6.4967132 1.3706094 2.9093511
-6.5754867 1.3654398 2.908777
-6.6009655 1.3593186 2.9076419
-6.6291051 1.3511704 2.9060919
-6.8277845 1.366886 2.9107797
-6.8859196 1.3586694 2.9094167
-7.0162601 1.3538252 2.9092581
-7.0968108 1.3465681 2.9082503
-7.1365752 1.3440068 2.9079709
-7.1764865 1.3448496 2.9084187
-7.2965469 1.3433763 2.9089105
-7.4157462 1.3383248 2.9086328
-7.4753451 1.3346826 2.9082558
-7.4976315 1.3345391 2.9083748
-7.7247572 1.3948238 2.922765
-7.7544475 1.3987354 2.923799
-7.776639 1.4026706 2.924788
-7.8466282 1.4024493 2.9252107
-8.0120106 1.355625 2.9163287
-8.0403986 1.3563907 2.9166827
-8.1078873 1.3561254 2.9170794
-8.1203842 1.3560764 2.9171529
-8.3544827 1.4361289 2.9358084
-8.3944378 1.4365032 2.9361565
-8.7620983 1.3915424 2.9290307
-8.8353968 1.374802 2.9259503
-8.9943724 1.3933111 2.9309678
-9.1152859 1.3641307 2.9255524
-9.1944065 1.3662437 2.9265347
-9.235281 1.3660519 2.9267683
-9.3301725 1.3513221 2.924262
-9.4092979 1.3512051 2.9247684
-9.4676485 1.3507817 2.9250698
-9.5957317 1.3723831 2.9305398
-9.6528606 1.3883395 2.9343286
-9.7143908 1.3765645 2.9322288
-10.062539 1.3620729 2.9314742
-10.164058 1.3728802 2.9344621
-10.171427 1.3743502 2.9348254
-10.211289 1.3756969 2.9353805
-10.275167 1.3755875 2.935786
-10.423562 1.4181795 2.9458718
-10.506737 1.4098755 2.9446583
-10.524553 1.4082955 2.9444406
-10.581122 1.3515459 2.9327099
-10.648369 1.3011059 2.9223974
-10.780966 1.2584403 2.9141827
-10.821205 1.242354 2.91102
-10.821802 1.2319403 2.9088018
-10.812584 1.1514851 2.8915703
-10.812574 1.0847625 2.8773313
-10.812374 1.0536487 2.8706901
-10.813466 0.99219191 2.8575823
-11.009497 0.61011678 2.7773623
-11.012688 0.60211599 2.7756763
-11.051872 0.51816559 2.758024
-11.053225 0.49739611 2.7536008
-10.983608 0.43940949 2.7407587
-10.825803 0.15596664 2.6792111
-10.816646 0.062069044 2.6591115
-10.812645 0.05309917 2.6571705
-10.850796 -0.3001357 2.5820448
-10.850491 -0.34800002 2.5718284
-10.851146 -0.35600278 2.5701249
-10.77054 -0.77118349 2.4809823
-10.648767 -0.99645829 2.4320898
-10.57352 -1.097849 2.4099474
-10.572803 -1.099419 2.4096074
-10.172461 -1.1624597 2.393466
-10.092962 -1.1964726 2.3856738
-10.053045 -1.1843488 2.3879929
-9.9731359 -1.1720675 2.3900771
-9.9531431 -1.1695939 2.390471
-9.9132261 -1.1574701 2.3927901
-9.8932877 -1.1502132 2.3942049
-9.8319902 -1.1315764 2.3977704
-9.67272 -1.1317691 2.3966599
-9.632041 -1.1283952 2.3971066
-9.5927639 -1.1266673 2.3972116
-9.4727087 -1.1381606 2.3939528
-9.3526688 -1.1472605 2.3912046
-9.2726364 -1.154125 2.3892024
-9.1127262 -1.1439215 2.390306
-8.9892168 -1.1983786 2.3778553
-8.9688931 -1.1942984 2.3785896
-8.8327751 -1.1428181 2.3886616
-8.7128277 -1.1375588 2.3889785
-8.5928631 -1.1346927 2.3887846
-8.4589376 -1.139704 2.3868158
-8.4319754 -1.1460979 2.3852704
-8.3928375 -1.1434774 2.3855667
-8.3514729 -1.1368871 2.3866954
-8.2722178 -1.1326085 2.3870761
-8.1929188 -1.1355096 2.3859246
-8.112978 -1.1280146 2.3869872
-8.0329771 -1.1300927 2.3860066
-7.9523659 -1.1169881 2.3882618
-7.8710384 -1.1054538 2.3901772
-7.7523551 -1.1233796 2.3855548
-7.5724726 -1.1208569 2.3848853
-7.4723582 -1.1294559 2.3823779
-7.2924194 -1.1855098 2.3692074
-7.2113867 -1.1904761 2.3676035
-7.1081147 -1.2036376 2.3641014
-6.8254247 -1.2408524 2.3542612
-6.7535925 -1.2485626 2.3521335
-6.6745563 -1.2705861 2.3469028
-6.650188 -1.279425 2.3448529
-6.292592 -1.1327175 2.3737597
-6.2125611 -1.1395919 2.3717554
-6.0913525 -1.1241566 2.3742354
-5.9726477 -1.1314942 2.3718724
-5.8913503 -1.1152134 2.3748007
-5.7707162 -1.1067671 2.3757932
-5.7307076 -1.1090077 2.3750465
-5.6520181 -1.1270702 2.3706634
-5.4907351 -1.1104835 2.3731201
-5.5300574 -1.1050426 2.3745451
-5.6087322 -1.0893735 2.3784175
-5.6480546 -1.0839325 2.3798425
-5.7287116 -1.0898322 2.3791251
-5.8093681 -1.0957321 2.3784077
-5.8886685 -1.0928373 2.3795578
-6.2354827 -0.73276842 2.4587271
-6.2375655 -0.68649578 2.4686158
-6.235961 -0.65617883 2.4750748
-6.1928749 -0.52515745 2.5027461
-6.1937695 -0.49485013 2.5092196
-6.28721 -0.34202483 2.5424609
-6.3290472 -0.33419988 2.5444117
-6.339045 -0.33423814 2.5444705
-6.39814 -0.36477479 2.5383508
-6.4328947 -0.40320334 2.5303833
-6.6508722 -0.4957734 2.5120921
-6.6906972 -0.50160897 2.5111144
-6.7433114 -0.50330734 2.5111051
-7.0497537 -0.42951676 2.5289102
-7.0925336 -0.40273115 2.5349135
-7.1322064 -0.38353142 2.5392773
-7.1708584 -0.3724964 2.5418918
-7.2509041 -0.36322853 2.5444071
-7.4102211 -0.35585281 2.547051
-7.4702168 -0.3577877 2.5470409
-7.5301847 -0.35870495 2.5472479
-7.570178 -0.3588579 2.5474837
-7.7108607 -0.36194983 2.5477686
-7.7515397 -0.36532375 2.5473218
-7.9121218 -0.38113669 2.5450256
-7.9914675 -0.37105605 2.5477095
-8.0308046 -0.36321089 2.5496478
-8.0714378 -0.37376454 2.5476685
-8.269969 -0.37769291 2.5481634
-8.3102493 -0.38135168 2.547653
-8.3920383 -0.3830283 2.5478444
-8.4300232 -0.37932375 2.5488901
-8.5106745 -0.37228212 2.5509343
-8.591301 -0.38299337 2.54919
-8.6255636 -0.38709465 2.5485449
-8.6718664 -0.40327749 2.5454023
-8.6850195 -0.41132954 2.5437722
-9.1129932 -0.4377695 2.5410037
-9.1658354 -0.38293234 2.553061
-9.2748871 -0.35867676 2.5589695
-9.3151531 -0.40602139 2.5491364
-9.8264189 -0.44612059 2.5440123
-9.8867302 -0.28518823 2.5787609
-9.831439 -0.00010220706 2.6392281
-9.6728592 0.11507991 2.6627438
-9.6754007 0.11456989 2.662652
-9.9119549 0.14875573 2.6715357
-10.33214 0.16127257 2.6770284
-10.450897 0.46620446 2.7428997
-10.450424 0.47937807 2.745708
-10.61281 0.72650588 2.7995365
-10.612854 0.84937894 2.8257585
-10.535009 1.1097175 2.8807931
-10.255262 1.257586 2.9104702
-10.135561 1.3011218 2.9189572
-10.052887 1.3453572 2.9278421
-9.7585392 1.3074672 2.9177797
-9.6767721 1.2298708 2.9006712
-9.5195913 1.2728133 2.9087799
-9.3989725 1.2837129 2.910296
-9.3196716 1.2807776 2.909137
-9.2389698 1.279556 2.9083343
-9.1589985 1.2822632 2.908375
-9.1196918 1.2791706 2.9074512
-9.0396757 1.2746994 2.9059596
-8.9996824 1.2748566 2.9057248
-8.8797045 1.2753282 2.9050195
-8.7096262 1.2592465 2.9004457
-8.678915 1.2578284 2.8999369
-8.5590429 1.2750494 2.902807
-8.4790115 1.2681855 2.9008048
-8.399087 1.2780709 2.9023776
-8.3533783 1.2767117 2.9017806
-8.2791233 1.2809352 2.9021833
-8.2302437 1.2852284 2.9027712
-8.158412 1.2774781 2.900635
-8.0785027 1.2897564 2.9027185
-8.0385399 1.2946991 2.9035051
-7.959271 1.2965494 2.9033675
-7.799253 1.2899995 2.9008954
-7.7592597 1.2901568 2.9006603
-7.7185502 1.2887781 2.9000926
-7.6392198 1.2810571 2.8979123
-7.5791779 1.2708622 2.8953335
-7.4584517 1.2649786 2.8932672
-7.4341879 1.2690406 2.8939712
-7.3792129 1.2716504 2.8941588
-7.2960362 1.2778352 2.8949203
-7.2182016 1.282392 2.89537
-7.1793242 1.2844046 2.8955386
-7.0592232 1.2657318 2.8907471
-7.0193429 1.2696756 2.8913209
-6.937964 1.2869967 2.8944709
-6.859396 1.288059 2.89417
-6.8193879 1.2858235 2.8934243
-6.6994085 1.2862962 2.8927195
-6.6188283 1.3041872 2.8959963
-6.4988341 1.3022668 2.8947809
-6.3864608 1.3194628 2.897696
-6.3383136 1.3276526 2.8991203
-6.2178946 1.3215863 2.8970172
-6.1388669 1.2988991 2.891645
-6.0578661 1.30999 2.8934679
-6.0178728 1.3100811 2.8932188
-5.9778681 1.3077801 2.8924592
-5.9382157 1.3029035 2.8911521
-5.8188314 1.2858008 2.8867006
-5.7381744 1.2917256 2.8874235
-5.658844 1.2840382 2.8852501
-5.5788736 1.2867466 2.8852911
-5.418932 1.2921635 2.8853731
-5.1189117 1.2497172 2.8743002
-5.1106853 1.2478902 2.8738551
-5.0881891 1.2479415 2.8737149
-4.828042 1.2933283 2.8816538
-4.5866222 1.0227211 2.822284
-4.1212645 0.8982898 2.7926049
-4.0686946 0.8670944 2.7855947
-4.0586777 0.85989869 2.7839918
-4.0301051 0.84985316 2.7816563
-3.947494 0.83421826 2.7777648
-3.9078505 0.82686913 2.7759304
-3.8686669 0.82848692 2.7760124
-3.7487814 0.84983778 2.7797637
-3.6299427 0.83447027 2.7756863
-3.5899882 0.84398055 2.7774475
-3.1788139 0.45158702 2.690948
-3.1908417 0.41581357 2.6833947
-3.5921209 0.13919601 2.6270578
-3.6322432 0.13819137 2.6271129
-3.7511468 0.16343133 2.6332977
-3.9501317 0.21980426 2.6466639
-4.0300379 0.20317645 2.6436522
-4.0948362 0.15548748 2.6339102
-4.0983033 0.10889053 2.6239896
-4.0705357 0.032442883 2.6074889
-4.0562305 -0.090590656 2.5811369
-4.0311699 -0.1686089 2.5643191
-3.9908388 -0.20528844 2.5562208
-3.7503822 -0.24061573 2.5470672
-3.6306725 -0.29165581 2.5353711
-3.3508871 -0.43996766 2.5018418
-3.2328715 -0.57255721 2.4727542
-3.3921702 -0.99949312 2.3827138
-3.6325643 -1.0201396 2.3799222
-3.7935889 -1.0331299 2.3782313
-3.872457 -1.0222623 2.3810802
-4.1145563 -1.0435553 2.3781617
-4.1545401 -1.0435112 2.3784397
-4.3944416 -1.0432459 2.3801072
-4.4733005 -1.0347663 2.3824463
-4.6343079 -1.0525327 2.3797359
-4.7942333 -1.0547439 2.3803382
-5.0330358 -1.0436994 2.3842986
-5.073019 -1.0436553 2.3845766
-5.1141109 -1.0520021 2.3830712
-5.2088618 -1.0782707 2.3781016
-5.3287964 -1.0859097 2.3772769
-1.2842908 -0.2600677 2.526356
-1.6454606 -0.58249187 2.4599745
-1.8146162 -1.0278485 2.3660693
-1.8921199 -1.0484542 2.3621926
-1.9724126 -1.060388 2.3601849
-2.1309001 -1.0352789 2.3666077
-2.1708968 -1.0304245 2.3679121
-2.2519739 -1.0454534 2.3652494
-2.5287845 -0.95740473 2.3858981
-2.5933928 -0.91143942 2.3961411
-2.7646532 -0.9195739 2.3955553
-2.871763 -0.91683292 2.3968594
-3.1041038 -0.71976388 2.440475
-3.1182649 -0.57530653 2.4713979
-3.1137526 -0.53972566 2.4789608
-3.1130602 -0.53448129 2.4800751
-3.1542959 -0.3475894 2.5202355
-3.1443713 -0.26960981 2.5368102
-3.1543934 -0.26243466 2.5384088
-3.2689388 0.077304319 2.6116796
-3.2669697 0.082794353 2.612838
-3.1511831 0.25708082 2.6492541
-3.1507659 0.26247361 2.6504021
-3.15095 0.32469922 2.6636825
-2.8637865 0.5956459 2.7195754
-2.8387058 0.65771705 2.7326531
-2.8645151 0.69555795 2.7409019
-2.801084 1.1377542 2.8348427
-2.7205758 1.181802 2.8437021
-2.6414101 1.2074692 2.8486478
-2.5780644 1.2182007 2.8505127
-2.2473283 1.3118387 2.8682745
-1.9428806 1.0640306 2.8133469
-1.972065 0.85661316 2.769279
-2.0081201 0.78858542 2.7550037
-2.0819535 0.64392132 2.7246275
-2.0822151 0.63474178 2.7226703
-2.0828655 0.5617305 2.7070937
-2.08319 0.54965836 2.7045197
-2.0828159 0.54497743 2.7035184
-2.0458307 0.41132686 2.6747482
-1.428647 -0.78112495 2.4161296
-1.0077381 -1.0993843 2.3453851
-0.96780872 -1.0803039 2.3491888
-0.81154823 -1.074192 2.3494439
-0.75657129 -1.0742847 2.3490548
-0.6879487 -1.0735956 2.3487411
-0.60797548 -1.0761242 2.3476646
-0.41152954 -1.0740832 2.346781
-0.33041191 -1.0734153 2.3463788
0.07242775 -0.71364343 2.4204507
0.073153019 -0.68594277 2.4263573
-0.041637421 -0.31784365 2.505682
-0.091609478 -0.27686316 2.5147629
-0.074026108 -0.25391188 2.5195427
0.12846518 0.077173114 2.5888379
0.11517715 0.15858534 2.6063008
0.10235548 0.19206847 2.6135325
0.086215019 0.26554447 2.6293209
0.1319499 0.32644221 2.6420097
0.17309475 0.33711511 2.644011
0.21307516 0.33722535 2.6437662
0.2530551 0.33733565 2.6435211
0.33175468 0.33894855 2.6433368
0.49505281 0.38542351 2.6521583
0.64636755 0.35480183 2.6446073
0.65248442 0.35328299 2.6442423
0.6089015 0.21239237 2.6144681
0.60522318 0.056506008 2.5812261
0.59316444 0.018579841 2.5732133
0.595294 -0.1299496 2.5415022
0.61376143 -0.22697735 2.5206721
0.59740734 -0.31205484 2.5026262
0.57315111 -0.58042419 2.4455178
0.55703115 -0.69361067 2.4214716
0.55594492 -0.72246957 2.4153202
0.55390835 -0.73796904 2.4120262
0.56210756 -1.0256224 2.3505847
0.56045246 -1.0382158 2.3479083
0.51510477 -1.0843948 2.3383579
0.39465952 -1.0836378 2.3393283
0.35467482 -1.083853 2.339551
0.2771883 -1.0653934 2.3440106
0.11512041 -1.0721679 2.3436532
0.074401855 -1.0882655 2.3404913
-0.0046696663 -1.0895886 2.34074
-0.32971048 -1.1172935 2.3370104
-0.37082529 -1.1252092 2.335597
-0.41080809 -1.1251417 2.33588
-0.52824402 -1.1462708 2.3321595
-0.60773849 -1.1598965 2.3297856
-0.70876694 -1.1892525 2.3241992
-0.80867004 -1.2082318 2.3208199
-0.86619997 -1.1889868 2.3253131
-1.0075755 -1.1568282 2.3331254
-1.495502 -1.1377032 2.3404832
-1.5354853 -1.1376358 2.340766
-1.5754681 -1.1375684 2.341049
-1.6154513 -1.1375008 2.3413317
-1.7553306 -1.1588061 2.3377244
-1.773005 -1.1619537 2.3371713
-1.9318056 -1.1537005 2.339999
-2.1700604 -1.1221727 2.3483272
-2.2100434 -1.1221051 2.3486099
-2.3341424 -1.0828265 2.3578255
-2.4940608 -1.0873436 2.3579354
-2.5801969 -1.0808226 2.3599055
-2.6147578 -1.0777699 2.3607891
-2.6951413 -1.0830221 2.360208
-2.7995729 -1.0666384 2.3644056
-2.8784499 -1.0533829 2.367764
-3.0405383 -1.0867044 2.3617415
-3.1993475 -1.0829126 2.3636169
-3.4005435 -1.1807231 2.344095
-3.4405272 -1.1806788 2.3443727
-3.5205636 -1.1811148 2.3448172
-3.5400016 -1.1768972 2.3458478
-3.5600541 -1.1601588 2.3495545
-3.8401923 -1.0905961 2.3662806
-4.1600523 -1.0926306 2.3679943
-4.3588533 -1.0864064 2.3706577
-4.4810019 -1.107832 2.3669055
-4.5209856 -1.1077877 2.3671834
-4.6009617 -1.1053113 2.3682489
-4.8008881 -1.1027023 2.3701482
-4.8397465 -1.099043 2.3711901
-5.052063 -1.1343501 2.3650811
-5.1707311 -1.1188339 2.3691893
-5.2514176 -1.119947 2.3694935
-5.3320742 -1.1258469 2.3687761
0.64788389 1.4126025 2.8703365
0 0 0 1 0 0 0 1 0 0 0 1 0 0 0 0 0 523 1 0 0
