ply
format ascii 1.0
comment Generated by the CGAL library
element vertex 839
property double x
property double y
property double z
property double nx
property double ny
property double nz
end_header
-2.02803 -1.42815 0.19447 -0.385411 0.916634 -0.106021
-1.84693 -1.43061 0.199874 0.297573 -0.920307 -0.25394
-1.90316 -1.4269 0.266626 -0.0197638 -0.914619 0.403833
-1.93859 -1.43067 0.194953 -0.0833974 0.967136 -0.240192
-1.92088 -1.43003 0.230812 -0.117976 0.924366 -0.362806
-1.93006 -1.42915 0.279953 -0.197718 0.979875 0.0274499
-1.86729 -1.40973 0.248604 -0.0833974 0.967136 -0.240192
-1.93881 -1.43237 0.239713 0.0408059 0.948665 0.313639
-1.8529 -1.38921 0.277382 -0.153079 0.938495 -0.309507
-1.91437 -1.4293 0.272206 -0.229759 0.973101 0.0168651
-1.67069 -1.40163 0.285205 0.112339 0.981353 0.155967
-1.79513 -1.43197 0.124113 -0.0941281 0.988295 -0.120054
-1.7597 -1.39821 0.19525 -0.08057 0.996659 0.013386
-1.77698 -1.42544 0.0704104 -0.180029 0.962414 0.203343
-1.67026 -1.40822 0.195867 -0.0601552 0.99661 0.0561162
-1.82492 -1.38932 0.271929 0.162895 0.953133 -0.254955
-1.99326 -1.40699 0.400017 -0.0320241 0.993161 0.112271
-1.97063 -1.42799 0.344592 -0.398647 0.915322 -0.0571549
-1.90337 -1.3986 0.31085 -0.320442 0.929177 -0.184247
-1.84105 -1.38758 0.369105 -0.119615 0.991952 0.0415069
-1.93945 -1.38998 0.373139 0.162895 0.953133 -0.254955
-1.89009 -1.38813 0.337565 -0.320442 0.929177 -0.184247
-1.88809 -1.38725 0.38676 -0.119615 0.991952 0.0415069
-1.90359 -1.38531 0.355339 0.0781105 0.986545 -0.143622
-1.99591 -1.42547 0.485319 0.000271517 0.999841 -0.0178532
-2.06051 -1.42638 0.433581 -0.286724 0.942995 0.168966
-1.97554 -1.39386 0.435653 -0.235906 0.961151 0.143311
-2.04728 -1.4257 0.471653 -0.235906 0.961151 0.143311
-1.85067 -1.3926 0.507809 0.00324343 0.995461 0.0951106
-1.90425 -1.39291 0.48966 -0.0818194 0.981582 0.172635
-1.8686 -1.39494 0.516707 -0.140185 0.989473 -0.035927
-1.88632 -1.39307 0.480804 0.0527939 0.996096 0.0707476
-1.83274 -1.39276 0.498953 0.0658093 0.95894 0.275867
-1.93968 -1.39168 0.417898 0.0456525 0.998211 0.0386018
-1.76943 -1.38783 0.356042 0.162895 0.953133 -0.254955
-1.82876 -1.38754 0.371402 -0.286724 0.942995 0.168966
-1.74286 -1.39688 0.410008 -0.00765127 0.986783 0.161867
-1.72471 -1.38534 0.356216 -0.14828 0.987373 0.0557477
-1.77872 -1.39655 0.427718 0.0527939 0.996096 0.0707476
-1.79599 -1.37629 0.302031 -0.119615 0.991952 0.0415069
-1.76123 -1.39762 0.508336 -0.0818194 0.981582 0.172635
-1.8241 -1.34819 0.334938 -0.119615 0.991952 0.0415069
-1.70744 -1.40061 0.481815 0.0658093 0.95894 0.275867
-1.77894 -1.39575 0.472433 -0.145721 0.967921 0.204681
-1.61712 -1.41631 0.303622 0.150701 0.977875 0.145086
-1.60648 -1.38682 0.41497 0.0658093 0.95894 0.275867
-1.68009 -1.38745 0.378837 0.0395754 0.992418 -0.116364
-2.53057 -1.42449 0.531884 -0.0322816 0.988466 0.147959
-2.29834 -1.45091 0.596114 0.142079 0.954424 -0.262466
-2.36963 -1.46436 0.54233 -0.137907 0.979415 0.147403
-2.29812 -1.46421 0.551624 -0.0736297 0.994216 -0.078188
-2.34272 -1.42461 0.528334 -0.165851 0.969829 0.178678
-2.33862 -1.42325 0.604369 -0.0109495 0.992792 0.119349
-2.241 -1.46458 0.531782 0.0600433 0.997974 -0.0210427
-2.16086 -1.46332 0.603719 0.0964804 0.954026 -0.28377
-2.10152 -1.46361 0.58836 0.297343 0.925751 -0.233606
-2.10174 -1.46531 0.633118 0.297343 0.925751 -0.233606
-2.19073 -1.4194 0.542404 0.218582 0.962604 -0.160052
-2.26246 -1.41374 0.577735 0.0193143 0.918545 0.394845
-2.28061 -1.39029 0.630902 -0.00164872 0.928605 0.371066
-2.2266 -1.41657 0.560069 0.218582 0.962604 -0.160052
-2.22705 -1.45247 0.650166 -0.00164872 0.928605 0.371066
-1.95829 -1.47161 0.562367 0.122679 0.979586 0.15925
-2.0076 -1.46366 0.586584 0.080979 0.996619 -0.0138898
-1.96255 -1.46487 0.519733 -0.259131 -0.925337 -0.27677
-1.976 -1.47225 0.526508 -0.167 0.919479 0.355906
-2.01187 -1.47442 0.544263 0.080979 0.996619 -0.0138898
-1.94057 -1.44848 0.597824 -0.259131 -0.925337 -0.27677
-1.89574 -1.46388 0.575954 0.307699 0.934809 -0.177352
-1.90471 -1.4813 0.580694 0.080979 0.996619 -0.0138898
-1.9047 -1.44631 0.580069 0.0578203 0.964782 -0.256617
-1.99082 -1.42367 0.585953 -0.167 0.919479 0.355906
-1.83872 -1.42386 0.577754 0.186914 0.970343 -0.15329
-1.90469 -1.40631 0.579355 -0.176354 0.953312 0.245145
-1.8334 -1.38787 0.63305 0.0471288 0.959858 -0.276499
-1.88654 -1.40477 0.525742 -0.0122198 0.923684 0.382961
-2.03488 -1.46202 0.678116 0.0142117 0.999845 0.0103768
-2.02149 -1.46194 0.682653 -0.173332 0.964287 0.200266
-2.00675 -1.42263 0.644004 -0.312123 -0.90297 -0.295338
-1.95871 -1.39503 0.650455 0.0578203 0.964782 -0.256617
-1.89959 -1.38202 0.679587 0.0367916 0.953816 -0.298131
-1.86594 -1.38242 0.657394 -0.0017602 0.946372 -0.323073
-1.76478 -1.42443 0.546817 0.271918 0.962125 -0.0193772
-1.81546 -1.39053 0.624239 -0.140185 0.989473 -0.035927
-1.72559 -1.39465 0.535294 0.0665288 0.992892 0.0986874
-1.7796 -1.39336 0.606573 0.0395754 0.992418 -0.116364
-1.77939 -1.42665 0.562441 0.0750004 0.968383 -0.237927
-1.79732 -1.42899 0.571339 0.135809 0.934543 0.328916
-1.75473 -1.42438 0.550219 0.125523 0.908667 0.398207
-1.74396 -1.39788 0.633667 0.124088 0.96983 -0.209839
-1.63614 -1.39466 0.535733 0.217998 0.970447 0.103485
-1.6543 -1.3962 0.589346 -0.0756112 0.952576 -0.294758
-1.67201 -1.40433 0.553622 0.0217203 0.994912 -0.0983831
-1.70787 -1.40151 0.571287 0.0217203 0.994912 -0.0983831
-1.78004 -1.38676 0.695911 0.0395754 0.992418 -0.116364
-1.75784 -1.38117 0.729467 0.0217203 0.994912 -0.0983831
-1.80021 -1.38158 0.705785 0.144843 0.988514 0.0431361
-1.69082 -1.39598 0.741243 -0.0798086 0.97332 -0.215125
-1.63703 -1.41146 0.714945 -0.0509404 0.937882 0.343193
-1.69038 -1.39508 0.651771 0.124088 0.96983 -0.209839
-1.67267 -1.39194 0.687585 0.124088 0.96983 -0.209839
-1.16202 -1.42764 -1.30419 -0.0173324 0.999689 -0.0179368
-1.55696 -1.39247 -1.02049 0.0741636 0.995253 -0.0630227
-1.14606 -1.41062 -0.910802 0.03916 0.997225 -0.0633195
-1.5999 -1.37079 -0.927156 -0.0178926 0.995959 0.0880096
-1.27005 -1.42507 -1.16163 0.0250841 0.998093 -0.0564013
-1.34134 -1.42352 -1.21569 0.0356131 0.997969 -0.0528227
-1.30679 -1.40905 -0.965292 0.109588 0.987254 -0.115416
-1.46664 -1.41567 -1.19855 -0.0171493 0.998442 -0.053106
-1.56259 -1.41639 -1.24038 0.0178753 0.999682 -0.0177642
-1.35993 -1.40846 -1.07291 0.106231 0.990476 -0.0875909
-1.57511 -1.38401 -0.967054 -0.0591834 0.986004 -0.155863
-1.50294 -1.40375 -1.09159 0.0496724 0.996978 -0.0597349
-1.39535 -1.40973 -1.14463 0.0430833 0.985965 -0.161298
-1.21735 -1.41157 -0.964809 0.0251493 0.996947 -0.0739249
-1.57554 -1.36741 -0.877895 -0.0166101 0.987255 -0.158277
-1.50382 -1.39306 -0.912868 0.0496724 0.996978 -0.0597349
-1.30723 -1.40496 -0.875909 -0.0100945 0.998347 -0.0565878
-1.23375 -1.42699 -1.26877 0.0250841 0.998093 -0.0564013
-1.44893 -1.41004 -1.16278 0.220752 0.961588 0.163148
-1.53968 -1.37774 -0.895426 -0.0591834 0.986004 -0.155863
-1.00129 -1.42172 -1.24984 -0.0209023 0.999754 -0.0073925
-1.01988 -1.42166 -1.10679 -0.0209023 0.999754 -0.0073925
-0.948148 -1.42231 -1.14221 -0.0560294 0.998401 -0.00755481
-0.697536 -1.4205 -1.1768 0.00358258 0.999696 0.0243912
-0.807341 -1.4146 -1.12824 0.0105421 0.999204 0.0384676
-0.822403 -1.42175 -1.24896 -0.055945 0.998118 -0.0251305
-0.871715 -1.4163 -1.2247 0.000185223 1 -0.000249404
-0.838531 -1.41501 -1.15187 -0.0386179 0.998871 0.027677
-0.744825 -1.41427 -1.10893 -0.0314383 0.999446 -0.0109613
-0.750673 -1.4149 -1.28451 0.106219 0.993731 -0.0348721
-0.858267 -1.41892 -1.23129 0.102748 0.993822 -0.041955
-0.804691 -1.42361 -1.21305 0.0849729 0.996324 0.0109101
-0.883142 -1.4154 -1.17445 0.0356717 0.996884 -0.0703504
-0.805128 -1.41702 -1.12372 0.00358258 0.999696 0.0243912
-0.75155 -1.41421 -1.10561 0.0360595 0.991706 -0.123366
-0.894131 -1.4161 -1.21363 0.0289665 0.994314 -0.102471
-0.948586 -1.41821 -1.05283 0.03916 0.997225 -0.0633195
-0.98445 -1.41789 -1.03512 -0.0173324 0.999689 -0.0179368
-1.05618 -1.41974 -0.999657 0.028497 0.999088 -0.0317824
-1.09204 -1.41691 -0.981991 0.028497 0.999088 -0.0317824
-1.02031 -1.41506 -1.01746 0.028497 0.999088 -0.0317824
-0.841871 -1.421 -0.927018 -0.00678817 0.999874 -0.0143666
-0.859583 -1.41913 -0.962921 0.0250841 0.998093 -0.0564013
-0.698852 -1.4207 -0.90843 0.0249303 0.999463 -0.0212466
-0.788293 -1.42069 -0.908869 0.0247455 0.999597 0.0139432
-0.859143 -1.41573 -1.05244 0.0247455 0.999597 0.0139432
-0.733839 -1.42107 -1.06962 0.0456525 0.998211 0.0386018
-1.5587 -1.33359 -0.663717 -0.193169 0.968124 -0.159442
-1.3971 -1.38834 -0.787188 0.0922548 0.990874 -0.0982778
-1.53339 -1.3687 -0.809453 -0.252158 0.909158 -0.331433
-1.50469 -1.37737 -0.734237 0.123585 0.988484 -0.0873289
-1.57598 -1.38831 -0.788065 -0.252158 0.909158 -0.331433
-1.46883 -1.38519 -0.751813 0.0445162 0.896281 -0.441247
-1.41569 -1.37329 -0.644415 -0.0100945 0.998347 -0.0565878
-1.41482 -1.39148 -0.823002 0.13438 0.978921 -0.153802
-1.57642 -1.36422 -0.69904 0.0445162 0.896281 -0.441247
-1.52284 -1.37641 -0.680668 -0.0274509 0.995414 -0.0916409
-1.59369 -1.36395 -0.82437 0.0068754 0.997767 0.0664411
-1.45068 -1.37866 -0.805515 0.0536534 0.990932 -0.123183
-1.59413 -1.37485 -0.73472 -0.128306 0.935896 0.328079
-1.15322 -1.40896 -0.818054 0.0741636 0.995253 -0.0630227
-1.25365 -1.40965 -0.857671 0.0146909 0.995374 -0.094947
-1.36167 -1.37707 -0.715649 -0.0764356 0.987551 -0.137479
-1.27223 -1.37959 -0.715166 0.148848 0.97261 -0.178534
-1.34309 -1.40213 -0.858244 0.0390992 0.998186 -0.0457769
-1.25408 -1.39555 -0.768467 0.113226 0.991994 -0.0559302
-1.21866 -1.38178 -0.696973 0.189154 0.918334 -0.347682
-1.28951 -1.39932 -0.84014 0.0922548 0.990874 -0.0982778
-1.16508 -1.37647 -0.678914 0.156161 0.955052 -0.251969
-1.47172 -1.36528 -0.616877 -0.0313511 0.9991 -0.028555
-1.39797 -1.36265 -0.608735 -0.0100945 0.998347 -0.0565878
-1.54099 -1.36045 -0.627367 0.321678 0.916809 -0.236611
-1.53546 -1.36525 -0.616072 0.0536316 0.988624 -0.140519
-1.37363 -1.40427 -0.558671 0.220752 0.961588 0.163148
-1.36211 -1.38298 -0.626088 0.0251493 0.996947 -0.0739249
-1.18323 -1.38051 -0.625256 0.0149819 0.988904 -0.147802
-1.30853 -1.37767 -0.608029 -0.0942935 0.983308 -0.155609
-1.20182 -1.37545 -0.482304 0.152729 0.976136 -0.154377
-1.20138 -1.38955 -0.571508 0.141216 0.977442 -0.157051
-1.25539 -1.35576 -0.50081 -0.126519 0.991934 -0.00777002
-1.1478 -1.37924 -0.553538 0.0821703 0.984501 -0.154937
-1.14824 -1.38514 -0.463977 -0.158496 0.984903 0.0696139
-1.23768 -1.36263 -0.464817 0.238885 0.962533 0.128311
-1.27311 -1.3664 -0.53649 -0.126519 0.991934 -0.00777002
-1.2968 -1.40313 -0.493458 -0.253088 0.959891 -0.120645
-1.31894 -1.40392 -0.538281 0.0995718 0.969494 -0.22398
-0.932187 -1.41279 -0.748691 0.138438 0.973453 -0.182274
-1.09292 -1.41372 -0.803136 -0.0172435 0.99922 -0.0355324
-0.96805 -1.40746 -0.73107 0.194652 0.965186 -0.174721
-0.985763 -1.4081 -0.766928 0.03916 0.997225 -0.0633195
-1.11107 -1.40276 -0.749746 -0.0764356 0.987551 -0.137479
-1.12878 -1.40839 -0.785516 0.0536534 0.990932 -0.123183
-0.985327 -1.41719 -0.856222 0.0319811 0.999183 -0.0247264
-0.97204 -1.40922 -0.829462 0.03916 0.997225 -0.0633195
-1.07564 -1.37899 -0.678431 -0.038667 0.998229 0.045206
-0.914474 -1.40965 -0.712877 0.0705984 0.99689 -0.0350196
-0.771018 -1.41845 -0.783583 0.0571777 0.993472 -0.0987081
-0.87861 -1.41248 -0.730542 0.0705984 0.99689 -0.0350196
-0.789168 -1.41249 -0.730103 0.145269 0.971853 -0.185467
-0.806882 -1.41563 -0.765917 -0.0383019 0.998356 -0.0426436
-0.700166 -1.41341 -0.640193 0.192031 0.960783 -0.200049
-0.702608 -1.40923 -0.825905 -0.0139289 0.99988 0.00672031
-0.699727 -1.41501 -0.72962 0.0705984 0.99689 -0.0350196
-1.07383 -1.36491 -0.590333 -0.00312806 0.999091 -0.0425027
-1.05836 -1.38176 -0.553055 0.0821703 0.984501 -0.154937
-0.950773 -1.39773 -0.605918 0.03916 0.997225 -0.0633195
-0.933499 -1.3955 -0.480631 0.0995718 0.969494 -0.22398
-1.02293 -1.37049 -0.481516 -0.00312806 0.999091 -0.0425027
-1.04064 -1.35362 -0.517687 -0.164196 0.97909 -0.120092
-0.968923 -1.39177 -0.552438 0.0922625 0.994691 -0.0455785
-0.915778 -1.36737 -0.445264 0.240308 0.969515 -0.0478914
-1.09754 -1.36405 -0.542381 0.0705544 0.996088 0.0532015
-1.0225 -1.37708 -0.570855 0.301405 0.944306 0.132067
-0.926557 -1.40386 -0.528532 -0.00338646 0.999941 0.0102914
-0.80776 -1.41743 -0.586973 0.00375821 0.999935 -0.0107941
-0.861773 -1.40865 -0.515828 0.0922625 0.994691 -0.0455785
-0.901626 -1.40508 -0.5966 0.00375821 0.999935 -0.0107941
-0.736906 -1.40739 -0.443673 0.00375821 0.999935 -0.0107941
-0.772772 -1.41457 -0.425829 -0.0524751 0.998458 -0.018087
-0.868497 -1.40359 -0.512597 0.243642 0.969007 -0.040793
-0.897198 -1.40492 -0.587635 0.0705984 0.99689 -0.0350196
-0.86221 -1.39955 -0.426535 0.145269 0.971853 -0.185467
-0.546328 -1.41652 -1.23204 0.0527939 0.996096 0.0707476
-0.590382 -1.42238 -1.14046 -0.00678817 0.999874 -0.0143666
-0.536805 -1.42457 -1.12227 0.123297 0.992205 0.0180925
-0.661671 -1.41832 -1.19456 -0.0314383 0.999446 -0.0109613
-0.630234 -1.41631 -1.22128 -0.0170499 0.997356 -0.0706416
-0.524855 -1.41736 -1.27889 0.000615053 0.996116 -0.0880504
-0.47792 -1.41729 -1.27419 0.0564871 0.998348 -0.0105185
-0.536365 -1.41866 -1.21183 0.0140167 0.998866 0.0454937
-0.321184 -1.43812 -1.31778 -0.0560964 0.998375 0.0100167
-0.339332 -1.42466 -1.26443 0.0665839 0.996736 0.045655
-0.392907 -1.41747 -1.28271 0.151799 0.987618 0.0396045
-0.232623 -1.44994 -1.13822 0.0806125 0.992518 0.0917002
-0.428773 -1.42214 -1.26491 0.0951205 0.994224 0.0497019
-0.447364 -1.42708 -1.12178 0.0918705 0.995456 0.0250546
-0.410621 -1.4206 -1.31853 0.0806125 0.992518 0.0917002
-0.321621 -1.43402 -1.22839 0.151799 0.987618 0.0396045
-0.231743 -1.44313 -1.31725 0.0597131 0.997714 0.0316359
-0.502257 -1.4276 -0.871561 0.0705984 0.99689 -0.0350196
-0.484104 -1.42106 -0.925263 0.0249303 0.999463 -0.0212466
-0.519532 -1.42733 -0.996892 0.00367093 0.99997 0.00680724
-0.59126 -1.42668 -0.961471 0.0458869 0.998941 0.00349134
-0.501819 -1.4292 -0.960988 0.0458869 0.998941 0.00349134
-0.51997 -1.42574 -0.907464 -0.0277783 0.998849 -0.0390917
-0.23306 -1.44584 -1.04883 0.0671269 0.996857 -0.0420637
-0.340651 -1.43736 -0.995836 0.0987281 0.994344 0.0391576
-0.448241 -1.42639 -0.942884 0.0565715 0.998003 -0.0280932
-0.358364 -1.438 -1.03169 0.102479 0.994675 0.0109786
-0.269363 -1.44642 -0.94165 0.0531568 0.997195 -0.0526958
-0.322939 -1.44173 -0.959888 0.123297 0.992205 0.0180925
-0.376954 -1.43794 -0.888654 0.0671269 0.996857 -0.0420637
-0.000200064 -1.58964 -1.11669 -0.207917 0.978127 0.00620419
-0.00197189 -1.57632 -1.21087 0.037883 0.9789 0.200797
-0.0179077 -1.57028 -1.15291 0.000271517 0.999841 -0.0178532
-0.0356221 -1.57591 -1.18868 0.205481 -0.944481 0.256385
-0.0495094 -1.57419 -1.09261 0.250251 0.967815 -0.0266191
0.000242236 -1.57624 -1.20639 -0.0355434 -0.998746 0.0352571
0.0607632 -1.57679 -1.23627 0.0705544 0.996088 0.0532015
0.0179532 -1.5831 -1.17039 -0.116471 -0.993186 -0.00398512
0.0896839 -1.57625 -1.20595 -0.0275684 0.996864 -0.0741765
0.0542359 -1.58641 -1.14229 -0.261896 0.964424 0.0360018
0.0486102 -1.58168 -1.15357 0.10324 0.964942 0.241307
0.0541164 -1.57891 -1.14241 -0.261896 0.964424 0.0360018
0.0872232 -1.57544 -1.16013 -0.0884709 0.986146 0.140317
0.0722508 -1.582 -1.19596 -0.0781358 -0.935867 0.343582
0.0952192 -1.57606 -1.19474 0.165843 0.980214 -0.108056
0.142822 -1.57935 -1.09828 0.360481 0.932613 0.0169166
0.142824 -1.57185 -1.09842 0.250251 0.967815 -0.0266191
0.197136 -1.57633 -1.12401 -0.0781358 -0.935867 0.343582
0.137288 -1.57455 -1.10958 0.0560964 -0.998375 -0.0100167
-0.142743 -1.45405 -1.22716 0.0247455 0.999597 0.0139432
-0.0369983 -1.45433 -1.23426 -0.0441327 0.999023 -0.00242469
-0.138699 -1.45499 -1.1399 0.000185223 1 -0.000249404
-0.019291 -1.45096 -1.19846 0.0612825 0.998118 -0.00203697
-0.0547854 -1.45271 -1.27014 -0.00188989 0.999981 -0.00579282
-0.0537394 -1.44997 -1.13734 0.000271517 0.999841 -0.0178532
-0.143183 -1.45745 -1.13764 0.0247455 0.999597 0.0139432
0.0883139 -1.45512 -1.25165 0.0121448 0.999915 0.00481693
0.0162034 -1.44922 -1.12679 0.0438573 0.998844 -0.019676
0.142853 -1.46187 -1.10038 0.0562662 0.998112 0.0246112
0.0166304 -1.45568 -1.21614 0.0438573 0.998844 -0.019676
0.125142 -1.4575 -1.13633 0.00715511 0.999878 0.0138608
0.107429 -1.45564 -1.17223 0.0289665 0.994314 -0.102471
0.0720041 -1.45441 -1.24399 0.0178753 0.999682 -0.0177642
0.0538521 -1.45595 -1.19038 0.116471 0.993186 0.00398512
0.0715659 -1.45281 -1.15456 0.0737452 0.996972 0.0246691
0.036578 -1.45568 -1.31571 0.0247455 0.999597 0.0139432
0.195611 -1.46032 -1.21537 0.0158383 0.999037 -0.0409057
0.0538521 -1.45595 -1.19038 0.0247455 0.999597 0.0139432
0.101456 -1.45424 -1.09401 0.0285717 0.998372 -0.0493576
0.123888 -1.45838 -1.17989 -0.0264801 0.99945 -0.0199652
-0.0055007 -1.57161 -0.947067 0.165843 0.980214 -0.108056
-0.0424721 -1.57132 -0.931599 -0.0318938 -0.999466 0.0071316
-0.0010738 -1.57645 -0.938014 -0.192856 0.981086 0.0166237
0.0170795 -1.56991 -0.991716 0.0560964 -0.998375 -0.0100167
0.0672495 -1.57984 -1.0596 -0.396502 -0.918034 -0.00058822
0.187106 -1.57276 -1.00872 0.360481 0.932613 0.0169166
0.160535 -1.57871 -1.06242 0.440874 0.887066 -0.136911
0.181321 -1.57822 -1.07148 0.00187397 0.997611 -0.0690497
0.214883 -1.57546 -1.08817 0.0790828 0.995562 0.0510181
0.23271 -1.57958 -1.05225 0.244416 0.969423 -0.0219234
0.144845 -1.57357 -1.05476 0.211964 0.954615 -0.209238
0.0166379 -1.58081 -0.902066 -0.000271517 -0.999841 0.0178532
0.0706561 -1.5721 -0.973523 0.165843 0.980214 -0.108056
0.124233 -1.57179 -0.955374 0.0560964 -0.998375 -0.0100167
0.107011 -1.57483 -0.945471 0.220181 -0.959893 -0.173567
0.0939045 -1.57127 -0.926458 0.145174 0.982643 -0.115485
0.115924 -1.5769 -0.927512 0.0690982 0.99471 -0.0760156
0.138412 -1.57709 -0.960967 0.0368792 0.99783 0.0545474
0.1601 -1.56462 -0.973218 -0.0142117 -0.999845 -0.0103768
0.195524 -1.56835 -0.901412 0.000271517 0.999841 -0.0178532
0.128662 -1.57163 -0.94641 0.165843 0.980214 -0.108056
0.213678 -1.56181 -0.955114 -0.0318938 -0.999466 0.0071316
0.177814 -1.56148 -0.937404 0.0490007 -0.998738 0.0110398
0.231385 -1.58367 -0.918854 0.122149 -0.973343 0.194122
0.232562 -1.59062 -0.962617 0.0690982 0.99471 -0.0760156
0.216447 -1.57492 -0.90479 -0.126091 0.907662 -0.400313
0.232164 -1.56563 -0.963027 -0.33343 -0.929906 -0.15524
-0.197198 -1.45367 -1.06641 -0.0629682 0.997781 -0.0216412
-0.126346 -1.45112 -0.922974 0.0390992 0.998186 -0.0457769
-0.161333 -1.45149 -1.08416 0.0143028 0.999872 -0.00722078
-0.179485 -1.45303 -1.03055 0.00733118 0.999745 -0.0213388
-0.0191925 -1.4555 -0.886587 -0.0101861 0.999187 -0.0390187
-0.161772 -1.45239 -0.994691 0.0565715 0.998003 -0.0280932
0.0873515 -1.45574 -0.983277 -0.033532 0.999302 -0.0164686
0.105139 -1.45736 -0.947399 -0.0194257 0.999536 -0.0234611
0.213707 -1.45432 -0.957034 0.0143028 0.999872 -0.00722078
0.14094 -1.45459 -0.965197 -0.0264801 0.99945 -0.0199652
0.230371 -1.45315 -0.964873 0.135289 -0.988835 0.0624599
0.0339904 -1.45085 -1.09091 0.0899409 0.995946 0.00171243
0.122806 -1.45149 -0.911644 0.0158383 0.999037 -0.0409057
0.124703 -1.4584 -1.04685 0.0143028 0.999872 -0.00722078
0.17828 -1.46059 -1.02866 0.0282199 0.999381 0.0209892
0.195993 -1.45746 -0.992848 0.0143028 0.999872 -0.00722078
0.231834 -1.5246 -1.05315 0.005164 0.999944 -0.00928677
0.159691 -1.45304 -0.885755 0.00409515 0.996702 -0.0810465
0.160567 -1.45873 -1.06456 0.0632911 0.997771 0.0211277
0.0204326 -1.45231 -0.98709 0.000185223 1 -0.000249404
0.0517774 -1.45248 -1.05503 0.0612825 0.998118 -0.00203697
0.140553 -1.45062 -0.875807 -0.0405079 0.998712 -0.0305678
0.052975 -1.45525 -1.01148 0.0632911 0.997771 0.0211277
-0.53812 -1.42227 -0.85394 0.0634879 0.99637 0.0567102
-0.627561 -1.41976 -0.854423 0.0705984 0.99689 -0.0350196
-0.65894 -1.40948 -0.839105 0.0705984 0.99689 -0.0350196
-0.485419 -1.41627 -0.656981 0.0531568 0.997195 -0.0526958
-0.610287 -1.42003 -0.729092 0.0635904 0.997477 -0.0315591
-0.395543 -1.43288 -0.745702 0.0213596 0.999715 -0.0107055
-0.377829 -1.42725 -0.709933 0.0532019 0.996113 -0.0702101
-0.306538 -1.4263 -0.655926 0.0430695 0.994843 -0.0918294
-0.430968 -1.43165 -0.817464 0.0461325 0.997721 -0.0492394
-0.558023 -1.40993 -0.442751 0.130834 0.978284 -0.160757
-0.522162 -1.42025 -0.460282 -0.242439 0.967158 0.0763467
-0.449995 -1.4225 -0.58513 0.0738744 0.997242 0.00713302
-0.557586 -1.41402 -0.532134 0.0213596 0.999715 -0.0107055
-0.593449 -1.4112 -0.514468 0.0388443 0.999221 0.00697465
-0.457591 -1.40175 -0.403267 0.178987 0.977274 0.113573
-0.450434 -1.4234 -0.495658 -0.0412115 0.987079 -0.154846
-0.521721 -1.41435 -0.549844 -0.167979 0.965743 -0.197795
-0.647027 -1.41401 -0.532572 0.0705984 0.99689 -0.0350196
-0.557148 -1.41812 -0.621516 0.0531568 0.997195 -0.0526958
-0.629751 -1.40677 -0.407375 0.0746639 0.988257 -0.133316
-0.647461 -1.39491 -0.443457 -0.109207 0.993637 0.0275451
-0.253397 -1.4169 -0.548483 0.0634104 0.997981 0.00357413
-0.41943 -1.40229 -0.433262 0.109332 0.993688 0.0250966
-0.342841 -1.42688 -0.548743 0.0887796 0.992172 -0.087827
-0.288826 -1.42817 -0.620022 0.113217 0.990849 -0.0734855
-0.289263 -1.42157 -0.530684 0.0887796 0.992172 -0.087827
-0.372495 -1.40222 -0.428561 0.178987 0.977274 0.113573
-0.325564 -1.41465 -0.423636 -0.242439 0.967158 0.0763467
-0.414131 -1.42533 -0.602795 0.0601165 0.997445 -0.0386066
-0.0864693 -1.56987 -0.851328 0.0213596 0.999715 -0.0107055
-0.0709977 -1.56922 -0.814362 -0.00749813 -0.998374 0.0565033
0.0341345 -1.56938 -0.821672 0.109683 0.993578 -0.0277906
0.123358 -1.5661 -0.776564 0.0526857 0.997993 0.0351193
0.114501 -1.56891 -0.794449 0.0363592 -0.968205 -0.247503
0.17737 -1.57988 -0.84762 -0.295085 -0.939991 -0.171295
0.219427 -1.5733 -0.80864 0.0562078 0.958377 -0.279919
0.201728 -1.56901 -0.798493 0.148816 0.984672 -0.0909608
0.231588 -1.5702 -0.784043 -0.0159327 0.999738 -0.0164073
0.212799 -1.56611 -0.776126 0.0490007 -0.998738 0.0110398
0.230949 -1.57207 -0.829605 -0.112678 0.992902 0.0380635
0.213707 -1.57284 -0.775124 0.058092 0.997342 0.0439906
0.206074 -1.56855 -0.77276 0.077525 0.996771 -0.0209313
0.191764 -1.56937 -0.818663 -0.0343272 0.989406 -0.14106
0.105206 -1.56763 -0.722951 0.0747187 0.990439 -0.11596
0.105206 -1.56763 -0.722951 0.148816 0.984672 -0.0909608
0.206825 -1.56721 -0.697859 -0.182433 -0.981944 -0.0500513
0.213573 -1.57461 -0.730368 -0.0656639 0.986615 0.14926
0.231241 -1.56874 -0.694613 -0.372668 0.927459 -0.0306482
0.212362 -1.56202 -0.686743 0.0747187 0.990439 -0.11596
0.150595 -1.56601 -0.631063 -0.267731 -0.956632 -0.114781
0.176496 -1.56669 -0.668943 0.0307174 -0.987993 0.151413
-0.109071 -1.44889 -0.797688 0.000185223 1 -0.000249404
-0.0554943 -1.45108 -0.779494 0.0671736 0.99596 -0.0595881
-0.145371 -1.43947 -0.690684 0.0565715 0.998003 -0.0280932
-0.0917948 -1.44166 -0.672491 -0.0882498 0.995492 0.0347567
0.0153592 -1.44354 -0.636149 -0.0882498 0.995492 0.0347567
0.230107 -1.4439 -0.652982 -0.00312806 0.999091 -0.0425027
0.19468 -1.44767 -0.724655 0.0392086 0.995958 -0.0808144
0.211502 -1.44464 -0.732501 0.100461 0.989892 -0.10011
0.0875246 -1.45079 -0.760907 -0.00312806 0.999091 -0.0425027
0.211969 -1.4536 -0.821808 0.055043 0.994714 -0.0866908
0.069374 -1.44733 -0.707383 0.0145494 0.998094 -0.0599739
0.0335097 -1.447 -0.689673 -0.00670128 0.999466 -0.0319669
0.176048 -1.44888 -0.804134 -0.0474687 0.997874 -0.044649
0.154114 -1.4465 -0.660017 -0.00312806 0.999091 -0.0425027
0.140664 -1.44638 -0.653376 0.0250841 0.998093 -0.0564013
0.193795 -1.44801 -0.768297 0.0158383 0.999037 -0.0409057
0.158346 -1.56323 -0.615419 -0.0215963 -0.997752 0.063439
0.164987 -1.56549 -0.601928 0.0209524 0.998007 0.0595155
0.133469 -1.56471 -0.558485 0.201369 0.979396 0.0152807
0.229632 -1.57478 -0.561189 -0.366068 0.920791 -0.134675
-0.00366447 -1.42439 -0.403993 0.00358258 0.999696 0.0243912
-0.200259 -1.41999 -0.440818 0.0988975 0.994864 0.0215473
-0.217531 -1.40973 -0.566327 0.0536587 0.992944 -0.105745
-0.0572411 -1.4222 -0.422186 0.0250841 0.998093 -0.0564013
-0.199821 -1.42159 -0.530246 0.00409515 0.996702 -0.0810465
0.158377 -1.44575 -0.617517 -0.0383019 0.998356 -0.0426436
0.0857744 -1.4344 -0.403376 -0.0700568 0.997543 -0.000593191
0.157942 -1.43415 -0.528268 0.0642127 0.992696 -0.102132
0.122514 -1.44292 -0.599852 0.00409515 0.996702 -0.0810465
0.211488 -1.54882 -0.508066 0.0318938 0.999466 -0.0071316
-1.41745 -1.3969 -0.28617 -0.111767 0.988429 -0.102551
-1.48874 -1.39534 -0.340222 -0.0209023 0.999754 -0.0073925
-1.43516 -1.37253 -0.322475 -0.0209023 0.999754 -0.0073925
-1.38158 -1.38472 -0.304103 0.00375821 0.999935 -0.0107941
-1.59633 -1.39186 -0.287136 0.0149276 0.991337 -0.13049
-1.39973 -1.38126 -0.250579 -0.0561461 0.998042 0.0275679
-1.56003 -1.39879 -0.394185 0.321485 0.889919 -0.32356
-1.45287 -1.37567 -0.358289 -0.0209023 0.999754 -0.0073925
-1.47146 -1.38811 -0.215025 0.00375821 0.999935 -0.0107941
-1.54275 -1.38905 -0.269032 -0.0211199 0.998749 0.0453158
-1.46172 -1.36099 -0.376486 -0.0143881 0.995372 0.0950153
-1.56047 -1.39969 -0.304713 -0.198192 0.965523 0.168776
-1.31029 -1.38628 -0.250051 -0.0561461 0.998042 0.0275679
-1.328 -1.38691 -0.28591 -0.0211199 0.998749 0.0453158
-1.22084 -1.3688 -0.249925 -0.0806854 0.993939 -0.0746645
-1.34616 -1.38345 -0.232386 -0.0561461 0.998042 0.0275679
-1.57949 -1.38553 -0.0724675 0.284853 0.958532 -0.00869204
-1.50777 -1.39368 -0.107754 0.166842 0.966252 -0.19627
-1.5972 -1.36867 -0.108639 0.0387354 0.998948 0.0245455
-1.39397 -1.39533 -0.0579649 0.227074 0.931836 0.283054
-1.38246 -1.38653 -0.125159 -0.105507 0.99377 -0.0359102
-1.45419 -1.37838 -0.0898729 0.180506 0.974568 -0.132798
-1.49049 -1.37396 0.01722 -0.0636716 0.996765 0.0490477
-1.56178 -1.3824 -0.0366534 -0.117764 0.937739 -0.326767
-1.4925 -1.35474 -0.0267439 0.146544 0.948956 0.279297
-1.52389 -1.35445 -0.0112476 0.364798 0.894728 -0.257652
-1.52259 -1.35511 -0.048131 0.146544 0.948956 0.279297
-1.4358 -1.35361 0.0372527 0.210892 0.97602 0.0539411
-1.4369 -1.35365 0.0350115 0.146544 0.948956 0.279297
-1.38333 -1.37334 0.0535172 0.00263668 0.975651 0.219312
-1.37736 -1.39473 -0.0243473 -0.268384 0.956348 0.115625
-1.47278 -1.38082 0.0532125 -0.0108879 0.994724 0.102005
-1.26185 -1.35604 -0.0960388 -0.0796455 0.964903 -0.250237
-1.31117 -1.37808 -0.0712857 0.120154 0.989773 -0.0768928
-1.22172 -1.3681 -0.0710257 -0.0383019 0.998356 -0.0426436
-1.15 -1.38875 -0.106089 0.180506 0.974568 -0.132798
-1.22129 -1.3822 -0.16023 0.00375821 0.999935 -0.0107941
-1.34747 -1.36366 0.0356286 0.311655 0.891842 -0.327854
-1.31825 -1.39422 0.00500711 0.0800754 0.983574 0.161773
-1.29345 -1.35745 -0.0357841 0.00263668 0.975651 0.219312
-1.31363 -1.39476 -0.0251527 -0.211444 0.969702 0.122352
-1.15042 -1.33216 -0.0176433 -0.2415 0.94032 -0.239742
-1.20401 -1.36747 -0.0351671 0.14601 0.918473 0.367544
-1.22216 -1.35901 0.0182678 0.269357 0.909847 0.315636
-1.09598 -1.37004 -0.177725 -0.170272 0.934261 0.313311
-0.916218 -1.37077 -0.355747 0.311655 0.891842 -0.327854
-0.970669 -1.36039 -0.195175 0.126975 0.991855 -0.0100474
-1.00653 -1.36256 -0.17742 -0.0029512 0.996981 -0.0775841
-0.769886 -1.40035 -0.329901 0.0746639 0.988257 -0.133316
-0.82678 -1.38578 -0.355041 -0.222032 0.970627 -0.0926542
-0.862642 -1.37796 -0.337465 0.0632911 0.997771 0.0211277
-0.683765 -1.40049 -0.336186 -0.0375963 0.985553 -0.165141
-0.728377 -1.40088 -0.358762 -0.0491726 0.997922 0.041633
-0.755058 -1.41143 -0.390015 0.0434179 0.985766 -0.162417
-0.82722 -1.39169 -0.265479 -0.222032 0.970627 -0.0926542
-0.755492 -1.39234 -0.3009 0.107476 0.930376 -0.350498
-0.809069 -1.39265 -0.319048 -0.0491726 0.997922 0.041633
-1.0424 -1.38473 -0.159308 0.0451756 0.990949 0.126405
-1.09642 -1.38344 -0.0880295 -0.0029512 0.996981 -0.0775841
-1.07827 -1.3844 -0.141598 -0.133481 0.990962 0.0132967
-0.971116 -1.38878 -0.105212 0.110637 0.955482 -0.27352
-0.952965 -1.39225 -0.158736 0.126975 0.991855 -0.0100474
-0.935253 -1.39411 -0.122833 0.242402 0.968012 0.0647615
-1.06764 -1.39491 -0.0295359 0.0513996 0.902969 -0.426621
-1.04328 -1.38904 0.0196805 -0.0355198 0.995497 0.087882
-1.11457 -1.37248 -0.0346392 0.311655 0.891842 -0.327854
-1.00742 -1.39686 0.00210431 0.191375 0.978522 -0.0766186
-0.917975 -1.37938 0.00223042 -0.124565 0.934138 0.334469
-0.935683 -1.36252 -0.0339407 0.110637 0.955482 -0.27352
-0.863957 -1.37317 -0.0691823 -0.133481 0.990962 0.0132967
-0.875034 -1.39606 -0.0911923 -0.112678 0.992902 0.0380635
-0.756376 -1.41914 -0.121509 -0.000271517 -0.999841 0.0178532
-0.846694 -1.41593 0.0569072 0.246959 0.94626 -0.208816
-0.80411 -1.43381 0.0361889 0.246959 0.94626 -0.208816
-0.788179 -1.35477 -0.0177012 0.0513996 0.902969 -0.426621
-0.758365 -1.43348 0.055417 0.254115 0.964724 0.0687896
-0.783827 -1.4344 0.00387016 -0.124565 0.934138 0.334469
-1.40101 -1.22899 0.0150698 0.245002 -0.963691 0.106174
-1.16592 -1.31522 -0.0493321 -0.0433658 0.896159 -0.44161
-1.13935 -1.31427 0.00445593 0.0536753 -0.982833 -0.176516
-1.46447 -1.391 0.183149 0.00657443 0.990428 0.137873
-1.47815 -1.43008 0.235218 0.150701 0.977875 0.145086
-1.59809 -1.39297 0.0707072 -0.190987 0.948432 0.252984
-1.4192 -1.38551 0.0714504 -0.10219 0.993 0.0592213
-1.58081 -1.40074 0.196172 -0.120398 0.989719 0.077206
-1.50908 -1.38889 0.160529 -0.0108879 0.994724 0.102005
-1.45596 -1.44198 0.269087 0.122963 0.986701 0.106305
-1.49093 -1.38736 0.106915 -0.345321 0.938227 -0.0219735
-1.52724 -1.40793 0.214454 0.362037 0.923109 0.12961
-1.28836 -1.39315 0.0655186 0.326041 0.936535 0.128837
-1.30959 -1.39321 0.0620609 -0.0172435 0.99922 -0.0355324
-1.25847 -1.40208 0.126209 -0.359974 0.93161 -0.0502044
-1.31648 -1.39255 0.0989169 0.0282199 0.999381 0.0209892
-1.30532 -1.39245 0.104561 -0.0172435 0.99922 -0.0355324
-1.31205 -1.39989 0.108015 0.101166 0.983291 0.15134
-1.23606 -1.39228 0.114961 0.133961 0.988159 0.0748095
-1.3158 -1.35092 0.189871 0.000271517 0.999841 -0.0178532
-1.57048 -1.38765 0.369314 0.0252066 0.995496 -0.0913911
-1.54582 -1.38038 0.357004 0.0495431 0.998468 -0.0246225
-1.57251 -1.42842 0.326421 0.258355 0.950823 -0.170848
-1.50996 -1.3832 0.339339 0.0398151 0.978272 -0.203466
-1.5994 -1.39568 0.339123 0.299755 0.930982 -0.208374
-1.43867 -1.40225 0.393703 0.0560532 0.993877 0.0952191
-1.5104 -1.3966 0.429034 0.000357726 0.999371 -0.0354516
-1.58213 -1.39095 0.464365 -0.00765127 0.986783 0.161867
-1.54626 -1.39378 0.446699 0.000357726 0.999371 -0.0354516
-1.39439 -1.38567 0.483082 -0.133368 0.977556 -0.163087
-1.43911 -1.40066 0.483131 -0.308253 0.912726 0.268162
-1.36695 -1.4329 0.358819 0.0252066 0.995496 -0.0913911
-1.2983 -1.38544 0.496968 0.122963 0.986701 0.106305
-0.918418 -1.39778 0.0920149 0.158846 0.979723 -0.122112
-0.979617 -1.46982 0.257381 -0.227914 0.973084 0.0341131
-1.02446 -1.50941 0.280232 -0.227914 0.973084 0.0341131
-0.729592 -1.47244 0.114401 0.16077 0.934911 -0.316376
-0.900706 -1.39964 0.127918 0.000271517 0.999841 -0.0178532
-0.882992 -1.39651 0.163732 0.158846 0.979723 -0.122112
-0.70368 -1.43313 0.0758068 -0.0339266 0.972849 -0.228942
-0.811707 -1.41306 0.218052 0.204993 0.978678 -0.0129415
-0.717995 -1.38982 0.260589 0.0560578 0.989798 0.130983
-0.77584 -1.40589 0.200208 0.0655124 0.91422 -0.399887
-0.722259 -1.39058 0.218089 0.158846 0.979723 -0.122112
-0.722259 -1.39058 0.218089 0.0325457 0.990934 -0.130351
-1.01697 -1.54823 0.346938 -0.000271517 -0.999841 0.0178532
-0.991485 -1.47982 0.397279 -0.0923641 0.981276 0.169014
-0.919752 -1.46298 0.361547 -0.135016 0.975648 0.172861
-1.07758 -1.3872 0.401913 0.190442 0.970736 -0.146296
-1.06321 -1.45917 0.432343 -0.193733 0.977175 0.0871553
-1.00964 -1.49636 0.451161 0.199253 0.933706 0.297477
-0.956059 -1.47855 0.468997 -0.225486 0.969682 0.0941984
-0.973774 -1.48419 0.433227 -0.320919 0.947056 0.00974386
-0.991927 -1.49072 0.48693 -0.320919 0.947056 0.00974386
-1.04974 -1.38681 0.424407 -0.108141 0.987691 -0.113011
-1.09461 -1.34621 0.457009 -0.26963 -0.900001 0.342487
-0.813036 -1.46326 0.487316 -0.285823 0.940062 0.185979
-0.687722 -1.43361 0.469509 -0.211444 0.969702 0.122352
-0.83031 -1.46299 0.361985 0.0849729 0.996324 0.0109101
-0.723148 -1.43488 0.397792 -0.108141 0.987691 -0.113011
-0.828728 -1.46562 0.495109 -0.119557 0.991071 0.05902
-0.798634 -1.42525 0.515782 -0.211444 0.969702 0.122352
-0.70543 -1.41425 0.433293 0.010729 0.999937 0.00332219
-0.77673 -1.45269 0.379956 -0.106076 0.986752 0.122756
-0.740856 -1.41552 0.361576 0.115584 0.985126 0.127152
-0.777381 -1.42529 0.51365 -0.211444 0.969702 0.122352
-0.812598 -1.46486 0.397889 -0.309036 0.95096 0.0131264
-1.5626 -1.17424 0.138542 -0.303605 -0.949439 -0.0799343
-1.57034 -1.15202 0.122452 -0.177215 -0.908861 -0.377579
-1.49087 -1.17239 0.103077 -0.15571 -0.987783 0.00627253
-1.37312 -1.30975 0.253713 -0.200837 0.978336 -0.0502382
-1.55307 -1.14979 0.247738 -0.303605 -0.949439 -0.0799343
-1.18756 -1.16957 0.265537 0.0778096 -0.983875 -0.161044
-1.14923 -1.15072 0.201649 0.220407 -0.932671 0.285562
-1.3064 -1.30847 0.326701 0.1042 0.942316 0.318094
-0.97281 -1.16493 0.248615 0.220407 -0.932671 0.285562
-0.88293 -1.16904 0.159671 -0.0406696 -0.928967 -0.367922
-0.901093 -1.21058 0.213998 0.00505914 -0.937879 -0.346927
-0.865667 -1.20931 0.285716 -0.000271517 -0.999841 0.0178532
-0.88338 -1.20994 0.249857 0.00102704 -0.969316 -0.245815
-0.793939 -1.20996 0.250295 0.00102704 -0.969316 -0.245815
-0.686784 -1.20934 0.286593 0.264772 -0.93245 -0.245831
-0.665611 -1.38895 -0.389978 0.194652 0.965186 -0.174721
-0.61204 -1.41364 -0.371383 -0.0627496 0.996415 -0.0567361
-0.597645 -1.40062 -0.342471 -0.0375963 0.985553 -0.165141
-0.576173 -1.40397 -0.389271 -0.139967 0.967169 -0.212117
-0.522598 -1.41115 -0.370989 -0.167979 0.965743 -0.197795
-0.532997 -1.39992 -0.30191 -0.0976557 0.98187 -0.162462
-0.518167 -1.401 -0.362203 -0.242439 0.967158 0.0763467
-0.554031 -1.40067 -0.344493 0.140571 0.989904 0.0181367
-0.648341 -1.40422 -0.264379 0.14916 0.936312 -0.317916
-0.594762 -1.39891 -0.24632 0.000271517 0.999841 -0.0178532
-0.605164 -1.39767 -0.177063 0.315963 0.944483 0.0901094
-0.599453 -1.35807 -0.200106 -0.0375963 0.985553 -0.165141
-0.637351 -1.39852 -0.225289 0.14916 0.936312 -0.317916
-0.491871 -1.39905 -0.252523 -0.267659 0.961592 -0.0608268
-0.523039 -1.41956 -0.281383 -0.0375963 0.985553 -0.165141
-0.53469 -1.43785 -0.186064 -0.316881 0.93809 0.139905
-0.236584 -1.49805 -0.332252 -0.262445 -0.953755 0.146542
-0.308312 -1.4974 -0.296832 -0.113226 -0.991994 0.0559302
-0.426429 -1.40123 -0.374049 0.109332 0.993688 0.0250966
-0.343717 -1.42119 -0.369933 0.0386147 0.998368 0.0420828
-0.406584 -1.40022 -0.316941 0.0803601 0.990782 0.109054
-0.272428 -1.42524 -0.315837 0.00130162 0.973446 -0.228911
-0.300558 -1.47963 -0.281457 -0.0725002 -0.948973 -0.306909
-0.270421 -1.47945 -0.271248 -0.113226 -0.991994 0.0559302
-0.344157 -1.42459 -0.280417 0.00130162 0.973446 -0.228911
-0.337436 -1.43965 -0.283469 0.03169 0.999105 0.0280286
-0.290581 -1.42928 -0.262179 0.0849729 0.996324 0.0109101
-0.528174 -1.39712 -0.145385 0.0803601 0.990782 0.109054
-0.559774 -1.39604 -0.085175 0.123642 0.990948 -0.0522965
-0.559774 -1.39604 -0.085175 0.0668626 0.997706 0.010613
-0.506199 -1.40323 -0.0668925 0.315963 0.944483 0.0901094
-0.578368 -1.40848 0.0580889 0.101401 0.989951 0.0985676
-0.624191 -1.39351 0.0553607 0.0250111 0.998933 -0.0388365
-0.506637 -1.40163 0.0225349 -0.132907 0.988325 -0.0745003
-0.273306 -1.42705 -0.136893 0.0212675 0.99975 0.00689204
-0.237881 -1.43077 -0.0650859 0.0319811 0.999183 -0.0247264
-0.417198 -1.41165 0.023152 0.203102 0.968327 0.145234
-0.363623 -1.42134 0.0414791 0.101401 0.989951 0.0985676
-0.200945 -1.52008 -0.304847 -0.141923 -0.985996 0.0875795
-0.182988 -1.43026 -0.315309 0.0849729 0.996324 0.0109101
-0.128972 -1.43154 -0.386588 -0.0209814 0.999728 0.0102029
-0.164838 -1.43622 -0.368788 0.00358258 0.999696 0.0243912
-0.0753951 -1.43123 -0.368439 0.0144717 0.998995 -0.0424124
-0.0041027 -1.42279 -0.314566 -0.0243874 0.999598 -0.0144489
-0.201158 -1.49678 -0.260535 -0.141923 -0.985996 0.0875795
-0.165305 -1.5396 -0.277486 -0.141923 -0.985996 0.0875795
-0.165731 -1.49551 -0.188818 0.271395 -0.962351 0.0149865
-0.201596 -1.49519 -0.171108 0.29432 -0.948549 0.116752
-0.165714 -1.43052 -0.189978 0.0849729 0.996324 0.0109101
-0.111697 -1.42681 -0.261346 -0.0174941 0.999698 0.0172547
-0.004545 -1.43619 -0.22487 -0.0170499 0.997356 -0.0706416
0.192494 -1.42219 -0.27783 -0.126566 0.99158 0.0274017
0.049035 -1.42588 -0.2069 0.0145494 0.998094 -0.0599739
0.0494767 -1.41498 -0.296551 -0.0243874 0.999598 -0.0144489
0.210209 -1.41405 -0.242105 -0.0243874 0.999598 -0.0144489
0.103053 -1.41967 -0.278313 -0.0421939 0.997557 0.055674
0.157067 -1.42596 -0.349503 -0.0421939 0.997557 0.055674
0.139354 -1.42659 -0.385361 0.0040129 0.997971 -0.0635389
-0.0412844 -1.42767 -0.0283948 -0.0488103 0.99774 -0.0461867
-0.0767118 -1.43394 -0.100023 0.0844258 0.996406 -0.00685179
-0.166591 -1.42983 -0.0110786 0.0319811 0.999183 -0.0247264
-0.0589981 -1.43081 -0.0642088 -0.0631505 0.997522 0.0310268
-0.148876 -1.42169 0.0246461 0.0319811 0.999183 -0.0247264
-0.0186521 -1.43617 -0.0840434 -0.384261 0.92277 -0.0289474
-0.023572 -1.42954 0.00750852 0.0461325 0.997721 -0.0492394
0.0377534 -1.43395 0.0414346 -0.287614 0.957629 -0.0149989
0.15776 -1.47538 -0.0366316 0.115174 0.976939 0.179789
0.227044 -1.41522 -0.0273023 -0.0950442 0.994947 -0.0323664
0.20977 -1.41496 -0.152633 -0.055945 0.998118 -0.0251305
0.155313 -1.42457 0.00829634 -0.123095 0.991797 0.034455
0.11945 -1.41924 0.0259171 -0.123095 0.991797 0.034455
0.137602 -1.41771 -0.0276962 -0.287614 0.957629 -0.0149989
0.102172 -1.43148 -0.0991904 -0.155173 0.987462 -0.0289976
0.120328 -1.41494 -0.153072 -0.055945 0.998118 -0.0251305
0.0700659 -1.43763 -0.164095 -0.155173 0.987462 -0.0289976
0.043683 -1.39515 -0.0263227 0.334605 0.922924 -0.190397
0.155754 -1.41617 -0.0813096 -0.0734538 0.992693 -0.095734
0.0840242 -1.41802 -0.0458449 -0.153896 0.958448 -0.240195
0.0485968 -1.42429 -0.117473 -0.112678 0.992902 0.0380635
-0.524788 -1.40067 0.0761037 0.101401 0.989951 0.0985676
-0.596958 -1.41092 0.201174 0.105308 0.991922 0.0707104
-0.489368 -1.4219 0.148223 -0.0036347 0.998013 0.0629006
-0.650093 -1.39783 0.0933305 0.101678 0.991499 0.0811883
-0.668685 -1.40277 0.236461 0.112305 0.991399 0.0671987
-0.275281 -1.42986 0.265709 0.0741702 0.996333 0.0426445
-0.221481 -1.41785 0.238921 0.109332 0.993688 0.0250966
-0.321904 -1.39103 0.198812 0.0810458 0.995095 0.0567243
-0.275058 -1.41566 0.220728 0.0631525 0.997255 0.038651
-0.255803 -1.43158 0.169668 -0.0630485 0.998002 -0.00407241
-0.256472 -1.43321 0.0779995 -0.295332 0.951881 -0.0818643
-0.328199 -1.42756 0.11333 0.0810458 0.995095 0.0567243
-0.651416 -1.42053 0.362104 -0.0366251 0.941636 0.334636
-0.605003 -1.42606 0.473134 0.010729 0.999937 0.00332219
-0.455262 -1.43583 0.488579 0.0817069 0.989486 -0.11934
-0.633705 -1.4274 0.398096 0.0562424 0.995385 0.0777592
-0.472977 -1.44147 0.45281 -0.119557 0.991071 0.05902
-0.642999 -1.42612 0.469594 0.0774228 0.994728 0.067251
-0.544264 -1.42991 0.39858 -0.108141 0.987691 -0.113011
-0.555471 -1.42731 0.404069 0.0849729 0.996324 0.0109101
-0.221927 -1.44625 0.328884 0.239615 0.970033 0.0402452
-0.374905 -1.4294 0.289814 -0.112678 0.992902 0.0380635
-0.436673 -1.43839 0.345583 0.231166 0.93378 0.273161
-0.431135 -1.42819 0.356611 0.0741702 0.996333 0.0426445
-0.239638 -1.43688 0.292847 0.0810458 0.995095 0.0567243
-0.313567 -1.38882 0.322937 0.239615 0.970033 0.0402452
-0.275503 -1.44156 0.310646 0.231166 0.93378 0.273161
-0.401688 -1.44802 0.506951 0.059259 0.991066 0.119487
-0.414912 -1.4262 0.468477 0.393972 0.908287 0.140716
-0.34766 -1.40181 0.434824 0.278264 0.929289 0.242883
-0.311804 -1.43214 0.41765 0.05613 0.997534 0.0421338
-0.114332 -1.43723 0.275575 0.0303599 0.955852 0.292276
0.00853148 -1.43338 0.0725916 0.204089 0.977263 0.0574916
-0.167911 -1.44503 0.257561 0.12664 0.987309 0.0958327
-0.185182 -1.43477 0.132051 0.12664 0.987309 0.0958327
-0.20333 -1.42131 0.185397 -0.295332 0.951881 -0.0818643
-0.113885 -1.40883 0.185612 0.109332 0.993688 0.0250966
-0.131603 -1.42696 0.150066 -0.137572 0.976735 0.164506
-0.120972 -1.42997 0.261995 0.0346006 0.986743 0.15856
-0.0784695 -1.44505 0.257999 0.0246024 0.997438 0.0671735
0.190302 -1.4167 0.169352 -0.364646 0.927325 0.084269
0.158862 -1.43122 0.196294 -0.264511 0.962978 0.0520345
0.0114124 -1.43917 0.168876 -0.031941 0.997696 0.059849
0.100417 -1.43259 0.258653 0.0178753 0.999682 -0.0177642
0.0253018 -1.43339 0.0726739 0.0565715 0.998003 -0.0280932
0.06543 -1.43295 0.0974637 0.179397 0.983446 0.025522
0.147928 -1.43211 0.145937 -0.0991348 0.987883 0.119413
0.0295623 -1.44513 0.115397 0.00765538 0.995775 -0.0915026
-0.132486 -1.44626 0.329323 -0.042156 0.998381 0.0381772
-0.0884749 -1.44183 0.507778 0.0206518 0.999739 -0.00979433
-0.132925 -1.44717 0.418795 -0.0671379 0.993253 0.0945533
-0.186501 -1.44498 0.400602 0.0817069 0.989486 -0.11934
-0.204214 -1.44561 0.364743 0.0851565 0.987891 -0.129694
-0.0167413 -1.4499 0.472486 -0.0885887 0.994677 -0.0526287
-0.0434857 -1.45718 0.419412 0.00392928 0.998934 -0.0459835
-0.0526065 -1.44961 0.490195 0.0206518 0.999739 -0.00979433
0.0282449 -1.45033 0.383858 0.00392928 0.998934 -0.0459835
0.0818229 -1.44753 0.401962 0.00392928 0.998934 -0.0459835
0.118127 -1.44195 0.29469 -0.108943 0.993119 -0.0429612
0.126714 -1.43854 0.401438 -0.0999787 0.989653 0.102916
0.200653 -1.42653 0.370291 0.169717 -0.975905 -0.137136
0.171267 -1.44004 0.402266 0.0457767 0.99873 0.0210617
0.0191227 -1.44768 0.454735 -0.116484 0.991605 -0.0561313
0.0549868 -1.44547 0.436983 -0.0922876 0.995434 -0.0243917
0.231342 -1.46649 0.462299 -0.274477 0.960776 -0.0396475
0.175315 -1.42599 0.489257 -0.0280953 0.999117 0.031249
0.18029 -1.4382 0.419589 0.0145437 0.979802 -0.199442
0.189141 -1.4254 0.437307 -0.0922876 0.995434 -0.0243917
0.18898 -1.43691 0.43808 0.0457767 0.99873 0.0210617
0.182305 -1.42497 0.462985 -0.071401 0.99492 0.0709691
-0.383268 -1.26731 0.40541 0.000271517 0.999841 -0.0178532
0.412078 -1.58818 -1.14087 -0.0512149 0.998513 0.0186507
0.430133 -1.58627 -1.1945 -0.083222 0.994656 0.061098
0.284366 -1.57741 -1.12253 0.00187397 0.997611 -0.0690497
0.340275 -1.58124 -1.10548 0.244416 0.969423 -0.0219234
0.394519 -1.58052 -1.2663 -0.083222 0.994656 0.061098
0.250993 -1.57164 -1.19544 0.10324 0.964942 0.241307
0.340651 -1.56417 -1.28467 0.0790828 0.995562 0.0510181
0.41164 -1.56069 -1.14132 -0.290737 0.914866 0.280163
0.340503 -1.57521 -1.19503 -0.09152 -0.960573 0.262532
0.305088 -1.58195 -1.26663 0.0578193 0.998286 -0.00907277
0.422556 -1.57812 -1.29978 0.0214444 0.942621 -0.333174
0.448307 -1.59186 -1.24802 -0.0512149 0.998513 0.0186507
0.626622 -1.57504 -1.15814 -0.241088 -0.970436 0.0114153
0.578539 -1.57342 -1.16507 -0.127882 0.986636 -0.100978
0.662424 -1.57226 -1.17594 0.0648315 -0.991219 0.115245
0.555126 -1.56707 -1.21222 -0.330684 -0.913088 0.238577
0.50127 -1.57176 -1.14079 -0.0386235 -0.959139 0.280288
0.680866 -1.57432 -1.31896 -0.0406865 0.998925 0.0222096
0.63589 -1.57394 -1.25205 -0.0289158 0.974888 -0.220809
0.645104 -1.5796 -1.30113 -0.0406865 0.998925 0.0222096
0.680251 -1.57639 -1.14002 0.0225017 0.995069 0.0966019
0.644249 -1.56667 -1.12243 0.0269155 -0.984465 -0.173505
0.695852 -1.57127 -1.14787 -0.0250149 0.963696 -0.265828
0.554779 -1.56561 -1.12279 0.0157055 0.99986 -0.00572675
0.464171 -1.45249 -1.30391 -0.0124388 0.999879 -0.00935256
0.464512 -1.51455 -1.12398 0.290028 -0.956465 -0.0325249
0.446037 -1.4494 -1.25035 -0.00545058 0.999974 0.00475482
0.411068 -1.53496 -1.09702 0.290028 -0.956465 -0.0325249
0.41123 -1.51466 -1.23153 0.1697 -0.956173 0.238611
0.248813 -1.45521 -1.1079 -0.033532 0.999302 -0.0164686
0.446805 -1.51792 -1.15977 -0.0250149 0.963696 -0.265828
0.320804 -1.45361 -1.23288 -0.00894453 0.999957 -0.00229807
0.338244 -1.45378 -1.10757 0.005164 0.999944 -0.00928677
0.38573 -1.53695 -1.19325 0.25247 -0.94693 -0.198953
0.320536 -1.45715 -1.14337 0.0681892 0.9976 0.0120181
0.573062 -1.55766 -1.26598 0.25247 -0.94693 -0.198953
0.529097 -1.53583 -1.26427 0.036943 0.997999 -0.0513214
0.551628 -1.5362 -1.30891 0.0940584 0.971164 -0.219076
0.501259 -1.55072 -1.23059 -0.0128211 0.991272 0.131205
0.607151 -1.44741 -1.28554 -0.047623 0.99882 -0.00947539
0.590957 -1.54576 -1.31978 -0.330684 -0.913088 0.238577
0.624938 -1.44904 -1.24966 -0.0159986 0.999871 0.00119683
0.590758 -1.53326 -1.31998 0.358337 -0.922071 -0.146221
0.51818 -1.5184 -1.10582 0.0126978 -0.996789 -0.0790608
0.552867 -1.44564 -1.12476 -0.0474687 0.997874 -0.044649
0.679255 -1.51391 -1.14105 0.321428 -0.925982 -0.198094
0.625626 -1.51256 -1.15917 -0.340778 0.926355 -0.160429
0.590302 -1.54533 -1.14088 -0.00524404 0.998832 -0.0480301
0.607879 -1.51343 -1.195 0.0721895 -0.997373 0.00603888
0.590063 -1.53034 -1.14112 -0.110893 -0.993794 0.00877536
0.695767 -1.43556 -1.10648 -0.0616257 0.997897 -0.0200729
0.268791 -1.5943 -1.06976 0.00153379 0.999821 0.0188505
0.268364 -1.58784 -0.980414 0.00187397 0.997611 -0.0690497
0.358102 -1.58537 -1.06956 0.00187397 0.997611 -0.0690497
0.411611 -1.57922 -1.05156 -0.0544595 0.994057 -0.0942641
0.411492 -1.57172 -1.05169 -0.104442 0.986695 0.124595
0.456247 -1.57351 -1.05148 -0.27176 0.96162 -0.0378613
0.28813 -1.57436 -0.940303 0.00187397 0.997611 -0.0690497
0.3273 -1.57392 -0.95134 -0.111062 0.992632 -0.0484472
0.321526 -1.58023 -0.872986 0.0159327 -0.999738 0.0164073
0.257958 -1.57022 -0.865289 0.0284134 0.999496 -0.0141886
0.249098 -1.58053 -0.88304 -0.0629682 0.997781 -0.0216412
0.464693 -1.56661 -0.944216 -0.268651 0.963228 0.00431049
0.464853 -1.57661 -0.944052 0.0225075 0.998801 0.0434774
0.434477 -1.57162 -0.915179 -0.0517457 0.97552 0.213735
0.483374 -1.58366 -1.08699 0.0297191 0.999546 0.00487749
0.501042 -1.57779 -1.05124 -0.0512149 0.998513 0.0186507
0.495069 -1.5716 -0.97309 -0.0160595 0.999694 0.0187897
0.482748 -1.5647 -0.997851 0.146351 0.988871 0.0267313
0.571189 -1.57083 -0.999644 -0.00517202 0.997834 -0.065578
0.509575 -1.57126 -0.96633 0.212185 0.903706 0.371878
0.572298 -1.57077 -0.997404 -0.0336901 0.998773 0.0362857
0.518442 -1.57546 -0.925972 -0.0964937 0.99462 -0.0376941
0.626007 -1.57712 -0.9792 0.0474474 0.997732 -0.0477459
0.641221 -1.56804 -0.897662 0.0225017 0.995069 0.0966019
0.536576 -1.57855 -0.979524 -0.0965827 0.995121 -0.0201554
0.548005 -1.57243 -1.07463 -0.0160595 0.999694 0.0187897
0.243125 -1.53655 -1.03055 0.23213 -0.921278 0.31203
0.339091 -1.5273 -1.01691 -0.04058 0.999092 -0.0129717
0.267954 -1.54181 -1.07062 -0.0781358 -0.935867 0.343582
0.280968 -1.53525 -0.987934 -0.0659229 -0.983092 0.170832
0.356958 -1.53392 -0.980951 -0.0698665 -0.977424 0.199399
0.40958 -1.45176 -1.05365 -0.0264801 0.99945 -0.0199652
0.446656 -1.52896 -1.07014 0.321428 -0.925982 -0.198094
0.391445 -1.44866 -1.0001 0.0725952 0.996039 -0.0513402
0.445382 -1.44898 -1.07145 -0.047623 0.99882 -0.00947539
0.256088 -1.53444 -0.914243 -0.126091 0.907662 -0.400313
0.248118 -1.45228 -0.929036 -0.0299706 0.999186 -0.0270168
0.337509 -1.44835 -0.928753 0.097071 0.992655 -0.0721972
0.249132 -1.45555 -0.885272 -0.00312806 0.999091 -0.0425027
0.42694 -1.44692 -0.928429 -0.033532 0.999302 -0.0164686
0.535193 -1.5121 -0.891161 -0.282488 -0.954974 -0.0906936
0.500006 -1.51281 -1.05231 0.402095 -0.914961 0.0341386
0.605602 -1.43156 -0.927986 -0.145402 0.985851 -0.0834065
0.499898 -1.52634 -0.962629 -0.0331071 -0.999017 -0.0294759
0.571849 -1.52225 -1.08765 0.0579795 -0.997154 0.0481811
0.481184 -1.4462 -1.08925 -0.0616257 0.997897 -0.0200729
0.734494 -1.57567 -1.30084 0.0297191 0.999546 0.00487749
0.71636 -1.57258 -1.24729 -0.386418 0.910635 -0.146372
0.733578 -1.51818 -1.30179 -0.307675 0.940574 -0.143723
0.758285 -1.53225 -1.26903 -0.156363 0.987699 0.000814231
0.751883 -1.5523 -1.26537 -0.307675 0.940574 -0.143723
0.840329 -1.50942 -1.17628 0.0892206 -0.982314 0.164615
0.767758 -1.43396 -1.23147 -0.149173 0.987258 -0.0553894
0.821575 -1.42677 -1.30294 -0.114627 0.992687 -0.0378651
0.981784 -1.38833 -1.24927 -0.0964937 0.99462 -0.0376941
