ply
format ascii 1.0
comment Generated by the CGAL library
element vertex 847
property double x
property double y
property double z
property double nx
property double ny
property double nz
end_header
-5.08964 -0.240439 -0.314367 0.315324 0.0750689 -0.94601
-4.91038 -0.196906 -0.210653 0.388619 -0.0244334 -0.921074
-4.84901 -0.19455 -0.189519 0.50011 0.0394244 -0.865064
-4.85275 -0.314801 -0.198574 0.45669 0.0148311 -0.889502
-4.86907 -0.316815 -0.203837 0.378182 0.0149017 -0.925611
-4.8635 -0.196636 -0.194773 0.345119 0.0931435 -0.933926
-4.92486 -0.317204 -0.226468 0.346933 0.0226268 -0.937617
-4.92213 -0.236199 -0.2191 0.639929 0.00396738 -0.768424
-5.02214 -0.198578 -0.268027 0.678821 0.0287153 -0.733742
-4.91818 -0.196985 -0.215163 0.357596 -0.000982874 -0.933876
-4.96345 -0.237206 -0.240401 0.554766 0.017318 -0.831826
-4.92374 -0.277171 -0.224941 0.346816 0.0305065 -0.937437
-5.00803 -0.318319 -0.26364 0.374738 0.0207608 -0.926898
-4.89696 -0.31701 -0.215152 0.378182 0.0149017 -0.925611
-4.96335 -0.317241 -0.241217 0.45669 0.0148311 -0.889502
-5.09086 -0.160461 -0.315788 0.597978 0.0185552 -0.801298
-5.08985 -0.0803696 -0.312735 0.416012 -0.00197743 -0.909357
-5.08661 -0.000164583 -0.305207 0.713739 0.0455876 -0.698926
-5.08388 0.0399946 -0.299206 0.679312 0.0130118 -0.733734
-4.85902 -0.116589 -0.192826 0.352156 0.00674677 -0.935917
-4.91593 -0.0369308 -0.213537 0.357369 0.0226794 -0.933688
-5.02123 -0.0384519 -0.264157 0.679088 0.0208656 -0.733761
-4.91035 -0.0769255 -0.212796 0.368018 -0.00881059 -0.929777
-4.91704 -0.0769642 -0.215064 0.362438 0.014647 -0.931893
-4.9148 0.0430963 -0.212724 0.362438 0.014647 -0.931893
-4.91705 -0.116958 -0.21435 0.294294 -0.00924604 -0.95567
-4.85032 -0.0345373 -0.190125 0.460357 0.0304552 -0.887211
-4.96244 -0.157114 -0.237348 0.657536 0.0440353 -0.752135
-4.91036 -0.116919 -0.212082 0.320836 -0.00128533 -0.947134
-4.9148 0.0430963 -0.212724 0.341675 0.0145363 -0.939706
-4.91817 -0.156991 -0.215877 0.346816 0.0305065 -0.937437
-4.79538 -0.193416 -0.171554 0.31654 0.042901 -0.947609
-4.79902 -0.393701 -0.181425 0.35354 0.0360909 -0.934723
-4.81081 -0.353883 -0.182152 0.35354 0.0360909 -0.934723
-4.82219 -0.193983 -0.180537 0.364398 0.02055 -0.931017
-4.797 -0.233518 -0.175318 0.363931 0.0362966 -0.930718
-4.79528 -0.273451 -0.17237 0.363931 0.0362966 -0.930718
-4.74743 -0.275986 -0.155886 0.377211 0.0620236 -0.924048
-4.64476 -0.195239 -0.113214 0.351869 0.0302685 -0.93556
-4.64698 -0.215315 -0.11734 0.352082 0.0145926 -0.935855
-4.70614 -0.395795 -0.14348 0.346933 0.0226268 -0.937617
-4.70613 -0.355801 -0.144195 0.346933 0.0226268 -0.937617
-4.48626 -0.274377 -0.0618225 0.272877 -0.00147078 -0.962048
-4.53985 -0.31468 -0.079257 0.272877 -0.00147078 -0.962048
-4.37241 -0.353806 -0.0274177 0.294294 -0.00924604 -0.95567
-4.48628 -0.334367 -0.0607513 0.320864 -0.0091407 -0.947081
-4.43379 -0.274106 -0.0459152 0.22972 0.0218654 -0.973011
-4.45726 -0.354229 -0.0524269 0.294269 -0.00134986 -0.955722
-4.46173 -0.314195 -0.0509273 0.33102 0.0301619 -0.943142
-4.46619 -0.234167 -0.0501418 0.251397 -0.0015907 -0.967883
-4.43493 -0.394128 -0.0460139 0.261981 0.0221053 -0.96482
-4.43382 -0.354094 -0.0444869 0.240485 0.0219479 -0.970405
-4.46842 -0.194153 -0.049749 0.304729 0.0223881 -0.952176
-4.74965 0.00419002 -0.1486 0.357596 -0.000982874 -0.933876
-4.70054 -0.135637 -0.136916 0.325914 0.0225131 -0.945131
-4.60234 -0.11494 -0.0965488 0.351731 0.0380957 -0.935326
-4.69942 -0.115601 -0.135032 0.357249 0.0305561 -0.933509
-4.79487 -0.15337 -0.170028 0.363931 0.0362966 -0.930718
-4.64028 0.00488849 -0.10782 0.234539 0.0300193 -0.971643
-4.79325 -0.113267 -0.166263 0.385019 0.0209688 -0.922671
-4.75858 -0.0759154 -0.153922 0.357249 0.0305561 -0.933509
-4.65368 -0.11527 -0.115804 0.341468 0.0302171 -0.939407
-4.37681 0.0462709 -0.026756 0.356757 0.054134 -0.932628
-4.37904 -0.0337959 -0.0298101 0.310249 0.006507 -0.950633
-4.43485 -0.0741785 -0.0517269 0.22983 0.00615262 -0.973211
-4.53316 -0.114473 -0.0693807 0.351869 0.0302685 -0.93556
-4.38125 0.00611832 -0.0350066 0.356757 0.054134 -0.932628
-4.38014 0.00615881 -0.0327655 0.341675 0.0145363 -0.939706
-4.43264 -0.114092 -0.0465305 0.135286 -0.0571222 -0.989159
-4.49742 -0.0743067 -0.0598588 0.320789 0.00656818 -0.947128
-4.49967 -0.11428 -0.0580378 0.341582 0.0223798 -0.939586
-4.38354 -0.0737488 -0.0268822 0.38859 -0.000798144 -0.921411
-4.48178 -0.0742497 -0.0564285 0.446503 0.13438 -0.884634
-4.38017 -0.113823 -0.030623 0.351869 0.0302685 -0.93556
-4.43485 -0.0741778 -0.051727 0.346933 0.0226268 -0.937617
-4.46616 -0.114186 -0.0522842 0.31534 0.022452 -0.948713
-4.40137 -0.113978 -0.03967 0.219104 -0.00962351 -0.975654
-4.46611 0.045789 -0.0551407 0.294225 0.00654444 -0.955714
-4.49964 0.00570097 -0.0601802 0.346933 0.0226268 -0.937617
-4.46165 -0.034239 -0.0559262 0.320635 0.0222638 -0.946941
-4.23069 -0.753189 0.0128372 0.310295 -0.00134603 -0.950639
-4.33673 -0.753769 -0.0212189 0.320635 0.0222638 -0.946941
-4.32781 -0.793744 -0.019343 0.320635 0.0222638 -0.946941
-4.33563 -0.75373 -0.0189776 0.272836 0.00641665 -0.962039
-4.30325 -0.753576 -0.00987592 0.351869 0.0302685 -0.93556
-4.30324 -0.713582 -0.0105901 0.325914 0.0225131 -0.945131
-4.27423 -0.793435 -0.00119444 0.320635 0.0222638 -0.946941
-4.1626 -0.83285 0.0336032 0.398656 0.164824 -0.902167
-4.33562 -0.713736 -0.0196918 0.289134 -0.0093179 -0.957243
-4.30102 -0.79359 -0.0102687 0.387454 0.0620385 -0.919799
-4.11795 -0.672484 0.0533228 0.294061 -0.05658 -0.95411
-4.12352 -0.712577 0.0484203 0.310249 0.006507 -0.950633
-4.1135 -0.792506 0.0532514 -0.149719 -0.100934 0.983563
-4.28312 -0.633478 -0.00521266 0.29953 0.0221369 -0.95383
-4.27865 -0.473345 0.000895492 0.319677 0.0701176 -0.944929
-4.17372 -0.512799 0.0334245 0.304626 0.0302699 -0.951991
-4.22619 -0.513069 0.0175171 0.29953 0.0221369 -0.95383
-4.33113 -0.513609 -0.0142977 0.2832 0.0379981 -0.958308
-4.33448 -0.593715 -0.019593 0.320529 0.0301031 -0.94676
-4.33559 -0.633749 -0.02112 0.299718 -0.00140656 -0.954027
-4.22955 -0.633169 0.012936 0.33661 0.0067905 -0.94162
-4.23177 -0.473074 0.0167755 0.294163 0.0144354 -0.955646
-4.31215 -0.513533 -0.00973319 0.272906 -0.0172498 -0.961886
-4.31438 -0.473519 -0.00934044 0.272906 -0.0172498 -0.961886
-4.27864 -0.433351 0.000181361 0.251308 0.0141593 -0.967804
-4.33002 -0.473576 -0.0127707 0.272906 -0.0172498 -0.961886
-4.30546 -0.633575 -0.0109114 0.2832 0.0379981 -0.958308
-4.30769 -0.593561 -0.0105187 0.325914 0.0225131 -0.945131
-4.12018 -0.63247 0.0537155 0.31534 0.022452 -0.948713
-3.48473 -0.794239 -0.0342131 -0.691013 -0.160699 0.704753
-3.44785 -0.754132 -0.0280393 -0.691013 -0.160699 0.704753
-3.45338 -0.714337 -0.0399592 0.320529 0.0301031 -0.94676
-4.17148 -0.392738 0.0357645 0.294269 -0.00134986 -0.955722
-4.31658 -0.313524 -0.0110901 0.294269 -0.00134986 -0.955722
-4.32997 -0.313601 -0.0156272 0.299751 -0.0171138 -0.953864
-4.31881 -0.27351 -0.0106973 0.294269 -0.00134986 -0.955722
-4.32103 -0.193502 -0.0110187 0.330739 0.045815 -0.942609
-4.28757 -0.393376 -0.00169447 0.320529 0.0301031 -0.94676
-4.34558 -0.193676 -0.0212 0.294269 -0.00134986 -0.955722
-4.31656 -0.233536 -0.0125183 0.346816 0.0305065 -0.937437
-4.31659 -0.353517 -0.010376 0.304948 -0.00918722 -0.952325
-4.18486 -0.272735 0.0346741 0.251397 -0.0015907 -0.967883
-4.11568 -0.392349 0.0583954 0.336446 0.0225713 -0.941432
-4.20273 -0.03261 0.0392444 0.251414 -0.025226 -0.967551
-4.32996 -0.0734393 -0.00873359 0.39807 0.0464022 -0.916181
-4.32657 -0.0335261 -0.0139026 0.2729 -0.00936009 -0.961997
-4.32547 -0.0334864 -0.0116615 0.261894 0.0299734 -0.964631
-4.32546 -0.023488 -0.01184 0.39807 0.0464022 -0.916181
-4.2987 -0.113318 -0.00115899 0.346933 0.0226268 -0.937617
-4.33217 0.0465621 -0.0097691 0.219104 -0.00962351 -0.975654
-4.24736 -0.112988 0.0180965 0.33102 0.0301619 -0.943142
-4.33218 0.00656839 -0.00905497 0.356757 0.054134 -0.932628
-4.32102 -0.153508 -0.0117328 0.304948 -0.00918722 -0.952325
-4.05991 -0.752203 0.0706859 0.362549 0.164065 -0.91741
-4.06659 -0.592167 0.07115 0.219108 -0.0174791 -0.975544
-3.955 -0.751563 0.10809 0.265638 0.093188 -0.959558
-4.06882 -0.552153 0.0715427 0.33122 0.0144783 -0.943442
-3.91246 -0.431502 0.109292 0.366866 -0.0952982 -0.92538
-3.94156 -0.791679 0.102163 0.336045 0.0461916 -0.940713
-4.01525 -0.591837 0.0904055 0.347011 -0.0483981 -0.936612
-3.95944 -0.591548 0.107447 0.294225 0.00654444 -0.955714
-3.95723 -0.711549 0.108483 0.336522 -0.0484713 -0.940427
-3.91138 -0.551443 0.113676 0.35745 -0.048319 -0.932682
-4.01302 -0.631851 0.0900127 0.303834 0.0695332 -0.950184
-3.68263 -0.750057 0.196619 0.320864 -0.0091407 -0.947081
-3.69602 -0.750134 0.192082 0.310287 -0.0327622 -0.950078
-3.89918 -0.751274 0.125132 0.307768 0.109157 -0.945179
-3.72276 -0.790482 0.172544 0.294083 0.0223215 -0.955519
-3.85563 -0.711029 0.139163 0.336522 -0.0484713 -0.940427
-3.80317 -0.750753 0.155785 0.294083 0.0223215 -0.955519
-3.85898 -0.791136 0.133868 0.320864 -0.0091407 -0.947081
-3.58442 -0.669369 0.235916 0.347145 -0.0326256 -0.937244
-3.54859 -0.812172 0.22075 0.34982 0.109347 -0.930414
-3.53308 -0.669039 0.255171 0.388213 0.030682 -0.921059
-3.50174 -0.829299 0.242531 0.372873 -0.000979884 -0.927882
-3.50624 -0.869252 0.245459 0.381857 0.0859896 -0.920212
-3.58887 -0.749515 0.228379 0.357467 0.0147963 -0.933809
-3.4795 -0.748816 0.269159 0.341334 0.0380467 -0.939172
-3.59996 -0.829899 0.207396 0.367387 0.172676 -0.913898
-3.85339 -0.590969 0.141503 0.303834 0.0695332 -0.950184
-3.88565 -0.471441 0.113492 0.35745 -0.048319 -0.932682
-3.86222 -0.511299 0.122146 0.35745 -0.048319 -0.932682
-3.68032 -0.510115 0.191228 0.320529 0.0301031 -0.94676
-3.8042 -0.430843 0.147831 0.278299 0.0219991 -0.960243
-3.68478 -0.430087 0.192013 0.320722 0.0144184 -0.947064
-3.75176 -0.550555 0.165881 0.251389 -0.0331013 -0.96732
-3.69379 -0.58998 0.199297 0.336045 0.0461916 -0.940713
-3.79982 -0.630653 0.160366 0.331375 -0.0169346 -0.943347
-3.69267 -0.630034 0.196663 0.33517 -0.111183 -0.935574
-3.64021 -0.589671 0.217446 0.366866 -0.0952982 -0.92538
-3.52853 -0.429118 0.248673 0.367853 0.01485 -0.929765
-3.47943 -0.508855 0.264874 0.347028 0.0147408 -0.937739
-3.64125 -0.429835 0.206759 0.294083 0.0223215 -0.955519
-3.53081 -0.581573 0.252502 0.304475 -0.0722633 -0.949775
-3.47609 -0.428748 0.270169 0.352208 -0.00110236 -0.935921
-3.53083 -0.629066 0.25335 0.347145 -0.0326256 -0.937244
-3.58439 -0.589381 0.234487 0.346484 -0.0798483 -0.934651
-4.06432 -0.392119 0.0720617 0.22972 0.0218654 -0.973011
-4.05872 -0.151959 0.0789827 0.356757 0.054134 -0.932628
-4.00399 0.00836513 0.096516 0.336539 0.0146834 -0.941555
-3.95262 -0.27166 0.0984135 0.341675 0.0145363 -0.939706
-4.10561 0.00794469 0.0714246 0.255942 0.0459877 -0.965598
-3.95932 -0.151618 0.0995918 0.33113 0.0223232 -0.943321
-4.06098 -0.312013 0.0773569 0.218878 0.0296196 -0.975303
-4.07326 -0.392138 0.0709 0.31534 0.022452 -0.948713
-4.11119 -0.152229 0.0630753 0.33102 0.0301619 -0.943142
-4.0978 0.0480168 0.0752202 0.357369 0.0226794 -0.933688
-3.96155 -0.231685 0.0965377 0.336199 0.0383269 -0.941011
-3.95262 0.0485889 0.109468 0.33113 0.0223232 -0.943321
-4.08664 -0.152053 0.0732565 0.336539 0.0146834 -0.941555
-3.79971 -0.230716 0.153225 0.336333 0.030453 -0.941251
-3.68701 -0.390073 0.192406 0.320872 -0.0169965 -0.94697
-3.85218 -0.230986 0.137317 0.294163 0.0144354 -0.955646
-3.79859 -0.190683 0.154752 0.29322 0.0694551 -0.953519
-3.69146 -0.270051 0.192477 0.346933 0.0226268 -0.937617
-3.58432 -0.309426 0.229489 0.346933 0.0226268 -0.937617
-3.63343 -0.389763 0.210554 0.22972 0.0218654 -0.973011
-3.64236 -0.229707 0.212125 0.219108 -0.0174791 -0.975544
-3.70262 -0.069981 0.194441 0.299611 0.0142933 -0.953954
-3.86334 -0.0309159 0.139281 0.33113 0.0223232 -0.943321
-3.80755 -0.150608 0.158465 0.346678 0.0383784 -0.937199
-3.79414 -0.110537 0.162288 0.33113 0.0223232 -0.943321
-3.85889 -0.150938 0.13921 0.346678 0.0383784 -0.937199
-3.84772 -0.110846 0.14414 0.336333 0.030453 -0.941251
-3.68252 0.0502159 0.204694 0.28361 -0.00930366 -0.958895
-3.80754 -0.110614 0.157751 0.33113 0.0223232 -0.943321
-3.59324 -0.14937 0.23106 0.346933 0.0226268 -0.937617
-3.49504 -0.108675 0.27107 0.346816 0.0305065 -0.937437
-3.46825 -0.108521 0.280144 0.36234 0.0224846 -0.931775
-3.59994 -0.0693212 0.232952 0.33122 0.0144783 -0.943442
-3.65128 -0.0696511 0.213696 0.346816 0.0305065 -0.937437
-3.60442 -0.0292868 0.234452 0.347101 0.0068499 -0.937803
-3.32481 -1.39082 0.165086 0.152485 -0.0648265 -0.986177
-3.33849 -1.42989 0.217155 0.470909 0.221827 -0.853837
-3.25716 -1.3488 0.278726 0.610356 0.143645 -0.778994
-3.30731 -1.34939 0.244944 0.40569 0.212314 -0.88901
-3.10111 -1.42126 0.144361 0.117047 -0.143103 -0.982762
-3.13785 -1.42773 0.341104 0.352065 -0.0481855 -0.934734
-3.13784 -1.37024 0.340078 0.518194 0.0475977 -0.853938
-3.04637 -1.34698 0.383722 0.478743 0.0392248 -0.877078
-3.07761 -1.3472 0.371272 0.478743 0.0392248 -0.877078
-3.19815 -1.42798 0.326276 0.406406 0.204806 -0.890443
-2.75838 -1.42541 0.477109 0.166933 0.100658 -0.980817
-2.75394 -1.38526 0.48536 0.299024 0.0534348 -0.952748
-2.84559 -1.34532 0.479725 0.20198 0.0375899 -0.978668
-2.85224 -1.38806 0.467037 0.283255 0.17236 -0.943429
-2.8064 -1.34553 0.468738 0.166933 0.100658 -0.980817
-2.72714 -1.34511 0.49372 0.352065 -0.0481855 -0.934734
-3.42362 -1.22915 0.255646 0.321293 0.378223 -0.868169
-3.38776 -1.26947 0.23865 0.245342 0.348136 -0.90477
-3.42342 -1.30994 0.21236 0.379686 0.400997 -0.833691
-3.36984 -1.31713 0.230643 0.406172 0.268082 -0.873588
-3.29965 -1.26873 0.281561 0.379686 0.400997 -0.833691
-3.43703 -0.908879 0.267752 0.320705 -0.0483946 -0.945942
-3.21724 -1.10741 0.355123 0.282742 0.251119 -0.925741
-3.26861 -1.10764 0.341457 0.330936 0.242661 -0.911919
-3.35005 -1.10824 0.306404 0.33587 0.0540456 -0.940357
-3.23055 -1.18787 0.329658 0.374423 0.220212 -0.90073
-3.27184 -1.18815 0.313805 0.403585 0.0467629 -0.913746
-3.2505 -1.26858 0.290745 0.278846 0.234909 -0.931162
-3.24496 -1.25588 0.301727 0.346103 0.180335 -0.920702
-3.33329 -1.22833 0.303039 0.480182 0.364281 -0.79795
-3.17032 -1.14733 0.360539 0.30407 0.180181 -0.935455
-3.14028 -1.30693 0.384783 0.341733 -0.0404202 -0.938927
-3.05978 -1.22688 0.38822 0.0788389 -0.0493082 -0.995667
-3.17365 -1.17245 0.354262 0.282742 0.251119 -0.925741
-3.19364 -1.30804 0.32192 0.610356 0.143645 -0.778994
-3.19029 -1.30802 0.323055 0.518194 0.0475977 -0.853938
-3.02636 -1.1464 0.414903 0.335661 0.18033 -0.924561
-3.06095 -1.14663 0.401319 0.34556 0.187911 -0.91939
-3.01293 -1.20901 0.409377 0.304876 0.00660718 -0.952369
-3.18584 -1.22788 0.330591 0.458324 0.070627 -0.885975
-3.10888 -1.22723 0.367858 0.469274 0.0313779 -0.882495
-3.07769 -1.14673 0.395647 0.295846 0.139965 -0.944926
-3.16021 -1.22756 0.348603 0.40569 0.212314 -0.88901
-3.07649 -1.30717 0.372799 0.251414 -0.025226 -0.967551
-3.13338 -1.2676 0.347213 0.38853 0.291709 -0.874042
-3.26416 -1.02749 0.348993 0.359848 0.117113 -0.925632
-3.37463 -1.02823 0.305973 0.408861 -0.0399839 -0.91172
-3.15586 -0.886858 0.385032 0.352082 0.0145926 -0.935855
-2.99517 -1.0459 0.442335 0.340288 0.0859167 -0.936388
-3.14694 -1.06691 0.383818 0.299024 0.0534348 -0.952748
-3.10119 -0.946499 0.406493 0.341675 0.0145363 -0.939706
-2.99181 -0.905807 0.446559 0.372873 -0.000979884 -0.927882
-3.1023 -0.966536 0.404609 0.351731 0.0380957 -0.935326
-3.04874 -1.04121 0.424097 0.341675 0.0145363 -0.939706
-2.7953 -1.22515 0.489008 0.375195 0.125607 -0.918396
-2.80313 -1.30522 0.485926 0.251414 -0.025226 -0.967551
-2.80085 -1.18526 0.482677 0.324132 0.195426 -0.925606
-2.84324 -1.26566 0.460422 0.324132 0.195426 -0.925606
-2.81877 -1.1451 0.490818 0.448797 0.0628407 -0.891421
-2.95934 -1.18621 0.427124 0.304876 0.00660718 -0.952369
-2.85332 -1.26562 0.462608 0.20198 0.0375899 -0.978668
-2.78087 -1.10216 0.515956 0.27574 -0.23727 -0.931488
-2.79864 -1.29276 0.483489 -0.0375033 0.148213 -0.988244
-2.90578 -1.22839 0.446031 0.377771 -0.0717112 -0.923118
-2.91021 -1.26604 0.437736 0.377771 -0.0717112 -0.923118
-2.9192 -1.14578 0.4512 0.333485 0.125582 -0.934354
-2.6937 -1.18464 0.518974 0.315097 0.2996 -0.90053
-2.69147 -1.22965 0.518671 0.315097 0.2996 -0.90053
-2.73161 -1.26508 0.494506 0.296855 0.116834 -0.947748
-2.78759 -1.0646 0.518607 0.458324 0.070627 -0.885975
-2.89026 -1.06526 0.480096 0.356757 0.054134 -0.932628
-2.84564 -1.02488 0.501958 0.341797 -0.00116347 -0.939773
-2.89918 -0.905205 0.481667 0.351986 0.0224336 -0.935736
-2.9416 -1.06559 0.46084 0.340288 0.0859167 -0.936388
-2.36875 -1.44005 0.362985 0.509273 0.285624 -0.811825
-2.4945 -1.46061 0.470085 0.00489952 -0.0178545 -0.999829
-2.50888 -1.42613 0.440325 0.318837 0.196565 -0.927203
-2.31784 -1.42563 0.471444 0.624842 -0.234496 -0.744704
-3.42365 -0.560957 0.288442 0.331277 -0.0404884 -0.942665
-3.42362 -0.438477 0.286255 0.357628 -0.00887607 -0.933822
-3.42475 -0.508505 0.285264 0.33661 0.0067905 -0.94162
-3.42481 -0.748467 0.289549 0.402876 0.0703261 -0.912549
-3.37458 -0.828264 0.302402 0.402591 0.0781524 -0.912038
-3.42594 -0.708414 0.292183 0.336045 0.0461916 -0.940713
-3.26301 -0.86748 0.348378 0.372873 -0.000979884 -0.927882
-3.21836 -0.747108 0.368812 0.374765 0.133346 -0.91748
-3.37125 -0.788151 0.308411 0.402876 0.0703261 -0.912549
-3.21613 -0.787122 0.368419 0.372873 -0.000979884 -0.927882
-3.09894 -0.826439 0.408833 0.352082 0.0145926 -0.935855
-3.20273 -0.666964 0.376403 0.33122 0.0144783 -0.943442
-3.00855 -0.785823 0.444334 0.34475 -0.134342 -0.929032
-3.11345 -0.746469 0.406216 0.351731 0.0380957 -0.935326
-2.98844 -0.745713 0.450426 0.33122 0.0144783 -0.943442
-3.42814 -0.588412 0.291147 0.372873 -0.000979884 -0.927882
-3.25629 -0.587286 0.356826 0.357588 -0.0325523 -0.933312
-3.26964 -0.54747 0.345986 0.347145 -0.0326256 -0.937244
-3.25741 -0.627319 0.355299 0.331277 -0.0404884 -0.942665
-3.22281 -0.627086 0.368883 0.316853 -0.173692 -0.932435
-3.21828 -0.427159 0.363099 0.304475 -0.0722633 -0.949775
-3.21607 -0.54716 0.364134 0.341468 0.0302171 -0.939407
-3.37007 -0.54815 0.306368 0.357628 -0.00887607 -0.933822
-3.31314 -0.42774 0.329098 0.325675 0.0382707 -0.944707
-3.04088 -0.626002 0.432376 0.212188 0.0768836 -0.9742
-3.20271 -0.586977 0.374975 0.331338 -0.00122447 -0.943511
-3.15244 -0.546793 0.385686 0.212188 0.0768836 -0.9742
-3.14909 -0.426692 0.390267 0.293733 0.0459362 -0.954783
-3.01293 -0.425839 0.440121 0.357107 0.0384251 -0.933273
-3.05756 -0.506217 0.418973 0.341468 0.0302171 -0.939407
-3.04083 -0.426034 0.428805 0.331289 0.00662855 -0.943506
-3.11789 -0.586453 0.405573 0.372915 -0.0166668 -0.927716
-2.7718 -0.704801 0.504432 0.351283 0.0702617 -0.933629
-2.95942 -0.665492 0.462554 0.227667 0.0854792 -0.96998
-2.89014 -0.705418 0.468079 0.212596 0.053411 -0.975679
-2.96164 -0.585484 0.462233 0.341797 -0.00116347 -0.939773
-2.9058 -0.505207 0.477846 0.331367 -0.00907935 -0.943458
-2.82552 -0.824692 0.510782 0.357467 0.0147963 -0.933809
-2.88015 -0.625073 0.486822 0.331375 -0.0169346 -0.943347
-2.70478 -0.744608 0.516653 0.377211 0.0620236 -0.924048
-2.93489 -0.825391 0.470003 0.310101 0.0222017 -0.950444
-2.85229 -0.74486 0.50028 0.34679 -0.0641429 -0.935747
-2.90363 -0.785183 0.481738 0.336539 0.0146834 -0.941555
-2.73827 -0.744801 0.50531 0.218763 -0.0723565 -0.973092
-2.93146 -0.425335 0.469585 0.341468 0.0302171 -0.939407
-2.77631 -0.58458 0.515681 0.266426 0.0618416 -0.961869
-2.83099 -0.584929 0.495292 0.227667 0.0854792 -0.96998
-2.80536 -0.464534 0.51675 0.351986 0.0224336 -0.935736
-2.80095 -0.74453 0.519535 0.372873 -0.000979884 -0.927882
-2.77961 -0.504712 0.50753 0.265401 0.10098 -0.958835
-2.83323 -0.664996 0.492237 0.272906 -0.0172498 -0.961886
-2.78076 -0.669725 0.508234 0.218763 -0.0723565 -0.973092
-3.08213 -0.186044 0.425435 0.362077 0.0381399 -0.931368
-3.1848 -0.14671 0.38621 0.346519 0.0462411 -0.936903
-3.25955 -0.387437 0.346532 0.341746 0.00668809 -0.939768
-3.14684 -0.306632 0.392607 0.356943 0.0462849 -0.932979
-3.23612 -0.107046 0.366241 0.331367 -0.00907935 -0.943458
-3.13792 -0.0663522 0.406251 0.336045 0.0461916 -0.940713
-3.35666 -0.0677491 0.324692 0.336539 0.0146834 -0.941555
-3.4158 -0.188238 0.29748 0.341468 0.0302171 -0.939407
-3.36559 -0.348023 0.311762 0.341468 0.0302171 -0.939407
-3.08211 -0.106057 0.424007 0.356943 0.0462849 -0.932979
-3.12008 -0.386465 0.403109 0.346816 0.0305065 -0.937437
-3.43033 -0.388423 0.288683 0.346933 0.0226268 -0.937617
-3.44146 -0.108366 0.289219 0.357369 0.0226794 -0.933688
-3.19708 -0.226835 0.379753 0.357369 0.0226794 -0.933688
-3.19372 -0.106735 0.384335 0.357369 0.0226794 -0.933688
-3.20266 -0.387008 0.371404 0.320529 0.0301031 -0.94676
-3.23167 -0.227068 0.366169 0.346933 0.0226268 -0.937617
-3.08547 -0.14607 0.423587 0.357107 0.0384251 -0.933273
-3.20265 -0.347015 0.37069 0.351869 0.0302685 -0.93556
-3.14238 -0.186492 0.399429 0.367752 0.0227291 -0.929646
-2.81429 -0.344471 0.519035 0.336333 0.030453 -0.941251
-2.81652 -0.304457 0.519428 0.356757 0.054134 -0.932628
-2.97388 -0.105298 0.468135 0.336199 0.0383269 -0.941011
-2.97499 -0.225419 0.462447 0.357107 0.0384251 -0.933273
-2.93706 -0.0649919 0.485487 0.36234 0.0224846 -0.931775
-2.97722 -0.172907 0.462616 0.434625 -0.016197 -0.900466
-2.86452 -0.144593 0.509629 0.346519 0.0462411 -0.936903
-2.91809 -0.104909 0.490766 0.357369 0.0226794 -0.933688
-2.87902 -0.14471 0.50285 0.418433 0.0386044 -0.907427
-2.88796 -0.024648 0.505135 0.357369 0.0226794 -0.933688
-2.54849 -1.38184 0.53998 0.00489952 -0.0178545 -0.999829
-2.62223 -1.34447 0.531124 0.362608 -0.0167368 -0.931791
-2.79428 -0.944559 0.519785 0.352082 0.0145926 -0.935855
-2.64565 -1.26462 0.521756 0.223377 0.180003 -0.957968
-2.58432 -1.23903 0.555146 0.285251 0.139861 -0.948193
-2.63564 -1.18437 0.534909 0.374314 0.141058 -0.916511
-2.61567 -1.14376 0.568947 0.264713 0.21105 -0.940949
-2.66707 -1.06381 0.56503 0.347101 0.0068499 -0.937803
-2.53538 -1.02292 0.616384 0.347101 0.0068499 -0.937803
-2.59341 -0.903206 0.598307 0.362077 0.0381399 -0.931368
-2.71617 -0.903981 0.55299 0.362595 -0.0245838 -0.931623
-2.5776 -1.26409 0.552272 0.360075 0.2041 -0.910323
-2.7273 -1.10435 0.534149 0.271717 0.0770784 -0.959286
-2.55881 -1.06315 0.603569 0.335221 0.0775293 -0.938944
-2.53073 -1.20123 0.572625 0.360075 0.2041 -0.910323
-2.69163 -1.02389 0.559724 0.346933 0.0226268 -0.937617
-2.56434 -1.14343 0.588202 0.360075 0.2041 -0.910323
-2.59328 -1.22395 0.559306 0.275919 0.26715 -0.923309
-2.53961 -1.30403 0.556526 0.385369 0.212614 -0.897934
-2.45685 -1.42427 0.54566 0.340014 0.35577 -0.870527
-2.45477 -1.3436 0.582249 0.30062 0.148574 -0.942101
-2.50597 -1.34443 0.535048 0.223377 0.180003 -0.957968
-2.33417 -1.3431 0.611905 0.23091 0.140807 -0.962732
-2.31646 -1.33997 0.647719 0.177038 0.218725 -0.959592
-2.15487 -1.42222 0.524739 0.314896 0.347124 -0.883371
-2.15487 -1.43472 0.524962 0.346157 0.386656 -0.854794
-2.27174 -1.34248 0.647983 0.0924315 0.233575 -0.967936
-2.20684 -1.34267 0.638241 0.293867 0.0380733 -0.955088
-2.14452 -1.34164 0.696675 0.089186 0.313776 -0.945299
-2.12661 -1.42179 0.689249 0.325608 0.299605 -0.896781
-2.0415 -1.38227 0.663241 0.339244 0.267516 -0.901858
-1.83382 -1.34128 0.721674 0.187869 0.330245 -0.92501
-1.74681 -1.34058 0.762343 0.471687 0.259967 -0.842573
-1.63724 -1.40317 0.759526 0.374019 0.370643 -0.850138
-1.63855 -1.33992 0.800881 0.313143 0.265992 -0.911696
-1.66756 -1.34015 0.787326 0.339833 0.395461 -0.853302
-2.46373 -1.30353 0.585963 0.30062 0.148574 -0.942101
-2.46372 -1.26353 0.585249 0.223377 0.180003 -0.957968
-2.46371 -1.22354 0.584534 0.223377 0.180003 -0.957968
-2.33417 -1.32811 0.611637 -0.383163 0.0165949 0.923532
-2.47266 -1.18346 0.588248 0.223377 0.180003 -0.957968
-2.45942 -1.13029 0.625383 0.346604 0.244029 -0.905713
-2.34309 -1.18305 0.613476 0.364478 0.276122 -0.889332
-2.40917 -1.1426 0.637031 0.315097 0.2996 -0.90053
-2.35005 -1.14209 0.666386 0.336597 -0.0405858 -0.940774
-2.31639 -1.10501 0.643524 0.318837 0.196565 -0.927203
-2.40584 -1.13998 0.64371 0.320483 0.242645 -0.915649
-2.26287 -1.30217 0.665198 0.0924315 0.233575 -0.967936
-2.073 -1.3015 0.705255 0.296212 0.369484 -0.880761
-2.26282 -1.12969 0.662119 0.324314 0.258746 -0.909874
-2.21478 -1.14208 0.669285 0.219466 0.23501 -0.946892
-2.41927 -1.06237 0.648968 0.298187 0.0778332 -0.951329
-2.32776 -0.901638 0.690157 0.320836 -0.00128533 -0.947134
-2.38585 -0.981894 0.67565 0.304626 0.0302699 -0.951991
-2.50301 -1.06276 0.6262 0.258312 0.282919 -0.923705
-2.39918 -1.06226 0.655774 0.414965 0.140779 -0.89888
-2.44499 -0.982302 0.651885 0.362595 -0.0245838 -0.931623
-2.34118 -1.06179 0.682887 0.336597 -0.0405858 -0.940774
-2.22737 -1.02594 0.732006 0.332523 0.331334 -0.882976
-2.21841 -1.06101 0.728203 0.463766 0.182004 -0.867061
-2.19152 -1.07876 0.715233 0.457957 0.29962 -0.836961
-2.28755 -0.901505 0.698179 0.240661 -0.017394 -0.970454
-2.27762 -1.02113 0.720492 0.362421 -0.0481041 -0.930772
-2.12024 -1.1203 0.769999 0.324314 0.258746 -0.909874
-2.1292 -1.10023 0.77407 0.0189643 0.108114 -0.993958
-2.13591 -1.06017 0.776676 0.463766 0.182004 -0.867061
-2.11469 -1.06011 0.780134 0.145412 0.0923968 -0.985047
-2.07113 -1.05996 0.789291 0.283617 -0.0171973 -0.958784
-2.18048 -0.900587 0.751244 0.326146 -0.0248641 -0.944992
-2.18725 -1.0605 0.757421 0.218847 0.424559 -0.878553
-2.0711 -0.939982 0.787148 0.29429 -0.0250381 -0.955388
-2.16715 -1.02039 0.763512 0.398737 0.00713317 -0.917038
-2.01962 -1.22041 0.766689 0.349705 0.204141 -0.914349
-1.88116 -1.21977 0.804257 0.219815 0.148299 -0.964204
-1.86675 -1.13927 0.831964 0.275919 0.26715 -0.923309
-1.74479 -1.24721 0.809889 0.204931 -0.158706 -0.965824
-1.80611 -1.22031 0.775561 0.265178 0.203552 -0.942469
-1.77372 -1.26025 0.779787 0.476141 0.268499 -0.837376
-1.60627 -1.29937 0.831627 0.374019 0.370643 -0.850138
-1.64884 -1.219 0.851229 0.450187 0.322759 -0.832561
-1.67329 -1.25957 0.819404 0.391499 0.196309 -0.898995
-1.62194 -1.21924 0.837946 0.362219 0.0303161 -0.9316
-1.67217 -1.21953 0.820931 0.346911 -0.0562747 -0.936208
-1.67552 -1.21955 0.819797 0.364478 0.276122 -0.889332
-1.63092 -1.25915 0.843088 0.349056 0.401855 -0.846565
-1.63764 -1.24909 0.84623 0.349056 0.401855 -0.846565
-1.81651 -1.17907 0.844104 0.456733 0.196163 -0.867707
-1.63761 -1.15161 0.84449 0.265178 0.203552 -0.942469
-1.69121 -1.20191 0.827234 0.410399 0.220966 -0.884729
-1.67347 -1.11879 0.86162 0.258286 0.140388 -0.955814
-1.71405 -1.17761 0.927328 0.456733 0.196163 -0.867707
-1.93335 -1.01684 0.965875 -0.402591 -0.0781524 0.912038
-1.84785 -1.05881 0.857458 0.180704 0.385721 -0.904746
-1.90813 -1.05915 0.83704 0.563088 0.34837 -0.74938
-1.96013 -0.977002 0.956087 -0.156098 -0.100416 0.982624
-1.85905 -1.01871 0.862278 0.325166 0.0618342 -0.943633
-2.01078 -0.89974 0.801262 0.320836 -0.00128533 -0.947134
-1.99821 -0.896668 0.973476 -0.156098 -0.100416 0.982624
-2.00975 -1.05957 0.811949 0.302278 0.116142 -0.946118
-1.96172 -1.01937 0.823767 0.29429 -0.0250381 -0.955388
-1.98689 -0.897169 0.945584 -0.402591 -0.0781524 0.912038
-1.9238 -0.898937 0.847521 0.293867 0.0380733 -0.955088
-1.63311 -1.05917 0.840625 0.410399 0.220966 -0.884729
-1.79876 -1.06845 0.877998 -0.561477 -0.355214 0.747373
-1.75191 -1.05809 0.899289 0.247851 0.132515 -0.959693
-1.64888 -1.05872 0.865139 -0.710369 -0.0109551 0.703744
-1.69493 -1.05796 0.907394 0.433661 0.172958 -0.884321
-1.60458 -1.01714 0.954072 0.286515 0.203851 -0.936138
-1.65594 -1.00737 0.940227 0.286515 0.203851 -0.936138
-1.64699 -1.05745 0.936693 0.262107 0.00635166 -0.965018
-1.62009 -1.04519 0.923187 0.386933 0.0776417 -0.918833
-1.79318 -0.898283 0.886169 -0.320872 0.0169965 0.94697
-1.72295 -0.937571 0.927471 -0.320872 0.0169965 0.94697
-1.75859 -0.89805 0.899753 0.33666 -0.00110572 -0.941625
-1.67939 -0.937419 0.936628 0.282923 0.0537074 -0.957638
-1.64919 -0.897451 0.934943 0.011964 0.10077 -0.994838
-1.62361 -0.977024 0.959973 0.331838 0.156426 -0.930277
-1.65151 -0.977219 0.948656 0.0963653 -0.0177965 -0.995187
-1.95148 -0.935892 1.01802 -0.191762 -0.2355 0.952768
-1.87088 -0.888734 0.999677 -0.106817 0.0963451 0.9896
-1.9156 -0.896224 0.999592 -0.360075 -0.2041 0.910323
-2.77081 -0.744356 0.529744 0.395904 -0.299716 -0.868004
-2.77085 -0.864337 0.531886 0.352199 -0.032503 -0.93536
-2.79873 -0.824538 0.519856 0.349391 -0.150406 -0.924826
-2.69829 -0.783864 0.55876 0.492278 -0.367885 -0.788875
-2.56535 -0.703442 0.583695 0.307737 0.204049 -0.929334
-2.66037 -0.863599 0.574907 0.362595 -0.0245838 -0.931623
-2.59562 -0.783204 0.597271 0.321079 -0.409151 -0.85411
-2.72046 -0.704471 0.523687 0.325526 0.0461363 -0.944407
-2.68257 -0.664026 0.54887 0.367314 0.0463228 -0.928943
-2.65345 -0.744278 0.535908 0.352199 -0.032503 -0.93536
-2.63001 -0.744142 0.543849 0.33909 -0.299727 -0.89173
-2.55302 -0.743598 0.575526 0.349751 -0.142684 -0.925913
-2.64471 -0.783554 0.576909 0.347101 0.0068499 -0.937803
-2.77184 -0.46444 0.522504 0.347179 -0.0247326 -0.937473
-2.55866 -0.543229 0.594285 0.367314 0.0463228 -0.928943
-2.72161 -0.544237 0.535357 0.367482 0.038467 -0.929235
-2.53526 -0.582987 0.608528 0.341788 -0.0325738 -0.939212
-2.66689 -0.423907 0.553604 0.320836 -0.00128533 -0.947134
-2.56419 -0.503434 0.582365 0.368018 -0.00881059 -0.929777
-2.61115 -0.583492 0.579092 0.356908 -0.0797575 -0.930728
-2.72492 -0.504362 0.527919 0.33113 0.0223232 -0.943321
-2.6357 -0.623661 0.569625 0.37155 0.0859875 -0.924423
-2.58431 -0.423363 0.58531 0.315235 0.0303347 -0.948529
-2.72047 -0.424216 0.535456 0.356495 0.180318 -0.916732
-2.62222 -0.503802 0.560841 0.320836 -0.00128533 -0.947134
-2.64011 -0.343665 0.56684 0.347028 0.0147408 -0.937739
-2.5911 -0.142847 0.611577 0.332278 0.148757 -0.931377
-2.55305 -0.263075 0.600492 0.336045 0.0461916 -0.940713
-2.55417 -0.303108 0.598965 0.254435 0.108616 -0.960971
-2.80872 -0.104211 0.531545 0.346816 0.0305065 -0.937437
-2.72278 -0.183735 0.560224 0.292013 0.108337 -0.950259
-2.80536 0.0158894 0.536126 0.357467 0.0147963 -0.933809
-2.76294 -0.304148 0.537576 0.275268 0.124356 -0.953291
-2.64913 -0.223303 0.585892 0.356943 0.0462849 -0.932979
-2.70938 -0.333833 0.556261 0.314193 0.0774172 -0.946197
-2.57101 -0.142731 0.618383 0.325166 0.0618342 -0.943633
-2.73172 -0.0636723 0.562509 0.336333 0.030453 -0.941251
-2.58998 -0.102814 0.613104 0.356943 0.0462849 -0.932979
-2.81429 -0.22439 0.522482 0.346519 0.0462411 -0.936903
-2.76965 -0.224099 0.539469 0.351571 0.0459138 -0.935035
-2.32098 -0.661737 0.682551 0.328116 -0.158302 -0.931279
-2.4952 -0.822518 0.637603 0.395904 -0.299716 -0.868004
-2.43941 -0.822129 0.660234 0.321676 -0.182177 -0.929159
-2.51289 -0.755664 0.600539 0.321079 -0.409151 -0.85411
-2.39677 -0.742628 0.632186 0.362077 0.0381399 -0.931368
-2.45035 -0.742938 0.614037 0.191236 -0.2768 -0.941706
-2.49295 -0.782544 0.635782 0.395904 -0.299716 -0.868004
-2.36111 -0.702162 0.658475 0.362559 -0.0324283 -0.931396
-2.33446 -0.779096 0.69129 0.418927 -0.0398787 -0.907144
-2.49297 -0.862532 0.63721 0.367122 0.054168 -0.928594
-2.45931 -0.71786 0.618019 0.347028 0.0147408 -0.937739
-2.38581 -0.861913 0.673508 0.321676 -0.182177 -0.929159
-2.4963 -0.782564 0.634648 0.395904 -0.299716 -0.868004
-2.245 -0.72912 0.690836 0.374314 0.141058 -0.916511
-2.24501 -0.746617 0.691149 0.349492 -0.299536 -0.887769
-2.17599 -0.860634 0.748316 0.450126 -0.000243936 -0.892965
-2.26964 -0.661407 0.701807 0.484733 -0.0552226 -0.872917
-2.28088 -0.773787 0.70935 0.3633 -0.260056 -0.894642
-2.22177 -0.780778 0.738838 0.392405 0.0781642 -0.916465
-2.2251 -0.820891 0.732829 0.320529 0.0301031 -0.94676
-2.22729 -0.728485 0.726695 0.422573 0.251592 -0.870709
-2.22843 -0.861003 0.726819 0.399743 0.149494 -0.904355
-2.44821 -0.622478 0.638734 0.324211 0.0930564 -0.941397
-2.41688 -0.502483 0.637863 0.362559 -0.0324283 -0.931396
-2.50284 -0.422859 0.614774 0.310329 -0.0170562 -0.950476
-2.37677 -0.582038 0.664081 0.408771 -0.0478353 -0.911383
-2.39458 -0.4222 0.653312 0.346136 0.0619331 -0.936138
-2.21825 -0.461109 0.717492 0.345119 0.0931435 -0.933926
-2.28525 -0.581476 0.696948 0.324164 -0.291241 -0.900054
-2.17584 -0.420803 0.734871 0.388634 -0.0165555 -0.921244
-2.26287 -0.501493 0.69563 0.33113 0.0223232 -0.943321
-2.12671 -0.50064 0.745483 0.344297 -0.235736 -0.908784
-2.16245 -0.540807 0.735962 0.373739 -0.314756 -0.872495
-2.28521 -0.421502 0.694092 0.324164 -0.291241 -0.900054
-2.23608 -0.501338 0.704704 0.418508 -0.103295 -0.90232
-2.29077 -0.501688 0.684314 0.346519 0.0462411 -0.936903
-2.16596 -0.740395 0.760755 0.388531 0.00707841 -0.921408
-2.16485 -0.700362 0.762282 0.512437 0.0951258 -0.85344
-2.09119 -0.659843 0.792111 0.469432 0.0235112 -0.882655
-2.1827 -0.820579 0.750922 0.450126 -0.000243936 -0.892965
-2.13807 -0.740201 0.77207 0.674024 0.0260893 -0.738249
-2.07535 -0.50041 0.75915 0.265095 -0.300024 -0.916357
-2.14028 -0.620199 0.771035 0.360494 -0.134818 -0.922967
-2.19161 -0.620529 0.751779 0.349585 -0.236844 -0.906474
-2.0566 -0.739697 0.801534 0.341179 0.0458672 -0.938879
-1.93496 -0.698867 0.849485 0.345119 0.0931435 -0.933926
-1.89032 -0.698576 0.866472 0.304531 0.172567 -0.93674
-1.98184 -0.819219 0.830158 0.383149 -0.0244322 -0.923363
-2.05661 -0.77969 0.802248 0.434613 -0.00831295 -0.900579
-1.98631 -0.779184 0.831658 0.392405 0.0781642 -0.916465
-1.9982 -0.856674 0.972762 -0.106817 0.0963451 0.9896
-1.88139 -0.738551 0.868348 0.372818 0.00686149 -0.927879
-1.95169 -0.859138 0.835492 0.320529 0.0301031 -0.94676
-1.60838 -0.819427 0.824164 0.497271 -0.219961 -0.839249
-1.65524 -0.832296 0.802918 -0.456385 -0.428674 0.779712
-1.65097 -0.81904 0.845195 -0.456385 -0.428674 0.779712
-1.642 -0.779128 0.840053 0.304505 0.0381438 -0.951747
-1.69827 -0.857807 0.913867 -0.0506206 0.0178443 0.998559
-1.6021 -0.840388 0.910673 0.365661 0.19538 -0.91001
-1.62578 -0.817128 0.952634 0.365661 0.19538 -0.91001
-1.77871 -0.697898 0.906144 0.360494 -0.134818 -0.922967
-1.73292 -0.73776 0.914908 0.326113 -0.0327601 -0.944763
-1.78428 -0.73799 0.901242 0.326113 -0.0327601 -0.944763
-1.61467 -0.656757 0.972189 0.372818 0.00686149 -0.927879
-1.64367 -0.656991 0.958631 0.346519 0.0462411 -0.936903
-1.64479 -0.697025 0.957104 0.325526 0.0461363 -0.944407
-1.62246 -0.696929 0.962803 0.251209 0.34637 -0.903837
-1.95272 -0.579222 0.828251 0.481321 0.109852 -0.869633
-2.01289 -0.419795 0.793799 0.318021 0.116985 -0.940839
-1.91462 -0.499481 0.813596 0.300506 -0.260809 -0.917428
-2.05324 -0.619597 0.806115 0.357628 -0.00887607 -0.933822
-2.05987 -0.579841 0.791954 0.512437 0.0951258 -0.85344
-2.04856 -0.500255 0.768224 0.336333 0.030453 -0.941251
-1.89693 -0.578833 0.850882 0.46415 -0.0159398 -0.885613
-1.8836 -0.61855 0.867312 0.356388 -0.213125 -0.909706
-1.84773 -0.418708 0.85721 0.300506 -0.260809 -0.917428
-1.95932 -0.419486 0.811948 0.351033 0.0781147 -0.933099
-1.91022 -0.419136 0.83231 0.328474 -0.150602 -0.932429
-1.91239 -0.459408 0.817364 0.347179 -0.0247326 -0.937473
-2.02177 -0.5001 0.777298 0.324164 -0.291241 -0.900054
-1.95935 -0.539467 0.81409 0.303834 0.0695332 -0.950184
-2.00961 -0.539657 0.802665 0.349585 -0.236844 -0.906474
-1.78645 -0.578095 0.893903 0.346484 -0.0798483 -0.934651
-1.78093 -0.61789 0.905823 0.331338 -0.00122447 -0.943511
-1.64145 -0.616918 0.9624 0.326201 -0.269346 -0.906115
-1.67826 -0.61723 0.944334 0.356388 -0.213125 -0.909706
-1.64254 -0.576964 0.959444 0.359385 -0.157973 -0.919721
-1.67376 -0.567279 0.941228 0.444322 -0.0475794 -0.894603
-1.64696 -0.537129 0.949765 0.359385 -0.157973 -0.919721
-1.75622 -0.418146 0.890077 0.366909 0.0620011 -0.928189
-1.75278 -0.498513 0.870283 0.364662 -0.245233 -0.898266
-1.79412 -0.498585 0.865608 0.454261 -0.0395972 -0.889988
-1.73606 -0.498317 0.881543 0.346484 -0.0798483 -0.934651
-1.7417 -0.458122 0.89198 0.371837 0.0781589 -0.925002
-1.79305 -0.418359 0.8776 0.33587 0.0540456 -0.940357
-1.65132 -0.497494 0.928909 0.46415 -0.0159398 -0.885613
-1.69145 -0.497926 0.904119 0.482553 -0.11788 -0.867898
-1.65912 -0.457579 0.923684 0.356068 0.077603 -0.931232
-1.66023 -0.497612 0.922157 0.473992 0.0631647 -0.878261
-1.69145 -0.497926 0.904119 0.427248 -0.338454 -0.838396
-1.65579 -0.417466 0.929695 0.313952 0.0852153 -0.945607
-2.44367 -0.222383 0.640557 0.336199 0.0383269 -0.941011
-2.39122 -0.3021 0.657893 0.254435 0.108616 -0.960971
-2.49614 -0.222652 0.62465 0.280353 0.125198 -0.951697
-2.3343 -0.221684 0.681337 0.325526 0.0461363 -0.944407
-2.32762 -0.38172 0.680873 0.341468 0.0302171 -0.939407
-2.44592 -0.342443 0.638218 0.287284 0.0855843 -0.954014
-2.17138 -0.300663 0.741693 0.346678 0.0383784 -0.937199
-2.28074 -0.261368 0.7002 0.346933 0.0226268 -0.937617
-2.28073 -0.221375 0.699486 0.357249 0.0305561 -0.933509
-2.42368 0.0182943 0.676614 0.336333 0.030453 -0.941251
-2.43146 -0.101965 0.663068 0.320836 -0.00128533 -0.947134
-2.39458 -0.141945 0.665081 0.297441 0.101295 -0.949351
-2.47949 -0.062082 0.655411 0.351869 0.0302685 -0.93556
-2.34548 -0.101601 0.684729 0.346519 0.0462411 -0.936903
-2.4504 -0.142234 0.648039 0.292013 0.108337 -0.950259
-2.31878 -0.0210599 0.714732 0.288833 0.0299043 -0.956912
-2.32874 -0.101505 0.6904 0.336199 0.0383269 -0.941011
-2.27293 -0.0611219 0.712317 0.278846 0.234909 -0.931162
-2.26743 0.0192636 0.733273 0.335674 0.0618875 -0.939943
-2.2227 -0.140919 0.725171 0.346816 0.0305065 -0.937437
-2.18922 -0.0606383 0.740674 0.251512 0.164257 -0.953814
-2.21824 -0.020779 0.731993 0.300221 0.156243 -0.940986
-2.26074 0.0193023 0.735542 0.288833 0.0299043 -0.956912
-2.11891 -0.300394 0.757601 0.346678 0.0383784 -0.937199
-2.06647 -0.397608 0.775249 0.367931 0.00696601 -0.929827
-2.0687 -0.380091 0.776044 0.336199 0.0383269 -0.941011
-2.08878 -0.0199645 0.779578 0.318935 0.0936387 -0.94314
-2.13565 -0.100322 0.759537 0.301365 0.13315 -0.944166
-2.10554 0.0200323 0.778782 0.287506 0.0777477 -0.954618
-2.15579 0.0423383 0.766955 0.40539 0.133181 -0.90439
-1.92138 -0.219065 0.834274 0.387454 0.0620385 -0.919799
-2.02406 -0.259719 0.796477 -0.320529 -0.0301031 0.94676
-1.91915 -0.259079 0.833881 0.357107 0.0384251 -0.933273
-1.95263 -0.259273 0.822538 0.346816 0.0305065 -0.937437
-1.97272 -0.259389 0.815733 0.346816 0.0305065 -0.937437
-1.89907 -0.298957 0.841401 0.418026 0.0542378 -0.906815
-1.62682 -0.256958 0.957161 0.335134 0.187908 -0.923242
-1.62905 -0.216944 0.957554 0.50885 0.0476492 -0.859536
-1.78746 -0.218192 0.885235 0.468871 0.0470864 -0.88201
-1.94928 -0.139173 0.82712 0.367314 0.0463228 -0.928943
-1.83435 -0.0382915 0.87732 0.458324 0.070627 -0.885975
-1.88791 0.0213895 0.8581 0.309998 0.0300405 -0.950263
-1.93031 -0.0990029 0.836559 0.346678 0.0383784 -0.937199
-1.9861 0.020689 0.817375 0.40539 0.133181 -0.90439
-1.94591 0.0209211 0.830987 0.335458 0.0697159 -0.939472
-1.63464 -0.0167749 0.965135 0.478913 0.165326 -0.862154
-1.63131 0.0233379 0.971144 0.478913 0.165326 -0.862154
-1.63128 -0.17693 0.957947 0.54268 0.032098 -0.839326
-1.64242 -0.137034 0.951589 0.533347 0.0399973 -0.84495
-1.73392 -0.0576082 0.917295 0.361912 0.0459547 -0.931079
-1.63576 -0.136895 0.959448 0.367482 0.038467 -0.929235
-1.64354 -0.177067 0.950062 0.542464 0.0399515 -0.839129
-1.63797 -0.0568878 0.959125 0.451283 0.125765 -0.883474
-1.72053 0.0225563 0.925993 0.381857 0.0859896 -0.920212
-1.77854 -0.0979929 0.895433 0.357107 0.0384251 -0.933273
-1.66807 -0.0171675 0.942614 0.418026 0.0542378 -0.906815
-1.67365 -0.177341 0.934265 0.448506 0.07068 -0.890981
-1.60456 -0.0164012 0.986522 0.533561 0.0321228 -0.845152
-1.60456 -0.0164007 0.986523 0.502089 0.110894 -0.857677
-1.45812 -1.33401 0.714438 0.370569 0.315059 -0.873737
-1.49016 -1.33883 0.86421 0.33233 0.410795 -0.849002
-1.54359 -1.37973 0.81324 0.477311 0.308993 -0.822617
-1.51881 -1.46044 0.774546 0.553458 0.142723 -0.820558
-1.38242 -1.3804 0.778258 -0.422428 0.282746 0.861167
-1.38684 -1.35806 0.768892 0.644178 0.0964516 -0.75877
-1.40542 -1.34051 0.91162 0.215661 0.409284 -0.886554
-1.26463 -1.37779 0.926395 0.145515 0.313969 -0.938216
-1.40454 -1.3162 0.732275 0.608971 -0.249728 -0.752855
-1.56614 -1.28144 0.856103 0.359461 0.124842 -0.924771
-1.45899 -1.30332 0.892802 0.373599 0.441818 -0.815611
-1.57732 -1.17886 0.859808 0.346911 -0.0562747 -0.936208
-1.45895 -1.15334 0.890124 0.346911 -0.0562747 -0.936208
-1.46344 -1.1783 0.892784 0.212957 0.0219522 -0.976815
-1.56058 -1.17876 0.865479 0.359461 0.124842 -0.924771
-1.51253 -1.17865 0.872422 0.383111 -0.0322671 -0.923138
-1.42334 -1.29785 0.919717 0.373599 0.441818 -0.815611
-1.46123 -1.2983 0.89382 0.307125 0.124654 -0.94347
-1.1866 -1.21683 0.979814 0.181658 0.13285 -0.974346
-1.34873 -1.26082 0.753924 -0.297779 0.387438 0.872479
-1.25588 -1.25699 0.970128 0.114159 0.378856 -0.918388
-1.16869 -1.29698 0.972387 0.145515 0.313969 -0.938216
-1.19329 -1.21687 0.977545 0.0190218 0.0769244 -0.996855
-1.60013 -1.01708 0.957447 0.353757 0.220364 -0.909008
-1.59746 -1.05869 0.867628 0.315578 0.164992 -0.934445
-1.58445 -1.05722 0.950413 0.461487 0.204696 -0.863209
-1.571 -1.05734 0.943773 0.244571 0.188062 -0.951219
-1.55104 -1.01673 0.977811 0.243821 0.401495 -0.88281
-1.59331 -1.05754 0.932485 0.331203 -0.0483308 -0.942321
-1.55766 -1.05706 0.959488 0.461487 0.204696 -0.863209
-1.39649 -1.05773 0.924506 0.425942 0.125289 -0.896034
-1.44676 -1.09792 0.913795 0.212957 0.0219522 -0.976815
-1.58441 -0.909741 0.947781 0.322482 -0.166836 -0.931757
-1.56625 -0.870709 0.893498 0.331203 -0.0483308 -0.942321
-1.5286 -0.936948 0.965313 0.353757 0.220364 -0.909008
-1.54854 -0.902568 0.929937 0.331203 -0.0483308 -0.942321
-0.927345 -1.37216 1.24717 -0.0339789 0.0542143 -0.997951
-0.926255 -1.33212 1.24874 0.261797 0.0388979 -0.964339
-0.873768 -1.37183 1.26533 0.0895666 0.0384037 -0.99524
-1.38921 -1.17584 1.03176 0.211852 0.092453 -0.972919
-1.37915 -1.21587 1.03029 0.19435 0.273784 -0.94195
-1.38809 -1.1358 1.03329 0.255808 0.053869 -0.965226
-1.2563 -1.2154 1.05884 0.335661 0.18033 -0.924561
-1.28052 -1.22427 0.981723 0.0962857 0.171244 -0.980512
-1.20048 -1.21511 1.07588 0.32881 0.204145 -0.922068
-1.26078 -1.17536 1.06034 0.254677 0.10085 -0.961753
-1.3323 -1.13542 1.05592 0.229993 0.16385 -0.9593
-1.24301 -1.13522 1.07275 0.35747 0.166162 -0.919024
-1.17268 -1.13453 1.10813 0.31602 0.157313 -0.93562
-1.17603 -1.13455 1.10699 0.430724 0.363605 -0.825996
-1.15379 -1.13441 1.11791 0.253631 0.441537 -0.860649
-1.37588 -1.01539 1.0558 0.459094 -0.0789977 -0.884869
-1.38698 -1.09577 1.03482 0.338664 0.124813 -0.932592
-1.4317 -1.09576 1.0346 0.418433 0.0386044 -0.907427
-1.45285 -1.01603 1.01853 0.598434 0.0800098 -0.797167
-1.47747 -0.895826 1.02857 0.336011 -0.0799291 -0.938461
-1.43065 -1.01544 1.05218 0.222427 0.100388 -0.969767
-1.51979 -1.01652 0.99026 0.322482 -0.166836 -0.931757
-1.47525 -0.975834 1.02889 0.310322 -0.00920093 -0.950587
-1.47747 -0.893327 1.02852 0.459094 -0.0789977 -0.884869
-1.42169 -0.935431 1.05191 0.222427 0.100388 -0.969767
-1.37475 -0.93536 1.05661 0.459094 -0.0789977 -0.884869
-1.49191 -1.05632 1.00229 0.529138 0.221665 -0.819071
-1.22403 -1.09476 1.09375 0.346338 0.0540932 -0.936549
-1.26649 -0.934701 1.09515 0.262107 0.00635166 -0.965018
-1.28121 -0.934942 1.08818 0.336205 0.0394224 -0.940963
-1.22765 -0.894617 1.10565 0.346683 0.0394779 -0.937151
-1.27538 -1.055 1.07937 0.247242 0.147903 -0.957599
-1.1673 -1.01432 1.12251 0.32535 0.0550819 -0.943988
-1.16824 -1.09437 1.11638 0.31602 0.157313 -0.93562
-1.16505 -1.02434 1.12158 0.279627 0.14173 -0.94959
-1.26771 -1.05503 1.08357 0.35726 0.0316597 -0.933468
-1.25422 -0.974657 1.09816 0.356943 0.0462849 -0.932979
-1.2142 -1.01452 1.11222 0.38509 -0.306209 -0.870599
-1.02198 -1.13395 1.14203 0.258394 0.220732 -0.940484
-0.972818 -1.17376 1.1519 0.258394 0.220732 -0.940484
-1.00986 -1.01354 1.16465 0.368071 -0.0155925 -0.929667
-0.997565 -1.09339 1.17389 0.279627 0.14173 -0.94959
-1.07585 -0.973542 1.16588 0.503609 0.285473 -0.815404
-1.11147 -1.02401 1.13973 0.303598 0.078427 -0.949567
-1.01427 -1.05369 1.15636 0.32535 0.0550819 -0.943988
-1.13588 -1.05413 1.13035 0.211852 0.092453 -0.972919
-1.12692 -1.0942 1.12664 0.351283 0.0702617 -0.933629
-1.06916 -0.893606 1.16121 0.36246 0.0157528 -0.931866
-1.04021 -0.96307 1.19272 0.368071 -0.0155925 -0.929667
-1.11372 -1.01399 1.14066 0.368071 -0.0155925 -0.929667
-1.00433 -1.00085 1.17565 0.225297 0.234832 -0.945566
-0.993099 -1.05343 1.171 0.208937 0.149092 -0.966497
-0.965476 -1.25197 1.25837 0.0890758 0.195718 -0.976606
-0.962173 -1.21186 1.26441 0.0542403 -0.126973 -0.990422
-0.915238 -1.21176 1.26912 0.307405 0.117995 -0.944235
-0.986974 -1.19869 1.30432 0.174352 -0.0481722 -0.983504
-0.915282 -1.11177 1.26742 0.371205 0.0949026 -0.923688
-0.843712 -1.25156 1.27909 0.261797 0.0388979 -0.964339
-0.870482 -1.29172 1.27069 0.315542 -0.0396258 -0.948084
-0.843694 -1.29156 1.27977 0.0787498 0.0460814 -0.995829
-0.810317 -1.17118 1.30026 0.603019 0.0971943 -0.791783
-0.683173 -1.3198 1.37944 0.118018 0.0069415 -0.992987
-0.701397 -1.15643 1.43026 0.0964058 -0.00895414 -0.995302
-0.705433 -1.1704 1.34326 0.452155 0.261911 -0.852618
-1.06539 -1.09087 1.32447 0.283634 -0.0319057 -0.958402
-0.954511 -1.01162 1.27671 0.213101 -0.378633 -0.90068
-1.04063 -1.02155 1.28317 0.38266 0.0635826 -0.921699
-0.74683 -1.05052 1.33655 0.524154 -0.171041 -0.834271
-0.692239 -1.08976 1.37997 0.452155 0.261911 -0.852618
-0.763393 -0.891496 1.27786 0.283254 -0.0712683 -0.956393
-0.888648 -1.01124 1.29716 0.180267 -0.21234 -0.960425
-0.706537 -1.05065 1.3278 0.396194 -0.149318 -0.905944
-0.743491 -1.0904 1.34395 0.229698 -0.0635022 -0.971188
-0.718735 -1.00108 1.3023 0.304559 -0.0711821 -0.94983
-0.709817 -0.891165 1.29601 0.409025 -0.015282 -0.912395
-0.773449 -0.931458 1.28072 0.440461 -0.172013 -0.881139
-0.592351 -1.44428 1.11363 0.0539605 0.20369 -0.977547
-0.59372 -1.34475 1.38031 0.370508 0.110463 -0.922237
-0.540143 -1.34692 1.3985 0.360847 0.0948905 -0.927785
-0.450682 -1.38937 1.39966 0.202291 0.165237 -0.965285
-0.536829 -1.32931 1.40493 0.202273 -0.0401442 -0.978506
-0.487768 -1.12916 1.41073 0.229912 -0.0321124 -0.972682
-0.486574 -1.32909 1.41636 0.213159 -0.0164601 -0.976879
-0.607229 -1.20966 1.38466 0.188232 0.117704 -0.975046
-0.600451 -1.3297 1.38338 0.0539605 0.20369 -0.977547
-0.489964 -1.16923 1.40692 0.25141 -0.0399134 -0.967057
-0.637376 -1.24975 1.38072 0.0539605 0.20369 -0.977547
-0.637358 -1.28974 1.3814 0.0714725 0.203492 -0.976464
-0.486612 -1.2416 1.41487 0.099994 0.0856931 -0.991291
-0.435229 -1.28884 1.42935 0.202291 0.165237 -0.965285
-0.424048 -1.28884 1.4294 0.0504264 0.339939 -0.939095
-0.440816 -1.16905 1.41611 0.0681878 -0.0325824 -0.99714
-0.408427 -1.12899 1.41894 0.229912 -0.0321124 -0.972682
-0.490034 -1.00925 1.40421 0.304559 -0.0711821 -0.94983
-0.526875 -0.929587 1.38479 0.332955 -0.252116 -0.908614
-0.645219 -0.970154 1.3547 0.332955 -0.252116 -0.908614
-0.495621 -0.889463 1.39097 0.398829 0.000381524 -0.917025
-0.603881 -0.890163 1.35243 0.440461 -0.172013 -0.881139
-0.491159 -0.969298 1.40129 0.304559 -0.0711821 -0.94983
-0.392826 -1.04893 1.42102 0.286749 0.102273 -0.952531
-0.100301 -1.21099 1.29326 -0.0022639 0.164588 -0.98636
-1.56622 -0.773224 0.891757 0.0506001 -0.0414247 -0.99786
-1.5844 -0.85725 0.946844 -0.0506206 0.0178443 0.998559
-1.54851 -0.770089 0.927571 0.304207 0.0538627 -0.951082
-1.50179 -0.776719 0.97712 0.441906 0.118147 -0.889247
-1.53079 -0.761955 0.963296 0.256732 0.423436 -0.868787
-1.52746 -0.73684 0.969573 0.457535 0.251845 -0.852781
-1.53751 -0.736898 0.966171 0.256732 0.423436 -0.868787
-1.59446 -0.416879 0.963531 0.468871 0.0470864 -0.88201
-1.56768 -0.456717 0.97332 0.346484 -0.0798483 -0.934651
-1.57102 -0.536824 0.968025 0.346093 -0.0955027 -0.933327
-1.5688 -0.416664 0.975953 0.407744 0.0620453 -0.910986
-1.5688 -0.416663 0.975954 0.468871 0.0470864 -0.88201
-1.50974 -0.696211 1.00472 0.373347 0.156399 -0.914413
-1.4316 -0.73582 1.02817 0.423699 0.173133 -0.889103
-1.49738 -0.736467 0.990959 0.222427 0.100388 -0.969767
-1.47073 -0.855894 1.02453 0.408971 -0.00853877 -0.912507
-1.42164 -0.855543 1.0449 0.459094 -0.0789977 -0.884869
