ply
format ascii 1.0
comment PCL generated
element vertex 1509
property float x
property float y
property float z
element camera 0
property float view_px
property float view_py
property float view_pz
property float x_axisx
property float x_axisy
property float x_axisz
property float y_axisx
property float y_axisy
property float y_axisz
property float z_axisx
property float z_axisy
property float z_axisz
property float focal
property float scalex
property float scaley
property float centerx
property float centery
property int viewportx
property int viewporty
property float k1
property float k2
end_header
-6.1568151 1.373027 0.24272907
-6.0658002 1.3749111 0.3967385
-6.1854944 1.3696392 0.40512431
-6.2366185 1.3728446 0.24833626
-6.0545774 1.3716152 0.55633003
-5.2796249 1.3721423 0.74246293
-5.5848393 1.3829215 0.964463
-5.2992582 1.3760347 0.46316844
-5.4649119 1.4437747 0.35485205
-5.3048673 1.376433 0.38336709
-5.2453322 1.3726312 0.65985757
-5.2880421 1.3752385 0.62277293
-5.7353864 1.3823401 0.53395057
-5.9831934 1.3748926 0.43103126
-6.0944796 1.3715245 0.55913371
-6.131567 1.3662345 0.60181278
-5.5730515 1.422502 0.56284142
-5.6596522 1.4028058 0.47108811
-5.5786548 1.420401 0.48302558
-5.7899308 1.3703671 0.89861572
-6.3406076 1.3845855 -1.7689722
-6.423223 1.3847394 -1.8032455
-6.4431715 1.3822114 -1.8018546
-6.4659286 1.3749473 -1.8403986
-6.9100261 1.4511145 -2.4501777
-6.8316898 1.3824739 -0.77194846
-6.8288774 1.3822095 -0.7320478
-6.7091761 1.3848763 -0.74047172
-6.8373175 1.3830011 -0.85174859
-6.91149 1.3798633 -0.76633728
-6.7428493 1.3841261 -0.67840886
-6.6636491 1.3869044 -0.66346931
-5.8362989 1.4496452 2.8946295
-5.9131584 1.4364002 2.9401629
-5.9966011 1.4489148 2.8258731
-5.9587569 1.4364811 2.8632157
-6.9044509 1.3671335 1.9680022
-6.8560023 1.3668708 2.0848455
-6.9757113 1.3685243 2.0934055
-6.9386983 1.3739876 2.050684
-6.9471817 1.3645326 1.93094
-7.0522814 1.3636696 2.4597735
-7.0697536 1.3660468 2.4610338
-6.9828196 1.3657733 2.1340022
-6.9714198 1.3657533 2.1532402
-6.8417358 1.3634641 2.2843235
-6.8047047 1.3664269 2.2415891
-5.0406952 1.4612151 -1.4591377
-4.6593924 1.3845158 -1.5266373
-4.8391399 1.3843976 -0.13246214
-4.8363142 1.3866811 -0.092548966
-5.0850973 1.3833711 0.087261915
-5.0395918 1.3855631 0.16427365
-5.1193862 1.3803823 0.16985527
-5.7549911 1.3712332 0.25457963
-5.6639709 1.3706177 0.40857589
-5.8291802 1.3681538 0.33997518
-5.66678 1.3733176 0.36868718
-7.0221553 1.3809918 -0.65879452
-6.9822493 1.3785828 -0.66161072
-6.988483 1.384488 -0.72077632
-4.5212555 1.3593522 -2.9801531
-4.6808491 1.3491305 -2.9689653
-4.4757142 1.3463796 -2.9032502
-4.307694 1.3733099 -2.7946203
-4.3560257 1.3615456 -2.9115903
-4.3161297 1.366601 -2.914371
-4.1565037 1.3418247 -2.9257915
-1.110245 1.3858386 -4.1853418
-1.2663844 1.3880295 -4.1263676
-1.2665663 1.3855456 -4.1288757
-0.16335487 1.3705612 -2.1461029
-0.017879009 1.3524579 -2.0767124
-0.10646772 1.3582872 -2.1904798
-0.11465406 1.3697544 -2.0293651
-9.3291759 1.3896964 0.58283371
-9.2864742 1.3822743 0.61995161
-9.2519932 1.3678374 0.53732181
-9.1322803 1.3685573 0.52906322
-9.6428185 1.3724542 0.68460298
-9.5203943 1.3805139 0.71628094
-9.6483402 1.3752764 0.60480392
-7.2258711 1.4091589 -2.9494834
-7.231133 1.3950849 -2.975352
-7.1469674 1.4293505 -2.9674468
-10.476246 1.3163551 -0.14020205
-2.7390389 1.3929013 -1.0204093
-2.7418413 1.3806664 -1.0603923
-2.2002931 1.3805413 -1.053684
-2.6336601 1.3921125 -0.94315827
-1.914968 1.3258258 0.066625834
-1.912375 1.3856202 0.10436249
-2.1663136 1.3608255 0.48305386
-1.966933 1.4053333 0.14842182
-1.9151416 1.3233399 0.064118743
-1.9226573 1.3658299 0.064881504
-2.5064683 1.3645643 0.20884031
-1.9978142 1.3909606 0.030223668
-2.8866496 1.4191577 -0.87227309
-3.3086064 1.441973 -0.60161483
-2.93294 1.4195958 -0.92635751
-0.82877064 1.3463112 -4.2787313
-0.8084197 1.3460459 -4.2401047
-3.4667475 1.3629774 -4.3277435
-3.4504232 1.426487 -4.102911
-3.3499568 1.3682382 -4.3762932
-3.6828971 1.4608655 -3.9905531
-6.4131637 1.3535762 -3.3103647
-6.1284208 1.4028153 -3.2553918
-6.2111177 1.3856546 -3.2896416
-6.2053313 1.4051323 -3.2097223
-6.125536 1.4075546 -3.2154648
-3.1807923 1.4250536 -1.0291424
-3.2690325 1.4232347 -1.1432309
-3.0239904 1.41304 -1.08038
-3.1150413 1.4064846 -1.2344029
-6.0798788 1.4094945 -3.138536
-6.0659347 1.4130046 -2.9911613
-5.5303125 1.3821422 -2.7885377
-5.6138949 1.3905971 -2.9429877
-5.3648181 1.3787133 -3.0007339
-3.0565281 1.3737587 -4.4777708
-3.0594306 1.3615237 -4.5177488
-3.1105886 1.365732 -4.3936882
-3.0507369 1.3682297 -4.398016
-3.0355015 1.4268396 -4.1881771
-4.4714932 1.3763937 -3.2520573
-4.5752344 1.370616 -3.1767719
-4.501061 1.371255 -3.2622001
-4.545495 1.3683659 -3.1665258
-3.8401124 1.3450317 -2.9881845
-3.6203778 1.3172134 -3.2845666
-3.6748791 1.342227 -2.9196556
-3.3968208 1.3813603 -3.330045
-3.2955718 1.3496294 -3.2270577
-3.3943274 1.3813603 -3.3302264
-3.3618546 1.382037 -3.4353516
-2.7737141 1.3672827 -3.8967545
-2.884706 1.373992 -3.7683337
-2.5140841 1.3404229 -3.6350377
-2.6961229 1.4513384 -3.3804505
-2.7105877 1.4851607 -3.5797064
-2.6163244 1.4688355 -3.3861272
-2.6778781 1.4208093 -3.301764
-2.7951682 1.3939021 -3.2575758
-2.5055687 1.3555568 -3.1302013
-2.4947228 1.3554746 -3.118428
-3.2347703 1.3388561 -3.3420918
-3.2811809 1.3419523 -3.4289415
-3.2177176 1.34162 -3.3834178
-3.2434573 1.3421497 -3.4617589
-4.5616803 1.3755455 -2.4157917
-4.7724476 1.3838239 -2.5612731
-4.6414814 1.3754344 -2.4101639
-4.3138499 1.3925853 -2.3128569
-4.5133352 1.3723096 -2.2989216
-4.5217748 1.3706005 -2.4186392
-4.3537364 1.3775312 -2.3101437
-4.6268945 1.3653662 -2.7721617
-4.6527152 1.3514912 -2.5699308
-4.4273925 1.368143 -2.7862136
-0.77021313 1.3455145 -4.1626701
-0.53535843 1.345489 -3.5337627
-0.53003407 1.3702543 -3.4938929
1.6617341 1.3653475 2.305747
1.6107736 1.3687401 2.148911
1.579155 1.3780056 2.2714448
-4.3844848 1.3888992 1.7748317
-4.2329874 1.3705629 1.6290171
-4.3925943 1.3752424 1.6403635
-4.729466 1.3972709 1.7198933
-4.7352753 1.3926634 1.6400816
-4.9687252 1.3783468 1.7373028
-4.8219218 1.319285 1.2394221
-4.7780704 1.3901222 1.6030922
-10.930082 1.2720261 0.251802
-1.0553067 1.4219642 -3.9810407
-0.98717737 1.423932 -3.905762
-1.4809361 1.4232693 -3.7671468
-1.0199609 1.4382683 -3.1004555
-1.1563685 1.4099104 -3.3317306
-1.1907055 1.4167991 -3.2490873
-1.233391 1.4095581 -3.2862594
-1.1904175 1.3458749 -4.1848001
-10.81316 1.3700526 0.28422368
-7.6038837 1.3902379 -0.91793919
-7.5485768 1.3865323 -0.92337346
-7.5513163 1.3841935 -0.96328866
-6.5544491 1.4386648 1.4338772
-6.4949021 1.4365056 1.3895811
-6.4858675 1.4421417 1.2686781
-6.6080561 1.4368646 1.2772388
-6.6769519 1.4360921 1.4023734
-6.748343 1.4353131 1.5276843
-6.4606538 1.4528507 1.6278517
-7.2040129 1.3980117 1.3189281
-7.8334579 1.3926743 -0.98387671
-7.7164555 1.3860563 -1.032074
-7.838953 1.3904969 -1.063697
-7.9132814 1.3946954 -0.97835934
-7.9215441 1.3951792 -1.0980732
-7.8307047 1.3925136 -0.94397116
-6.3839006 1.458542 -1.2441266
-6.3867145 1.4588062 -1.2840276
-6.8255615 1.3906962 -1.2535285
-6.5152926 1.3781819 -0.83439028
-6.589467 1.3775432 -0.74896371
-6.5922809 1.3778071 -0.78886294
-6.6720848 1.3801953 -0.7832197
-5.1725531 1.4682647 -1.4096928
-5.0681262 1.461177 -1.4572048
-5.030345 1.4713188 -1.0988994
-6.7378216 1.3837644 -0.57805848
-6.6608338 1.3841406 -0.62358499
-6.6973348 1.3813181 -0.60142267
-6.6203365 1.3816986 -0.64693201
-6.6181188 1.3839315 -0.58649886
-6.6580195 1.3838757 -0.58368587
-6.7827516 1.3840348 -0.67560542
-7.0997434 1.3835286 -0.59263563
-7.1053729 1.3865573 -0.67241979
-7.062057 1.3809018 -0.6559906
-7.1390705 1.3880209 -0.61044443
-8.1637096 1.3914 -1.1214694
-8.200861 1.3909987 -1.0788119
-8.2806692 1.3905203 -1.0733044
-7.1513042 1.4200071 -2.9809484
-7.1089916 1.4195877 -2.997757
-7.079031 1.3866837 -1.4361796
-7.238637 1.3889616 -1.4249098
-7.1532078 1.3885441 -1.3507363
-6.5042539 1.3822429 -1.8150911
-5.9175587 1.3842822 -3.1622159
-5.9602261 1.3843801 -3.1473341
-5.6753101 1.3518525 -3.1394153
-5.2752042 1.3419486 -3.2741497
-5.1387877 1.3565595 -3.6048052
-4.8791471 1.3497006 -3.342958
-4.8450394 1.3602273 -3.425576
-4.8849359 1.3577292 -3.4226978
-6.5244985 1.4079387 -3.1866751
-6.4048085 1.407823 -3.1953113
-6.3081613 1.4204355 -3.0141289
-6.4476061 1.3931231 -3.2324245
-7.9792614 1.3834093 -0.7733736
-8.0701017 1.3860749 -0.92747414
-8.1072512 1.3856739 -0.88481629
-7.7425151 1.3749336 -0.24845701
-7.6550398 1.3912395 -1.0747257
-7.6606646 1.389267 -1.1545438
-7.6179552 1.394058 -1.1174239
-7.6184893 1.3453987 -2.4410133
-7.3033986 1.440032 -2.3423092
-7.679605 1.3419636 -2.3178511
-7.8472157 1.3909804 -1.1834111
-8.0467377 1.3897818 -1.1696448
-6.7609859 1.415408 -3.1294565
-6.7239966 1.3956313 -3.1723592
-2.3182874 1.3105407 -4.8050098
-2.3587027 1.35559 -4.8092957
-2.2959666 1.3503237 -4.7737789
-2.3557949 1.3778253 -4.7692547
-2.7488055 1.3097925 -4.6584539
-2.6713681 1.3100054 -4.69666
-7.5573888 1.3065555 -2.6059811
-6.0546741 1.4069479 -2.8315942
-5.9748735 1.4070597 -2.8372211
-6.1030188 1.4101853 -2.9484637
-6.0063262 1.398712 -2.7147584
-8.1416473 1.3851113 -0.8022542
-8.0590563 1.3804305 -0.76787782
-5.1328726 1.3843007 0.24928048
-5.3132811 1.3770299 0.2636641
-5.23909 1.3801098 0.17826656
-5.1109729 1.3797848 0.28955922
-6.0224676 1.4375273 -0.66825259
-5.7115064 1.4162475 -0.80811739
-4.8221836 1.3980923 0.10701674
-4.779458 1.4004544 0.14410031
-4.8139625 1.3868116 0.78808957
-4.7825527 1.3875443 0.66556287
-4.8937621 1.3866516 0.79374826
-7.1475716 1.3628585 2.4941483
-7.0417733 1.3645881 2.2910984
-7.0469394 1.3649166 2.218785
-7.1210337 1.3639902 2.3042779
-2.1775799 1.3616965 0.32345372
-2.2062171 1.3632778 0.48588419
-4.9299712 1.4205675 -1.3469144
-4.7650323 1.3905296 -1.3186454
-5.8421211 1.405905 -1.5232842
-5.5945048 1.3785698 -1.1399258
-5.535181 1.3787031 -1.1516279
-5.5318427 1.3833894 -1.1042132
-4.4852057 1.3796684 -1.8998556
-4.5706286 1.3725861 -1.9740787
-4.6020889 1.3742381 -1.8515477
-3.1491847 1.3433238 -3.2680638
-3.2185802 1.345004 -3.2726176
-3.1359603 1.3398513 -3.2383792
-6.3060637 1.3782192 3.0481708
-6.3145809 1.3737634 2.9284511
-6.3830094 1.3774749 3.0937667
-5.2573524 1.3901464 2.5722857
-5.2829823 1.3864572 2.7746112
-5.4084086 1.3909736 2.7033865
-4.7519474 1.4133583 1.9622611
-4.7178764 1.4114873 1.8795445
-5.5281048 1.3929497 2.1505136
-5.4910588 1.3934129 2.1077671
-4.9961238 1.399344 2.4613421
-4.9439068 1.3977647 2.4697251
-4.484899 1.3975571 1.6470325
-4.7381921 1.3928593 1.600188
-4.5691819 1.38123 1.4123137
-4.1616573 1.3588756 1.5035901
-4.1959014 1.3608603 1.5862327
-4.1701517 1.362028 1.3839073
-4.2471457 1.3766506 1.4295484
-3.9819727 1.3632991 1.2101624
-4.6059752 1.3865582 0.89363861
-4.6087961 1.381776 0.85371238
-2.158596 1.325866 0.023673236
-2.1352422 1.3260186 -0.00053036213
-5.6937208 1.4365399 3.2052045
-5.7250676 1.4357145 3.3277471
-5.6396399 1.4459162 3.401895
-5.6823368 1.4383157 3.3648083
-6.6280193 1.3692884 1.9081612
-6.6586533 1.3684171 2.0406792
-6.7373796 1.3683137 1.9560727
-6.6564817 1.3632799 2.0705771
-6.7762413 1.3724343 2.0791745
-6.1121697 1.368135 1.8312032
-6.1920137 1.3750702 1.8369385
-6.2603922 1.3712821 2.0022154
-6.571033 1.3681608 2.7061324
-6.4997878 1.3692688 2.5807414
-6.6907411 1.369815 2.7146919
-6.8673654 1.3597752 2.486649
-6.9414601 1.3588485 2.5721431
-6.7448235 1.3604395 2.5180013
-6.7818699 1.3599761 2.5607469
-8.2644978 1.3484989 4.3498268
-8.227212 1.3564297 4.3097081
-8.1419897 1.3690861 4.3840933
-8.1854229 1.3669211 4.3730154
-8.2041435 1.3905077 4.1037588
-8.3614664 1.3494284 4.1445227
-8.1372318 1.3907765 4.1292133
-8.1201687 1.3896294 4.3024969
-7.7974043 1.3542415 3.7848473
-7.7794104 1.3514949 3.863785
-7.6762238 1.3531803 3.6160972
-7.833087 1.3520598 3.6670139
-7.9472761 1.3485178 3.7550719
-8.2501717 1.378132 4.0166702
-7.665206 1.3525363 3.7757154
-7.5454922 1.3532557 3.7674551
-7.5193172 1.3468026 3.5651455
-8.5679846 1.358862 2.3144221
-8.7276592 1.3679028 2.3254795
-8.5597343 1.3608795 2.4341488
-8.2886391 1.3580415 2.2951393
-8.2440071 1.3584887 2.2519646
-8.3794937 1.3632073 2.141048
-7.3347464 1.3553456 3.2418592
-7.3418713 1.3567907 3.2321742
-5.9416385 1.432893 3.1025906
-6.2546988 1.3677768 3.2048635
-7.7773089 1.3635688 4.4391727
-5.6582031 1.332405 5.3057127
-5.8419647 1.4450086 2.8148093
-5.7647028 1.3735749 1.2577519
-5.7304149 1.3765632 1.1751587
-5.414093 1.4224871 1.113057
-6.3381305 1.4454236 1.6593031
-5.8808556 1.3147722 5.5570393
-5.9491611 1.3916266 5.1662998
-6.0822148 1.4369092 4.9905252
-5.900661 1.3737242 5.283061
-6.9912939 1.3822522 -0.76069427
-7.0767241 1.3826692 -0.83486712
-7.1908026 1.3869737 -0.74659181
-6.5122457 1.3703828 1.8447555
-6.2254844 1.3729389 1.7190131
-7.4175682 1.3856032 2.0849452
-7.3377061 1.3761685 2.0791967
-7.3420205 1.3769431 2.0694971
-7.3348722 1.3784859 2.1191084
-7.4602985 1.3830029 2.047883
-7.3914051 1.3222018 2.5112298
-7.4338598 1.3619362 2.5168257
-7.5485249 1.3960701 2.5649729
-5.7258234 1.4442099 0.17269471
-5.79811 1.4038653 0.21266022
-5.7074251 1.4452782 -0.029088736
-6.1742826 1.3713428 0.5647406
-7.2663054 1.3770152 1.0024084
-7.1808882 1.3742981 1.0765903
-7.2320023 1.3725026 0.91977608
-7.2292085 1.3773035 0.95970392
-7.1094894 1.3700756 0.95125294
-7.0212731 1.3696604 1.0653487
-7.0240679 1.3648598 1.0254233
-7.1038947 1.3771775 1.0310938
-6.9099674 1.3630295 0.9371959
-6.8756742 1.3635174 0.85459
-6.8700604 1.3606205 0.93437898
-6.9897757 1.3653486 0.94281626
-6.7958722 1.3636997 0.84898329
-6.6789713 1.3641703 0.80066991
-6.1721163 1.3657669 1.1660479
-6.1637073 1.3676693 1.2857642
-6.2092133 1.3654765 1.2087531
-6.4870853 1.4372289 1.2511947
-6.2204065 1.3537732 1.0490838
-6.1461921 1.344352 0.96362299
-6.3744221 1.3630123 1.1401533
-6.2686968 1.3417808 0.93212152
-6.3310766 1.359138 0.93659127
-6.31143 1.3568885 0.89510047
-6.3451214 1.4359204 1.5594978
-7.9227705 1.3751053 0.044654071
-8.0163517 1.3754323 -0.14936376
-8.1290226 1.3590019 2.2841258
-8.2252979 1.3494885 2.050159
-8.1028442 1.3525472 2.0818157
-8.1482582 1.3526305 2.0047591
-8.105628 1.3577083 2.041934
-5.3167486 1.3789324 1.7393417
-5.2800417 1.3769188 1.6915944
-5.276495 1.3791918 1.74148
-4.8978887 1.414408 1.6119761
-4.8579683 1.4096462 1.6090314
-5.2775531 1.4165648 1.3440272
-4.9747138 1.4062374 1.657662
-5.3143721 1.3962735 1.7743406
-4.6320448 1.4072638 1.6575208
-5.6107159 1.3793349 1.1667595
-5.5624013 1.3788283 1.2836587
-5.4333801 1.3995329 1.194497
-4.9484043 1.4014066 1.7200296
-5.3086987 1.3981719 1.5065198
-5.3228049 1.3793178 1.6545587
-5.3376603 1.3799906 1.628762
-5.6394 1.378449 1.3291674
-5.3797674 1.3988321 1.3511209
-5.4797888 1.3763118 1.31794
-6.0694623 1.3700939 2.9911304
-6.0239325 1.3800117 3.0681262
-5.7589173 1.3853934 2.8487082
-5.9841175 1.3927931 3.06534
-9.3689318 1.3693036 1.7482634
-9.3579426 1.3736582 1.907905
-9.3267498 1.3937564 1.9258837
-8.5102234 1.3631309 1.9896895
-8.4592733 1.3577271 2.146533
-8.4353743 1.3585809 1.9845051
-8.3085718 1.4643984 0.27212015
-8.6534634 1.3837823 1.6588451
-8.7387791 1.3836242 1.5845413
-8.747057 1.386608 1.4648385
-8.3208027 1.4424706 1.2552149
-9.2768993 1.3990569 1.9224651
-9.2356892 1.4117163 1.9397157
-9.2755661 1.4064764 1.9424471
-8.6506796 1.3786213 1.6987269
-8.6905556 1.373381 1.7014585
-8.6080065 1.3762003 1.7358679
-8.6451855 1.3807981 1.7785479
-9.6684799 1.3886465 2.6385901
-9.5835056 1.3888243 2.707906
-9.817625 1.3920732 2.8017628
-9.9548512 1.4460722 2.8515453
-8.7459297 1.3455414 4.3453398
-8.4565325 1.3600665 2.1864486
-8.5707245 1.3565239 2.2745066
-8.5879221 1.3562433 2.3157883
-8.4065342 1.3494917 4.0724554
-8.483861 1.3363703 4.1128225
-8.4440145 1.3466103 4.1101131
-8.4997711 1.3497971 3.8834264
-8.4957314 1.3500438 3.8330281
-8.4829998 1.3499424 3.8722456
-8.3807888 1.3580562 3.8652225
-8.4536676 1.3496742 3.9704587
-0.16525221 1.3564947 3.2311244
-0.2029109 1.3438038 3.2639432
-0.12833643 1.3642398 3.1883054
-0.084171295 1.3439478 3.2425632
-0.062042713 1.3772491 3.1068563
-5.2194872 1.3727434 3.1008575
-5.254312 1.3596451 3.1734657
-5.2828951 1.3725477 3.0552588
-5.3312907 1.3638995 3.2190855
-5.6620555 1.389869 3.0824232
-5.8698683 1.4073918 3.2978599
-5.6136417 1.3946061 3.1992934
-5.9270697 1.3844875 3.301842
-7.7078362 1.3474573 3.7385414
-7.6707287 1.3553584 3.6959178
-7.9005156 1.3533545 3.8521032
-7.9417248 1.3406968 3.8348479
-6.5568738 1.3766117 4.0285358
-6.6366844 1.3785483 4.0342455
-6.5745726 1.3620082 3.4281993
-6.5653281 1.3649772 3.3473485
-6.5279078 1.3627414 3.3446639
-6.559628 1.364614 3.4271431
-7.3347239 1.3500253 3.8032649
-7.508357 1.3561563 3.7248085
-7.7272987 1.3535197 4.0381203
-7.882741 1.374807 4.1115837
-7.8650098 1.3910592 4.3325644
-7.8907146 1.3911287 4.2867208
-7.8488579 1.3914443 4.349884
-7.8607202 1.3907738 4.3949165
-8.0011005 1.3923069 3.9594409
-8.0507784 1.4018304 4.0030036
-7.2462955 1.3632389 5.1644478
-7.5722632 1.3595077 4.5052409
-7.5750237 1.3621905 4.4653473
-8.022419 1.3540694 5.5385532
-8.0279408 1.3594334 5.4587669
-8.1050367 1.3637305 5.5041857
-6.551652 1.2702898 5.7072344
-8.0896873 1.3023304 6.3047476
-8.0506248 1.3001482 6.2895212
-7.8944359 1.3014181 6.2286644
-7.7387924 1.3077234 6.1603508
-7.6836443 1.2630832 6.156353
-7.5893688 1.303898 6.1099596
-8.2460327 1.2985728 6.3630972
-8.1723814 1.3244904 6.2704411
-6.9029837 1.3076079 5.8451853
-6.7868714 1.3160675 5.7868519
-8.0128832 1.3445317 5.4576635
-10.834725 1.3518888 0.40592542
-10.794453 1.3501772 0.84418964
-10.809677 1.350263 0.80514407
-10.824902 1.3503485 0.76609981
-10.801218 1.2699583 0.88442707
-10.712366 1.2694249 1.1188653
-10.638404 1.3750486 1.074092
-10.643955 1.3828701 0.99431491
-10.646709 1.3830318 0.95441067
-10.178889 1.3890554 0.76176476
-10.349341 1.3660098 2.357208
-10.386435 1.3556087 2.3998222
-10.437298 1.3460143 2.2429123
-10.235197 1.3746291 1.6877879
-10.158129 1.3727703 1.6423652
-10.07007 1.3752662 1.7565854
-9.8423185 1.3736023 1.8611449
-9.8794823 1.375701 1.9038148
-9.9263334 1.3834394 1.2254562
-9.8382492 1.3809367 1.3396527
-9.8210506 1.3812177 1.2983705
-10.224178 1.3739848 1.8474076
-10.067316 1.3751047 1.7964891
-6.7194643 1.3981639 4.0001469
-6.6280847 1.3705045 4.153903
-6.005682 1.3608599 4.3681235
-5.9920373 1.4382015 4.8487816
-6.0106678 1.3608304 4.3684783
-6.1008177 1.3661257 4.2365241
-5.3655891 1.3782539 3.3018057
-5.4796138 1.3820449 3.3901722
-5.4738646 1.3741832 3.4699309
-6.2794085 1.2974279 5.5902824
-6.3179312 1.2721037 5.6104307
-6.5648713 1.3623393 0.71244425
-6.6474829 1.3648571 0.67816329
-6.5841951 1.3593851 0.79398561
-6.5536671 1.3690432 0.87208641
-6.5425463 1.4182472 1.031947
-6.4626389 1.3634285 1.0260578
-8.1848764 1.3682085 5.5096979
-8.5568275 1.2993791 5.8156328
-8.9693394 1.2556846 6.0442829
-8.9820604 1.2558008 6.005065
-8.9446592 1.2954826 6.1154404
-9.3791618 1.2596045 4.7493601
-8.9009962 1.2553298 6.1999607
-8.8862801 1.2954267 6.199131
-8.9657736 1.3715369 1.1992052
-8.8449554 1.3596971 1.2058551
-8.8942404 1.3749994 1.0739964
-8.7580032 1.3747532 1.3051649
-8.6782379 1.3827325 1.2996912
-9.5794992 1.3737483 1.6024342
-9.4886742 1.3735822 1.7565463
-9.0208511 1.379606 1.5638986
-9.1749878 1.3833236 1.654743
-9.1405506 1.3763874 1.5721477
-9.1116772 1.3797718 1.4097865
-9.1309433 1.3783991 1.1304415
-5.7649484 1.4329334 3.3305833
-5.8039484 1.3688625 0.69909823
-5.7297668 1.376942 0.61372763
-6.2316041 1.3445696 0.88942879
-5.7073345 1.3753489 0.93293536
-5.5786328 1.4012566 0.80372185
-5.579226 1.3800231 1.0442533
-4.7200098 1.3833846 0.98191184
-6.5145469 1.4387548 1.4310725
-6.4347434 1.4389365 1.4254653
-6.5089397 1.4383572 1.5108752
-4.8252873 1.390182 0.6285063
-4.7882204 1.3929807 0.58579266
-5.0031867 1.4013311 1.003875
-5.0819774 1.4078816 0.96761811
-4.9842482 1.40163 0.95242226
-5.0533967 1.408833 0.80519176
-5.1060548 1.4015082 0.93090695
-5.3055811 1.4110545 0.94497728
-5.3511147 1.4238629 0.86804312
-5.0876555 1.4025769 0.72912431
-5.0087743 1.3983723 0.60326219
-4.9449968 1.3974432 0.63703704
-4.9891362 1.3919795 0.88254404
-5.3202686 1.4216725 1.3069546
-5.208972 1.4200424 1.1788278
-5.6652842 1.3798621 1.5314894
-5.5455804 1.3801339 1.5230777
-5.169023 1.3951324 1.175895
-5.0689583 1.4017981 0.88820201
-5.260066 1.408247 1.0219638
-5.1389461 1.4009196 1.0334643
-4.9499154 1.4091924 1.4412608
-4.8502755 1.3983061 1.4072814
-4.9086924 1.3982725 1.3963876
-3.5879045 1.4414135 -0.58180797
-3.351335 1.4421099 -0.63868403
-6.2079291 1.3712314 0.085915029
-5.2285118 1.3739353 0.89927697
-5.3902788 1.3766499 0.3091726
-5.5071745 1.3736802 0.35747197
-5.4273853 1.3813601 0.35190359
-5.3076711 1.3766322 0.3434653
-5.5925903 1.3763958 0.28329006
-5.7780538 1.3624477 0.49675027
-5.6352911 1.3740045 0.24618113
-6.1231556 1.3656368 0.72151601
-6.3051848 1.3618672 0.41349691
-5.121551 1.3834302 0.40887651
-5.0255957 1.3970674 0.36384308
-5.2138386 1.3708184 0.53733736
-5.6758404 1.3735366 0.81041503
-5.4736137 1.4187893 0.83652878
-5.5328121 1.4007442 0.92079675
-5.8151646 1.3696586 0.5394944
-5.8522568 1.3668681 0.58218688
-5.6954889 1.3849303 0.53116
-5.9432817 1.3699832 0.42820245
-5.951694 1.3705816 0.30849913
-5.5303464 1.4223942 0.59993833
-5.5219383 1.4242958 0.7196539
-6.2197828 1.3666505 0.48771727
-6.0034595 1.3709086 0.7131297
-5.5387583 1.4229915 0.48023576
-5.9124308 1.3652943 0.86710072
-6.5181108 1.3834455 -0.87425673
-6.4326811 1.3830293 -0.80008364
-6.438478 1.3760737 -0.88242865
-5.9847937 1.4233474 -0.73148894
-6.1608181 1.4067113 -2.062206
-6.1664538 1.4147388 -2.1419568
-6.2805233 1.409044 -2.0537491
-6.234993 1.4060725 -1.9767795
-6.4364681 1.427276 -2.5589204
-6.5649862 1.4504339 -2.6750166
-6.3476849 1.4279683 -2.6503897
-6.4736547 1.4288644 -2.8019011
-6.266489 1.426524 -2.4230435
-6.8142958 1.3796405 -1.0939946
-6.8912935 1.3892658 -1.048401
-6.6209331 1.384195 -0.62639856
-6.5383172 1.3840431 -0.59212577
-5.7990503 1.4201101 2.8517323
-5.7934666 1.4372469 2.931617
-5.8446755 1.4223686 3.3362305
-7.1153507 1.3661278 2.3840854
-6.9329596 1.3658041 2.6918743
-7.0490742 1.3632902 2.5397487
-6.9500275 1.3618928 2.4524608
-6.8686457 1.3648545 2.4692197
-6.8333793 1.3654317 2.4015365
-7.6407609 1.3988918 1.8095374
-7.5980864 1.3964714 1.8466775
-7.6421247 1.3964732 1.789571
-7.5994644 1.3965515 1.8267215
-7.475482 1.3696082 1.2968154
-7.4739189 1.3670171 1.3192499
-7.5553045 1.3716276 1.302332
-7.9144583 1.3719687 1.3271224
-7.797514 1.3753493 1.2789695
-7.8346786 1.3774481 1.3216387
-7.9172549 1.37963 1.287251
-7.3663793 1.3753486 1.2901266
-7.283783 1.3803307 1.3244469
-7.206789 1.3832113 1.2789512
-7.2467051 1.3906214 1.2817931
-1.8328078 1.3599581 -0.95918405
-1.8754995 1.3752154 -0.9961921
-1.7433591 1.3613566 -0.91020262
-1.8231757 1.3812604 -0.9044584
-4.5739684 1.3915985 -1.4524136
-4.6166754 1.3818077 -1.4895668
-4.7053108 1.3960495 0.058614433
-4.8932414 1.4179057 -0.32894695
-5.0528522 1.4250858 -0.31758702
-5.1356945 1.3795179 0.20935315
-5.1014662 1.3875334 0.12676722
-5.1441922 1.3851707 0.089684725
-5.1413608 1.3849527 0.12958318
-5.1071172 1.3829685 0.046940684
-5.8319893 1.3708524 0.3000873
-5.8775139 1.37866 0.22312856
-5.8390627 1.40385 0.20050207
-7.0592566 1.3832017 -0.61607695
-8.5939512 1.3569177 2.1558249
-4.8758516 1.3416712 -3.2630384
-4.8363562 1.3469347 -3.3059769
-5.0468369 1.3905838 -2.862679
-5.0649333 1.3910953 -2.9415998
-4.9832129 1.3921018 -2.7067564
-4.4315982 1.3510387 -2.8461797
-1.3931491 1.3852687 -4.077075
-1.4239945 1.3453526 -4.0876341
-0.69296265 1.4710311 -2.4363549
-1.0069377 1.377739 -2.3399348
-0.1345973 1.3722656 -2.0278816
-9.2065659 1.3652546 0.61436737
-9.211318 1.2863574 -0.76891935
-9.5231762 1.3856748 0.67639863
-9.4052563 1.3989944 0.64325339
-9.4806023 1.4007524 0.7136156
-9.4489746 1.4039763 0.5911594
-7.5421429 1.3463079 -2.5666928
-7.5919375 1.3455188 -2.4554172
-7.1803637 1.4311854 -2.8723464
-1.7551289 1.401628 -0.5081501
-1.9154005 1.3701833 -0.99344444
-1.952518 1.3648622 -0.9507941
-2.0254712 1.3512406 -0.93044436
-2.3001087 1.3742723 0.29207021
-1.8377452 1.3992504 -0.542431
-1.9578857 1.3560095 0.027213454
-1.869931 1.3796363 -0.91635251
-1.9609725 1.3715386 -0.974985
-1.9382055 1.3713444 -0.93649328
-2.902276 1.4145725 -0.95139217
-2.8917704 1.4145527 -0.94461954
-2.9519765 1.3697418 -0.098471165
-3.3660221 1.4219438 0.28457209
-3.4514976 1.4322201 0.21048895
-2.9867377 1.3642673 -0.02335155
-2.6800177 1.3698819 -0.04507643
-3.9134815 1.3568288 1.0448649
-4.0018115 1.3823222 0.93096572
-3.8792589 1.3673446 0.96229321
-3.9163318 1.3695474 1.0050366
-3.9876528 1.3762345 1.1304337
-3.9505749 1.3715309 1.0876784
-0.58133745 1.346151 -3.6507742
-0.62741518 1.3793061 -3.6113274
-0.61118841 1.3426 -3.7330678
-0.45201111 1.3808212 -2.5258765
-0.41396236 1.3737917 -2.4615428
-0.36849165 1.3757454 -2.3845057
-0.32939911 1.3804911 -2.4947953
-0.37127638 1.376035 -2.424407
-0.48263168 1.3775717 -2.29633
-0.29245138 1.3732285 -2.5376716
-0.26228619 1.3740714 -2.6727493
-0.29832363 1.3737515 -2.6174538
-0.33821583 1.3737738 -2.614517
-0.18165636 1.306444 -2.6665919
-0.4223175 1.3771607 -2.5812314
-0.38241482 1.3771929 -2.5840158
-0.32059622 1.3722081 -2.3751714
-0.20165491 1.3722039 -2.3939531
-0.19211578 1.3663551 -2.2643404
-0.18640375 1.3723887 -2.4251564
-0.16984844 1.3628985 -2.5066555
-0.12703085 1.3526142 -2.4697657
-0.069523811 1.3460251 -2.2333887
-0.16104174 1.359615 -2.3869987
0.030825615 1.3541521 -1.959959
-0.17278862 1.3606601 -2.5465636
-0.30126286 1.3715119 -2.6573613
-0.26724243 1.3745112 -2.7400644
-0.47721863 1.3820393 -2.3234677
-0.44320345 1.3775387 -2.40622
-0.50861692 1.3960912 -2.0938916
-0.46840239 1.3862562 -2.2037621
-0.43159342 1.3889439 -2.1394169
-0.45076466 1.4021894 -1.9643016
-0.51638699 1.3888764 -2.1334994
-0.40499115 1.4091439 -1.8874075
-0.31640291 1.4033155 -1.7736399
-3.6197157 1.4394426 -0.9980917
-3.3089361 1.4256796 -1.1404009
-3.2858467 1.4201758 -1.0618657
-3.1876292 1.4195089 -0.94849646
-3.3782644 1.3696816 -4.2138052
-3.4210558 1.3724464 -4.2507868
-3.1475897 1.3604685 -4.3509312
-3.2244825 1.3627064 -4.3052282
-6.3324728 1.3534168 -3.3036556
-6.2938824 1.320994 -3.324198
-6.3736448 1.3410696 -3.3183112
-6.3742251 1.3136195 -3.3259697
-6.0058641 1.3949397 -3.2241828
-5.9574728 1.3967268 -3.1593194
-6.2880211 1.3929707 -3.2439399
-6.1955752 1.3773776 -1.4183459
-6.1843657 1.4263207 -1.2584122
-6.1058002 1.3800015 -1.4246593
-6.0983996 1.3971556 -1.7458708
-6.1124744 1.4034752 -1.9453363
-5.8960786 1.3946683 -1.7200549
-6.0214105 1.3950303 -1.7914133
-6.0185928 1.3922665 -1.7515302
-6.0613103 1.3949746 -1.7886007
-6.314795 1.405961 -1.9711528
-6.3063416 1.3926693 -1.8515348
-6.2987013 1.4266974 -2.453352
-6.1152897 1.4062384 -1.9852207
-5.7899494 1.409906 -2.489342
-6.026535 1.4043084 -2.432595
-5.9810071 1.4038366 -2.355608
-6.1119766 1.417225 -2.5066843
-4.9634886 1.3602536 -2.4276564
-4.9292226 1.3683376 -2.5102191
-4.8808756 1.3626015 -2.3933663
-5.9523497 1.3924478 -2.518105
-5.938663 1.3885384 -2.6794963
-6.0805016 1.4005724 -2.6293144
-6.0861201 1.391101 -2.7091808
-6.01477 1.4020045 -2.8344417
-6.0462236 1.3961562 -2.7119606
-5.9321423 1.3893517 -2.8002529
-4.8022475 1.3599623 -3.3885787
-4.8820348 1.3649647 -3.3827536
-4.6780448 1.3588666 -2.9289989
-4.7634687 1.3542836 -3.0032051
-5.9972219 1.3991557 -3.1044643
-6.2142949 1.4242257 -2.8202236
-5.2842002 1.4622154 -1.6424587
-5.1040134 1.4769309 -1.5748694
-5.169466 1.4423748 -1.6506827
-5.5195765 1.3923364 -2.0674233
-5.2664185 1.4619725 -1.603616
-5.2614298 1.4619796 -1.6039677
-4.578042 1.36338 -3.2167227
-4.6252861 1.365869 -3.1607504
-5.3361373 1.339826 -3.1634142
-5.552824 1.3842537 -3.1077378
-5.6600642 1.3916057 -3.1001265
-5.5584526 1.3847816 -3.1875384
-5.5443568 1.3559631 -2.9882212
-5.4561176 1.3602819 -2.8741162
-5.5471597 1.3437275 -3.0282059
-5.5044613 1.3610191 -2.9910028
-5.6353626 1.3385508 -3.0908663
-5.6271815 1.3911325 -3.0247555
-5.4533024 1.3575178 -2.834233
-5.4105773 1.3473102 -2.7972133
-4.8550711 1.3939756 -2.5954792
-4.9775691 1.3740741 -2.6270726
-4.8211145 1.3898274 -2.7182021
-5.4088225 1.3496456 -2.7722585
-5.3479214 1.3621308 -2.7614336
-4.7522254 1.3657265 -2.8435204
-5.0230865 1.3620467 -2.7041433
-4.9048166 1.3898445 -2.7323499
-4.9034119 1.392213 -2.7123826
-3.270165 1.3707362 -4.3820705
-3.6430025 1.4583638 -3.9934657
-3.4618044 1.4263889 -4.0870447
-3.4638491 1.3677132 -4.287817
-3.3117952 1.4261197 -4.0578308
-3.3225925 1.4257388 -3.999398
-3.3354743 1.3694146 -4.1768064
-2.9046319 1.4314901 -3.7665069
-3.2785742 1.4255894 -3.9800346
-3.0130873 1.36229 -3.8794096
-2.7620692 1.4837207 -3.7364032
-2.9017296 1.4437256 -3.7265313
-4.4527225 1.375518 -3.1452792
-4.4315968 1.3813918 -3.2549205
-4.6606646 1.3710334 -3.2509451
-4.6651783 1.3708708 -3.1578209
-4.5268917 1.36988 -3.0598862
-3.7603173 1.3526435 -2.9937611
-2.2968316 1.359756 -3.0119133
-2.3710678 1.3616138 -2.926523
-2.1687694 1.3614833 -2.9005435
-2.2513638 1.3767091 -2.9347661
-2.4165418 1.3671615 -3.0035057
-2.4221106 1.3627412 -3.0833447
-2.2485905 1.4164182 -2.8945732
-2.3181236 1.3935728 -2.8497884
-3.0247257 1.3708098 -3.3663194
-3.0323803 1.3735853 -3.3164492
-3.0646272 1.3707535 -3.3635061
-3.3381872 1.3821529 -3.4546149
-2.7163782 1.4906902 -3.6594617
-3.2613034 1.3552128 -3.3096383
-3.1843097 1.348087 -3.3552144
-2.4332478 1.3613982 -3.2429707
-2.3135419 1.368994 -3.2512691
-2.3590112 1.3620404 -3.3283441
-2.4510074 1.3583039 -3.3186507
-2.4675815 1.3582879 -3.1604002
-2.4044864 1.3675882 -3.4053261
-2.3218942 1.364861 -3.371011
-2.4647958 1.3554978 -3.1205177
-2.9603438 1.3743544 -3.3263867
-3.1814938 1.3453239 -3.3153322
-3.2289727 1.3483269 -3.2622378
-3.2318678 1.3485916 -3.3021324
-3.2006605 1.3518844 -3.4246938
-3.2089052 1.4001943 -1.4283254
-3.283093 1.4145548 -1.342798
-3.1234813 1.4047779 -1.3541197
-3.4595571 1.3909165 -1.5711119
-4.6363692 1.3811557 -1.7688832
-4.6391835 1.3814189 -1.808784
-4.6239033 1.3836731 -1.7697465
-4.6107936 1.3831553 -1.6904743
-4.6307425 1.3806279 -1.6890836
-4.5593886 1.3890299 -1.8143618
-4.5621982 1.384294 -1.8542948
-4.3908238 1.3772116 -2.2674289
-4.7752638 1.3865868 -2.6011565
-4.6954451 1.3691981 -2.6069009
-4.589808 1.3656844 -2.8148751
-4.5499063 1.3657402 -2.8176889
-4.6696086 1.3655742 -2.8092475
-4.6381502 1.3664219 -2.9317617
-4.7179494 1.3638099 -2.9261518
-4.6101742 1.3487989 -2.5353563
-4.5869961 1.3679205 -2.7749591
-4.4532757 1.3514109 -2.9047987
-3.9199519 1.4248188 -1.8441825
-3.9923737 1.4315146 -1.7337675
-3.8698556 1.4289173 -1.7023251
1.3147211 1.3014977 2.5048342
1.3549709 1.3015058 2.5070586
1.5503097 1.3720386 2.4337945
1.4622135 1.3626616 2.3195519
1.2998295 1.3677461 2.2907331
1.3699784 1.3402425 2.7242692
1.4072776 1.3679972 2.6842568
1.4471898 1.3530341 2.6814044
1.4867558 1.3406005 2.6735797
1.2903323 1.3601533 2.7324085
0.15801382 1.2969856 3.1713393
0.27511406 1.3373148 3.1258721
0.15678358 1.3370858 3.1541164
0.23503256 1.3447919 3.1261864
1.7470984 1.312458 2.3797204
1.7443385 1.3051901 2.339772
1.7348828 1.3422115 2.420836
1.6864161 1.3431065 2.2638116
-0.18259001 1.4069885 -1.5904419
-0.13921261 1.4041559 -1.5460241
-0.18075466 1.4068253 -1.5655093
-0.14509392 1.3971782 -1.625854
-0.15685177 1.3882234 -1.7854848
-0.21035051 1.4074755 -1.6610928
-0.148036 1.392439 -1.6657779
-0.2336936 1.3930074 -1.7396865
-0.52003288 1.345269 -3.4947588
0.50882864 1.3580151 3.0271063
0.51058817 1.2978715 3.0516937
0.35198116 1.3476347 3.0780058
0.42624664 1.3756738 2.9928322
0.50606012 1.3682482 2.9872613
0.4290185 1.3629413 3.0326622
1.4594493 1.3653935 2.2796626
-1.4375157 1.3740209 -2.1896186
-1.2519257 1.378127 -2.4030321
-1.2380013 1.3766798 -2.2035227
-1.5173192 1.3689587 -2.1840858
-1.7168357 1.3713003 -2.1701446
-1.6342423 1.3660743 -2.1358478
-1.3493552 1.3732163 -2.0754819
-4.3897696 1.3775251 1.6802766
-4.4296799 1.3849458 1.6831473
-4.339139 1.3727357 1.5708984
-4.2700453 1.3627657 1.6717045
-4.2564778 1.3805155 1.6049975
-4.3297949 1.3892088 1.3953781
-4.4014988 1.3860859 1.8161701
-4.7751818 1.3949255 1.6430113
-4.7916317 1.3994441 1.6687983
-1.1192503 1.4052312 -3.3744538
-1.2264874 1.3930271 -4.1292295
-1.4820683 1.3711526 -2.8281012
-1.0431542 1.4315004 -2.8582959
-1.50805 1.3771732 -2.6257536
-1.6333241 1.3651588 -2.697294
-1.5164013 1.3655419 -2.7455506
-1.4996958 1.3738049 -2.5060658
-10.702682 1.3146381 -0.044388652
-10.667257 1.3618187 0.073642015
-10.769207 1.3535267 0.12074167
-10.815928 1.3727131 0.2443307
-8.0412436 1.3919587 -1.0898249
-8.0673199 1.3809134 -0.88759255
-6.7903295 1.3983008 0.92896426
-7.0009961 1.3686444 0.78322506
-6.607841 1.4370319 1.2446438
-8.6065826 1.3588501 0.011594653
-8.6602297 1.3544167 -0.18519831
-8.6176424 1.366995 -0.14799112
-8.7317486 1.3484536 -0.060000002
-8.7235146 1.3529696 0.059736609
-6.7473483 1.3796452 -1.4596193
-6.836802 1.3767537 -1.4132283
-6.879519 1.3794612 -1.4502988
-6.7947946 1.3791101 -1.3861001
-6.8040648 1.3790307 -1.3754225
-6.3536539 1.4583163 -1.2061607
-6.341187 1.4608338 -1.2070235
-6.3388996 1.4581196 -1.1746225
-6.6833425 1.3837513 -0.94280243
-5.5374889 1.4039164 -1.1838795
-5.5717511 1.3908341 -1.1013494
-5.5802045 1.4041255 -1.220966
-5.6431379 1.4199297 -0.97582185
-5.5576954 1.404514 -0.90174901
-5.6914454 1.3806674 -1.0929755
-6.6231446 1.3843985 -0.68682063
-6.2417002 1.4715964 -0.93326735
-6.1437464 1.4479342 -0.71017063
-5.7628045 1.3797652 -0.96764874
-5.1981368 1.4687636 -1.4880841
-6.6602426 1.3841079 -0.64411473
-6.6917272 1.3809203 -0.52162111
-6.9024549 1.3837639 -0.66719389
-6.7799463 1.3838363 -0.63570333
-6.8176231 1.3836534 -0.57243121
-8.2035856 1.3861603 -1.1187382
-6.3889565 1.3928224 -1.885808
-6.417592 1.3817106 -1.7234614
-6.494586 1.3863368 -1.6779006
-6.3007188 1.3971421 -1.7717018
-5.0524416 1.4214103 -3.2095828
-5.0691714 1.4213451 -3.1983426
-5.0704393 1.4214609 -3.2157955
-4.9028363 1.3913205 -2.9530301
-4.9241619 1.3916588 -3.0066624
-4.8839102 1.3916811 -3.0044887
-4.1347051 1.4245571 -3.7574623
-4.1491637 1.4247398 -3.7839849
-3.9136174 1.3825802 -3.8540046
-4.1459055 1.4244415 -3.739104
-5.2069812 1.378004 -3.4392874
-5.1670628 1.4230003 -3.4418871
-6.5187306 1.4149165 -3.1068351
-6.4362917 1.40606 -3.125489
-6.4418297 1.4051003 -3.1525533
-6.3620386 1.4050242 -3.1583118
-6.3109608 1.4056991 -3.0541301
-6.185617 1.3903388 -2.9828711
-6.2255411 1.4152815 -2.9798894
-6.3961258 1.3135917 -3.3168702
-2.8126633 1.3474295 -4.2951202
-2.8893569 1.3480605 -4.3848
-8.1471701 1.3879331 -0.88205278
-8.2297344 1.3876152 -0.9164505
-7.9503746 1.3842942 -0.93574464
-7.6437864 1.392683 -0.91511023
-7.6710577 1.3884732 -0.95500648
-7.6465979 1.3904477 -0.95502675
-7.6720724 1.3442529 -2.2768424
-7.6792345 1.3439744 -2.2362378
-7.6634836 1.394531 -1.1944097
-7.5651164 1.3899989 -1.1627899
-7.5678697 1.3901597 -1.2026949
-7.4696074 1.3953356 -1.2882773
-8.3522148 1.3895565 -0.94808376
-8.3178196 1.3901188 -1.0306475
-8.9397793 1.3878136 -0.74715614
-9.102109 1.3795154 -0.77608109
-8.8282995 1.384016 -0.87515104
-8.9867992 1.3679976 -0.84924078
-9.1039305 1.367126 -0.80357039
-9.1643887 1.3666413 -0.77183318
-9.1826496 1.3265976 -0.78577101
-9.1365471 1.3864521 -0.69348407
-7.2522411 1.4390303 -2.1855228
-7.3005867 1.4422673 -2.3023927
-7.6789136 1.3437068 -2.1961627
-7.2891388 1.4236953 -2.1404152
-7.266304 1.432851 -2.3850727
-7.1864953 1.4254621 -2.3907506
-7.1892962 1.4107262 -2.4307494
-7.0696039 1.4233927 -2.4391072
-7.8499408 1.3861421 -1.2233388
-7.8526525 1.3788042 -1.2632761
-6.5612512 1.4237868 -2.0539031
-6.7705588 1.3769346 -2.1798031
-6.5684605 1.4244635 -2.1561468
-7.0480785 1.3837794 -0.99727976
-7.0025487 1.3833077 -0.92029381
-7.1250572 1.3734057 -0.95181978
-6.6461868 1.3932337 -3.2055616
-6.6473231 1.3533322 -3.2207801
-6.6072078 1.3807772 -3.2209885
-2.4355822 1.3828275 -4.7634277
-2.3985996 1.3505921 -4.8064327
-2.4381337 1.3505592 -4.7985497
-2.3927886 1.3875622 -4.7263975
-2.5428157 1.3503313 -4.7558594
-2.5168571 1.3104635 -4.7780609
-2.3601739 1.3107238 -4.8295412
-6.9006548 1.3930421 -3.1195252
-6.840786 1.4104846 -3.1237309
-6.8418894 1.3930826 -3.1388044
-6.9948916 1.3927841 -3.0861821
-2.4326851 1.3850631 -4.7235184
-2.5893703 1.3798031 -4.6720715
-2.6263685 1.3795395 -4.6292801
-2.7061603 1.3770427 -4.6235046
-2.9626019 1.3517853 -4.564949
-2.9426446 1.3567852 -4.5663643
-2.8655741 1.3495315 -4.6096067
-2.8682683 1.3095479 -4.6121826
-2.7431593 1.3767786 -4.5807133
-2.8599491 1.3740184 -4.5321474
-2.8200541 1.3740169 -4.5350437
-2.9397392 1.3740205 -4.5263538
-7.4184432 1.3868359 -1.1315418
-7.3813639 1.3946558 -1.1742051
-9.99582 1.3787222 0.50851405
-9.9786205 1.3790026 0.46723396
-10.364246 1.3122064 -0.18804383
-10.364391 1.2772272 -0.19318783
-6.1401024 1.4048654 -2.9057844
-7.7908001 1.3927535 -0.94672501
-5.4323478 1.382136 -0.28933072
-5.5919523 1.3817736 -0.2781145
-5.2812161 1.415596 -0.42008185
-5.5205474 1.3750529 -0.40346432
-5.5604553 1.3774621 -0.40064812
-5.948895 1.3728826 0.34841332
-3.8849268 1.3727794 0.88252318
-3.9675832 1.3903371 0.84838051
-3.8478482 1.3680773 0.83976644
-3.7905037 1.3649652 0.5173794
-3.762125 1.380929 0.35254407
-3.7250595 1.3837255 0.30982837
-7.6211443 1.345112 3.2514026
-7.6997366 1.3696272 2.6955898
-7.6310167 1.3832521 2.530519
-7.7562103 1.3778545 2.4589477
-7.3575087 1.3489761 3.4840705
-7.0768604 1.3632946 2.5016303
-7.0668855 1.3633654 2.5009179
-7.0099435 1.3728795 2.1760755
-7.0594072 1.3648282 2.2196751
-7.75737 1.3428582 3.0202234
-7.8743711 1.3494772 3.0684214
-7.8289156 1.3418952 3.1454446
-7.734076 1.3590647 2.7781086
-7.6404114 1.343739 2.9720588
-7.80832 1.3482642 2.8633797
-7.7851405 1.3844701 2.6213534
-6.8217673 1.3596953 2.5635967
-6.7772732 1.3652101 2.52034
-6.7135425 1.3712654 2.3955076
-6.7021093 1.36554 2.5550754
-6.7092342 1.3659933 2.4553297
-7.5011992 1.361531 2.521472
-6.6166544 1.3675988 3.7520492
-6.6537194 1.3696364 3.7948081
-6.6622186 1.3626804 3.6750774
-6.6138043 1.3674177 3.7919469
-6.6423683 1.376411 3.9544375
-6.6965003 1.3745352 3.7577853
-7.4125814 1.3505521 4.494216
-7.4472637 1.3526248 4.536705
-7.2130723 1.3543552 4.4805098
-6.7380772 1.3652453 4.2196894
-6.8332877 1.3719562 4.0883627
-6.8577595 1.3620505 4.2281785
-6.9889464 1.3490076 4.6384468
-7.0220737 1.3542711 4.5606251
-6.9953518 1.3544829 4.5487022
-7.0839157 1.3516331 2.8229008
-7.526248 1.352281 2.8840222
-6.4623671 1.3670337 2.5780568
-6.4684229 1.3661847 2.7388949
-3.9206352 1.3615909 1.0855002
-4.6312728 1.4043763 -1.1274859
-4.6767993 1.4023485 -1.2044902
-4.7138896 1.404529 -1.161759
-4.4059234 1.3910283 -1.3439687
-4.4402046 1.3979455 -1.261304
-4.4430137 1.3932091 -1.3012373
-4.4857259 1.3909173 -1.338341
-4.5655279 1.3908075 -1.3327142
-5.0073085 1.4529581 -1.3412468
-5.8112116 1.3801441 -1.405334
-5.9162846 1.3952661 -1.4379244
-5.9190965 1.3930298 -1.4778411
-5.9078236 1.3719747 -1.3183739
-4.6447997 1.3694469 -1.8886676
-4.3292994 1.3852381 -1.9634445
-4.1688356 1.4053762 -1.9620974
-4.2115412 1.3955852 -1.9992492
-4.1317654 1.4231958 -2.004694
-4.2480869 1.3615171 -2.5182002
-4.2110071 1.3693371 -2.5608642
-4.2537174 1.3645461 -2.5979841
-4.2452803 1.3687538 -2.47825
-4.1603823 1.3920858 -1.8424802
-4.2800813 1.3869188 -1.8340731
-4.1575742 1.3968208 -1.8025465
-4.6189685 1.3708233 -2.0909805
-4.4593644 1.371045 -2.102236
-4.5307307 1.375142 -1.9768741
-4.4105024 1.3590592 -2.5468626
-4.5273952 1.3636292 -2.4984891
-4.4161301 1.3595874 -2.626663
-4.3154278 1.3877342 -2.3353329
-4.7325325 1.3688794 -2.5641882
-2.3130088 1.3675588 -4.7323217
-2.3101127 1.3672955 -4.6924276
-2.2731171 1.3600585 -4.7352667
-6.1150942 1.3751743 2.9142077
-6.1492901 1.3745285 2.9968526
-6.2319689 1.3791462 2.9626775
-6.1092577 1.4085222 2.7535334
-6.2432866 1.3673729 2.8030233
-5.1348104 1.3908112 2.603637
-5.1689568 1.3826658 2.6862435
-5.2174888 1.3954288 2.5694621
-5.3342972 1.3894013 2.6178815
-5.3114791 1.38545 2.9370513
-6.0010114 1.3670251 1.7029516
-5.9211984 1.3650882 1.6972413
-6.0614705 1.3662579 1.5993651
-6.2981806 1.4205148 1.6563704
-6.0922513 1.3718653 2.1105137
-6.2547083 1.3734189 2.0820241
-6.17208 1.3763006 2.1162367
-5.7725391 1.3740864 2.0952039
-5.6761718 1.3707752 2.8828328
-5.7246871 1.3810375 2.7660387
-5.8101654 1.3783357 2.6919279
-6.1236444 1.3757178 2.7945144
-5.5736189 1.3805304 2.073504
-5.5764518 1.3782114 2.0335937
-5.6904278 1.3745037 2.1219232
-5.6391468 1.3765596 2.2786794
-5.7246242 1.3738592 2.2045681
-5.7645559 1.3785769 2.2074428
-4.7266173 1.4095752 1.7598532
-4.8404179 1.4009706 1.8483505
-4.7693868 1.4020332 1.7228364
-5.3456511 1.3854479 1.8968332
-5.454011 1.3938761 2.0650206
-5.456811 1.3865578 2.0250859
-5.3485184 1.388129 1.8569478
-4.9907093 1.4184412 2.2726498
-5.0973153 1.3265975 1.9991312
-4.9155278 1.4162712 2.3073721
-5.0149212 1.3644791 2.0335202
-4.9604282 1.4184535 2.31059
-4.9525571 1.4133084 2.3501062
-4.9554253 1.4159888 2.31022
-5.0294189 1.4000629 2.3956385
-4.6497226 1.4052459 1.7140992
-4.5095243 1.4122854 1.6889589
-4.4496498 1.3974057 1.6846321
-4.3099575 1.3701854 1.6745757
-4.7203298 1.405257 1.5434687
-4.8371954 1.4022985 1.5918434
-4.7231603 1.4054747 1.5035698
-4.1387787 1.3852609 1.2615051
-4.2185736 1.3826009 1.2671504
-4.2612996 1.3802392 1.230067
-4.2701573 1.4011148 1.0704045
-4.4067569 1.3838311 1.4409087
-4.2528095 1.3795866 1.3497643
-4.423533 1.4357632 0.64036155
-4.5346646 1.3873708 0.76828313
-2.180131 1.3259652 0.0026368499
-2.3911567 1.3525481 0.13797855
-2.3198073 1.3557969 0.012660086
-5.6480732 1.4289602 3.2821126
-5.4511342 1.3855526 3.2277448
-6.6789579 1.3681226 2.0722046
-6.5767546 1.3738443 2.0649302
-6.1577678 1.3682163 1.754257
-6.1207037 1.3661796 1.7114969
-6.0722556 1.3659171 1.8283417
-6.0502586 1.3679615 1.7589818
-6.7989879 1.3635652 2.3213727
-6.6802039 1.3669664 2.3003702
-6.8185968 1.365725 2.3628852
-6.6850295 1.3697724 2.2330542
-6.3888149 1.4509535 1.8964577
-6.6707458 1.3638666 2.4325194
-6.6593614 1.3656402 2.5921242
-8.4253168 1.3475353 4.3433428
-8.3205299 1.3496089 4.1567335
-8.4041519 1.3543496 4.1073937
-9.2023563 1.3695523 4.1625471
-8.9790249 1.3869269 3.9141476
-9.1224899 1.3600318 4.1569967
-8.8431301 1.3567113 4.1377015
-8.8103256 1.382661 1.7097631
-8.8047609 1.3723392 1.7895275
-7.8014307 1.3502839 3.5445356
-8.2446213 1.3703084 4.0964479
-8.166131 1.3908584 4.0735712
-8.335433 1.3679737 3.9423232
-8.4206781 1.3553175 3.8679657
-7.4024282 1.3601829 3.5170357
-7.4079084 1.3555056 3.4372044
-7.1641407 1.4132452 3.3903446
-7.4395084 1.3472818 3.5596395
-7.3518257 1.3511128 3.563879
-7.3466921 1.3557841 3.6362181
-7.5564814 1.3489015 3.607815
-7.5510011 1.3535789 3.6876466
-7.7507443 1.3850316 2.5387912
-8.3784237 1.3575026 2.3013344
-7.8234215 1.3440737 3.2252645
-7.7408447 1.3418919 3.2596514
-7.7780085 1.3439913 3.3023207
-8.0600653 1.3374734 3.2816675
-8.0311909 1.3408574 3.1193061
-7.9774876 1.3352908 3.3160541
-5.7592993 1.4400699 3.4104166
-6.6794991 1.3884469 3.9972479
-5.9356871 1.3950316 3.1821978
-5.9361281 1.4077308 3.1421845
-7.7464309 1.3620603 4.3426962
-6.3967037 1.311547 5.6337833
-5.9376435 1.3582811 5.3257084
-6.0145645 1.3501068 5.371233
-6.0603499 1.3902961 5.2944975
-5.9833341 1.3809724 5.2488737
-6.1226897 1.2735804 5.5364113
-9.9792461 1.3751018 1.9106978
-9.9875069 1.3755847 1.7909833
-6.8645496 1.3645943 2.5265727
-7.0575323 1.4008123 3.0217514
-7.1354694 1.392396 2.1049259
-6.9500489 1.3672142 1.8910547
-6.5482526 1.3720315 2.4639089
-6.4314113 1.3730582 2.4154639
-6.4771538 1.3681505 2.3359985
-6.4740911 1.362958 2.378365
-6.4256773 1.3676952 2.4952354
-6.6992803 1.37068 2.0335665
-6.3463726 1.4435776 1.9284821
-5.8846798 1.4399081 2.7777348
-5.4910021 1.3830924 2.6691499
-5.6335464 1.3911966 2.3585508
-5.7076421 1.3902706 2.4440434
-5.9211717 1.4106569 2.5796978
-4.9685755 1.4229017 2.2914934
-5.8102126 1.3738825 1.1807535
-5.6905122 1.3766539 1.1723552
-5.9186916 1.3678145 1.348743
-5.8675823 1.3721083 1.5055693
-5.9984851 1.3626342 1.3543248
-6.0069022 1.3657302 1.2346342
-5.7877836 1.3747896 1.4999746
-5.7394695 1.3742839 1.6168742
-6.6685133 1.2693838 5.7556362
-6.7853742 1.2684772 5.8040371
-5.6639409 1.3453279 5.2259865
-5.7380414 1.3394405 5.3114243
-6.0033998 1.4224526 4.9698095
-5.9662948 1.4153953 4.9270334
-6.9661808 1.3323153 4.957551
-6.8549771 1.3311452 4.8293381
-7.0117378 1.330007 4.8805733
-6.8920803 1.3382012 4.8721132
-6.9747138 1.3379492 4.837883
-7.1578131 1.375582 0.83437967
-7.1921163 1.3800933 0.91701186
-7.1207056 1.3708729 0.79164958
-6.9969201 1.3802805 -0.84051025
-7.2964544 1.4054874 -0.53851783
-7.2934513 1.4047853 -0.5243243
-7.1566005 1.418838 -0.28826559
-7.1678214 1.4221343 -0.44785619
-7.081851 1.4043796 -0.36627054
-7.2049131 1.4193447 -0.40516436
-7.1565275 1.3850571 -0.82922232
-7.1851845 1.3964467 -0.66672504
-7.1270037 1.3933917 1.2733947
-7.0415745 1.383176 1.347538
-6.2376623 1.3826516 1.7600305
-6.3402538 1.3807163 2.0079637
-6.4864044 1.3842648 1.829814
-6.8588514 1.3656422 2.3256588
-6.9272804 1.3707622 2.2102623
-7.0498066 1.3675982 2.1788993
-6.8392286 1.3659295 1.3733304
-6.9589291 1.3631581 1.3817278
-6.8763161 1.3606406 1.4160092
-6.9505215 1.3650603 1.5014434
-6.8847289 1.3612379 1.2963055
-6.8993931 1.3593546 1.6582189
-6.8140001 1.3691373 1.7324654
-6.9578867 1.367712 1.7813354
-6.8056016 1.3760406 1.8522059
-7.5045214 1.3986449 2.0407052
-7.4218874 1.3864636 2.0750475
-7.3715096 1.3623112 2.5125244
-7.1994019 1.3626299 2.4702797
-7.4232683 1.385967 2.0051491
-7.467299 1.3865464 1.9979919
-7.3475723 1.3847667 1.9897214
-7.4700966 1.3942065 1.95812
-5.5415578 1.4206896 0.44032136
-6.2225962 1.3718498 0.44784218
-4.8190293 1.405151 0.1870338
-4.8161831 1.4051287 0.19184402
-5.0901494 1.3891628 0.28637752
-4.6656833 1.388002 0.61717469
-7.31182 1.3798214 0.92542303
-7.0296812 1.3677577 0.94563252
-5.8507714 1.3784145 1.7450141
-5.7641711 1.3761995 1.6860743
-6.1665025 1.362869 1.2458367
-6.1777201 1.3636653 1.0862336
-6.0608296 1.3691361 1.0379454
-6.1035295 1.3667443 1.0008355
-6.2603168 1.358683 1.051914
-6.1091375 1.3671418 0.92103362
-6.0670848 1.3691566 1.5195761
-6.1496925 1.3691739 1.4852824
-6.0383902 1.3650421 1.3571417
-6.1384792 1.3708768 1.6448989
-7.9200025 1.3724438 0.084547937
-7.9571676 1.3745428 0.12721682
-8.0851574 1.3768075 0.015773594
-7.80303 1.3708247 0.036372244
-7.7947807 1.3728424 0.15609691
-8.6234961 1.3673368 -0.23278874
-7.7729549 1.4138981 1.6382892
-7.7784057 1.4042196 1.5584354
-7.8555875 1.4260781 1.6039462
-8.2170496 1.3515052 2.1698852
-8.1073551 1.3596642 2.1623473
-8.2625055 1.359087 2.0928628
-7.3956728 1.3700874 1.2913085
-7.3984694 1.3777488 1.2514359
-7.2578969 1.3789178 1.122124
-7.4507146 1.3658109 0.49318096
-7.4112287 1.3685353 0.65165883
-7.4595423 1.3690417 0.53475994
-7.4464397 1.370559 0.5555529
-7.726017 1.3789657 -0.0090063214
-7.7342653 1.3769493 -0.12873232
-7.6434259 1.3742843 0.025369763
-7.712204 1.3706603 0.19048467
-9.0042896 1.3662933 0.64050674
-9.1858063 1.3598473 0.73319989
-8.996027 1.3658092 0.76021999
-8.3246689 1.3903677 0.032358348
-8.4786644 1.3690853 0.12309223
-8.5240631 1.3666682 0.046025336
-9.0249863 1.3774258 0.92264748
-9.2219257 1.4060636 0.97645205
-9.201931 1.3986834 0.97504163
-9.1791668 1.3886423 1.013525
-9.2182674 1.3983527 1.0287929
-9.2989655 1.4029229 1.0218524
-9.147397 1.3668674 0.8909592
-9.307272 1.4109062 0.90217137
-8.9451771 1.3779042 0.9171406
-8.9795589 1.3748429 0.9996922
-8.9850674 1.3751655 0.91988295
-9.3952427 1.3934102 0.78788638
-9.3980541 1.4035714 0.7480253
-9.3925743 1.4082494 0.82785767
-9.4324646 1.4055089 0.83059925
-5.2893558 1.3844831 1.7456867
-5.5422058 1.3713561 1.9509121
-5.5854764 1.3775432 1.5258689
-5.602087 1.377344 1.6745007
-4.9785953 1.4058058 1.6036568
-5.4714074 1.3998563 1.1169726
-5.452024 1.3997593 1.1431779
-5.5708084 1.3769256 1.1639432
-4.8861604 1.4036242 1.7714934
-4.8832431 1.4034283 1.8113875
-4.9629173 1.3829547 1.8171152
-4.9608617 1.3856803 1.7768706
-5.0184822 1.3982143 1.6064214
-5.3320618 1.3845924 1.708591
-5.7878003 1.4418834 3.0114374
-9.246479 1.3723612 1.7799203
